13.209461 25.037102 -0.500278 
-18.898363 16.036049 5.352938 
-21.746407 19.737709 11.514124 
-23.018448 14.278439 9.186886 
20.028122 -9.310807 3.388517 
0.711152 26.438116 3.529407 
-25.774086 -9.712859 -0.347047 
17.811932 25.953903 5.496195 
-3.136849 32.312710 11.172195 
-12.639386 14.773381 0.045262 
9.596027 27.341532 1.790703 
24.759815 14.548537 12.893950 
-22.068497 1.912543 6.478194 
10.972840 28.856812 10.639067 
-28.204222 -11.043059 4.597634 
-1.578799 29.624704 5.647034 
32.439560 -2.874825 16.327576 
12.985485 19.328836 13.018132 
19.011127 5.892082 3.464978 
-19.472790 -3.752878 2.296808 
-9.384600 23.166510 2.312736 
-25.678377 -14.716071 4.216536 
11.624616 25.885778 -5.825044 
-20.637966 13.448332 9.856713 
15.103660 21.408888 -0.387454 
-4.456951 28.167952 3.259864 
18.566998 21.128447 11.028559 
-26.702877 -3.300689 7.678176 
22.450407 3.659390 1.718986 
-18.357441 10.066992 6.232714 
-16.827589 8.462105 12.181541 
28.502708 -5.678901 6.511328 
-27.104877 -8.035521 9.890457 
-18.269180 13.113292 8.715281 
21.658033 -2.163120 1.013301 
19.690731 6.604536 5.771906 
2.224372 30.612906 2.405662 
-7.942208 29.811640 13.665986 
-21.864393 15.659276 9.770862 
1.483868 28.807699 7.044693 
-23.709871 -8.721764 16.636442 
31.645086 -1.824942 12.270456 
25.782925 -3.087403 9.927941 
23.618437 -3.507347 4.598620 
-21.465549 -11.325128 0.887504 
-14.996136 17.862829 11.356463 
29.863514 2.661779 8.641452 
-23.869154 14.570440 15.955102 
-23.996283 -1.459556 14.459113 
-17.282717 6.848047 1.210224 
-19.574791 10.271821 -2.242475 
16.310102 27.509417 13.237949 
6.570792 27.156361 10.876295 
-27.495663 -5.050087 5.780866 
-12.347211 19.633617 0.471231 
-28.738956 -0.491615 -1.538426 
24.432381 -9.428803 9.986416 
16.933975 27.136644 13.581984 
29.488388 -8.721315 2.061546 
24.383677 11.295819 11.698291 
-23.015175 -5.607508 16.058897 
-1.611885 30.342548 4.969390 
-11.789842 25.019249 1.818931 
-20.420753 -12.616064 7.201766 
4.477316 27.286570 1.253705 
13.432645 27.368725 11.395950 
24.300671 -13.381920 2.382483 
31.869463 -9.292371 12.893592 
-4.915127 31.130817 4.095962 
28.565273 3.537002 1.440105 
-20.174124 13.216366 3.070766 
24.346901 -13.008336 1.271744 
10.686816 26.503929 12.636617 
-25.432653 -14.278620 0.894218 
-25.286461 -15.619807 1.720787 
18.206030 8.646291 7.366936 
-3.833783 25.713726 5.779551 
-2.205078 27.065651 12.843113 
-12.343279 21.212881 -0.291037 
-24.634474 -14.300758 1.214300 
-18.806358 -5.224464 1.008777 
-18.196693 7.116286 -0.836832 
22.160625 16.308050 -4.781633 
-19.981882 6.719980 -1.219896 
17.797281 8.907165 14.240804 
13.969553 29.089619 11.467526 
-12.152287 25.194820 -4.847979 
-3.391566 25.143410 -0.110687 
16.408581 16.583447 6.234591 
22.013771 17.443951 -1.549442 
5.919702 26.506487 9.788849 
-9.963240 21.644560 0.134822 
-27.381653 -0.181837 5.282444 
-4.935475 32.109222 12.131821 
18.947720 7.533531 0.132486 
0.642733 29.186714 -1.293320 
-18.337605 1.715330 7.267874 
-18.734081 1.499412 6.190030 
-16.575287 10.746353 8.683743 
-16.372528 25.601343 9.094069 
19.218733 10.871025 12.183722 
-24.416861 13.476495 7.320045 
8.500294 24.250086 1.950745 
-28.530054 -5.849843 6.256829 
-21.041393 15.868531 10.618120 
15.170090 18.031342 11.270412 
-6.084981 24.727171 4.897913 
-19.828197 -10.108800 2.376483 
-20.076662 3.990447 6.085323 
-1.984769 31.779829 6.416368 
-18.576496 24.245184 14.050972 
26.960472 6.835082 -0.857684 
-21.888899 15.685972 7.122299 
-19.254267 5.136728 5.806050 
-8.251945 24.899206 -1.134334 
-12.760989 29.713747 11.681602 
-25.335651 10.882925 17.182007 
26.415684 -5.300900 0.607838 
18.418846 15.728474 -2.631568 
-23.653482 -12.099251 10.779864 
19.913031 19.377811 12.493053 
23.832333 -4.855247 3.313317 
-23.620110 -4.304413 4.315211 
-27.793070 -7.694713 9.728380 
-16.641924 11.524582 8.229342 
-19.943321 18.007763 15.168161 
-2.178298 32.082687 7.042231 
20.511318 7.085370 8.955780 
-8.287938 29.563492 12.649628 
-2.022803 30.366310 12.740544 
23.992311 17.482834 13.499413 
2.298169 28.378744 12.971635 
-18.659708 24.408195 14.807343 
13.067652 28.961624 15.943993 
18.772388 25.327215 6.185030 
23.225405 13.705386 1.020965 
2.326334 25.890705 5.971710 
-29.809959 -7.851768 15.600040 
29.395767 2.497749 13.284581 
-13.520935 24.199121 1.753368 
-26.814852 -7.064517 9.683478 
-17.706465 19.008801 -2.601633 
-23.326960 -0.826251 14.636978 
-23.754688 -12.327305 -0.256206 
-27.629416 3.007366 -1.474065 
2.168641 27.289991 9.007970 
0.895607 24.113897 14.115270 
24.588099 12.064254 0.211936 
-6.750494 23.078110 13.058757 
23.568462 -14.143537 2.246028 
-25.254799 -3.293586 7.537317 
-29.810169 -7.827363 9.558419 
-22.821398 -12.029078 12.090931 
10.891618 20.053265 0.541370 
-23.259005 -14.086481 1.912501 
11.589248 26.608545 -2.768591 
-0.342221 26.811630 8.138426 
-13.713210 19.979773 -0.249396 
24.534269 -2.928624 10.888186 
16.695381 23.153282 -0.579757 
-16.103821 21.090792 -7.220720 
19.708315 23.984329 14.852762 
-29.706898 -12.138508 3.397792 
-22.911270 4.280302 14.862334 
4.102375 26.104540 12.039565 
19.941717 11.588012 10.757417 
-10.885256 21.814924 11.242314 
-29.601616 -2.872491 17.968578 
11.625731 24.484308 -0.641929 
-22.036749 7.866611 11.330372 
-17.089745 12.430302 10.833044 
-19.071516 -0.069006 8.205572 
9.240450 21.050838 0.809363 
29.620821 4.872046 10.092100 
-22.314625 -14.724116 6.096015 
-14.511864 9.076903 -1.887307 
23.259682 12.787025 11.685178 
25.224161 -3.797121 9.366315 
-22.668968 17.328264 15.049057 
22.758812 -13.418520 6.397017 
24.456257 -13.909775 5.574172 
-23.948877 -12.911093 8.295531 
24.516041 14.452668 12.132377 
21.621668 -11.084061 -1.492962 
-27.755184 -11.257068 15.231312 
14.864885 17.463507 8.268867 
-7.197006 28.015892 13.885720 
22.164543 13.480738 5.764714 
-23.834064 -3.252702 3.604868 
-15.529037 11.277925 2.870956 
-13.310995 13.906784 2.961052 
27.441788 6.104484 1.890716 
20.846647 8.084885 13.929358 
22.935827 10.765140 11.776512 
7.345704 25.739628 1.518648 
-1.509386 29.641584 9.861954 
-23.610888 8.527136 1.973577 
-17.056017 6.354804 14.004825 
26.232244 7.332327 0.857621 
-15.668494 15.394350 5.660941 
-12.404018 24.282049 7.174953 
21.073889 17.348343 -6.229349 
26.223064 9.499262 10.799827 
-13.436646 15.307953 -0.088297 
-4.612126 25.856754 4.843626 
-24.736164 -12.187293 9.041163 
-27.104004 2.621986 3.816365 
29.671137 0.314324 11.913691 
17.819384 9.411842 7.221377 
18.746614 7.109904 3.123143 
4.186776 29.106464 0.147671 
-9.527463 26.471472 12.376400 
24.005970 14.868386 11.381556 
10.903148 17.603416 -0.083154 
-18.094336 0.303087 5.486384 
-21.544662 19.067122 13.092712 
4.262373 25.239241 2.635097 
29.366554 -3.266149 16.416563 
25.971987 -1.702559 13.583642 
-23.549448 4.554107 12.390770 
18.278934 12.047260 5.578210 
-16.178164 16.091082 11.113106 
20.550325 12.446842 -0.121286 
3.081015 23.726494 2.425518 
-3.507489 27.803492 -0.304848 
-14.989233 16.188292 -3.621456 
29.208492 0.414880 6.401141 
16.698034 18.467001 6.354321 
28.049522 -0.159196 13.202102 
-22.290812 -0.519422 5.828177 
25.215618 6.630044 14.052411 
-25.406956 -5.150087 13.774004 
27.063231 -0.533230 14.445747 
21.589285 11.807827 13.602717 
24.073395 1.234191 12.151847 
3.389910 26.825294 -7.981603 
3.833022 31.474546 3.800106 
-11.453895 23.656334 -2.053359 
-27.202841 -2.224617 3.446096 
-21.197910 -5.728555 10.354465 
17.821655 3.544829 -2.672864 
-21.577446 13.386900 -0.074811 
-17.936337 3.727551 8.623811 
15.439530 19.060503 0.854606 
-22.297674 -2.280826 -0.870112 
-8.867575 20.031742 -1.835791 
29.873720 -1.113336 9.946093 
8.171477 28.288225 -0.209579 
-21.359234 19.834963 12.782315 
-24.635103 12.570332 10.787402 
-25.992598 -8.303129 3.464583 
23.534988 12.353776 4.106302 
27.543623 -11.327622 17.061005 
-19.552164 -1.738509 11.738568 
-27.185005 -2.322932 9.671176 
-16.761148 18.331696 5.739898 
-22.935633 -3.556008 11.935435 
27.779083 0.097494 11.449149 
-29.084141 -7.546259 9.437285 
20.634541 -1.965517 14.612562 
5.897731 27.502537 3.170042 
-5.553531 28.929001 4.995647 
15.609956 12.113156 0.497913 
20.049515 10.252045 7.231894 
-23.523005 8.725423 0.001745 
-11.459970 28.390411 13.539461 
-8.702698 21.250685 13.755980 
-25.501818 6.464293 -4.880162 
-1.528545 30.061796 6.237709 
-20.874775 3.792746 14.632046 
22.423565 -2.200349 7.322219 
8.101163 27.560360 5.253456 
-17.894806 13.807581 5.213136 
-15.381729 6.018076 -3.678886 
-18.273134 0.865363 12.854494 
29.859533 -11.229342 3.445618 
-26.098541 -2.190882 11.752396 
-21.002594 19.251150 14.675805 
26.437088 3.633515 -0.413851 
6.445977 30.352831 10.750031 
17.086794 18.151028 11.088848 
21.575491 16.320166 1.001389 
22.865524 15.264140 12.085408 
-13.150166 22.118521 8.331507 
24.394400 -1.120977 7.552154 
-21.778404 -3.681711 9.741595 
9.940304 24.694653 10.133854 
-6.908442 26.056559 13.039054 
26.441109 6.912442 5.140192 
-23.002663 0.047781 14.816726 
4.973255 29.160395 4.014164 
-23.626944 9.705665 11.051545 
-2.913250 28.767771 13.791687 
-13.145111 29.006134 4.663308 
-11.386040 20.122026 -0.138710 
-3.546780 26.512989 13.216050 
16.626453 12.237080 3.204576 
-26.491032 1.068673 -0.029051 
-21.555237 8.615188 7.222875 
17.594694 22.246542 -5.523420 
-23.032564 6.684592 13.654641 
21.900648 17.321991 -0.383699 
24.533323 -3.033477 14.676567 
-25.255356 -8.709215 -0.482869 
3.952022 20.919357 -3.285772 
-12.607831 24.886990 0.527274 
-23.776571 6.310408 1.903206 
26.916681 6.226383 0.944008 
14.365057 22.976990 0.407346 
-28.912243 -3.928077 8.707806 
-17.097996 7.380127 0.480894 
-19.706392 -7.706780 7.577963 
5.843010 31.671551 4.683640 
-13.327576 24.810606 -3.580627 
-19.959318 2.712969 14.471689 
19.355364 1.674664 1.080061 
3.602324 28.636200 10.903305 
20.625473 22.588879 14.582315 
29.771646 -6.404643 2.629617 
-15.805217 28.706461 11.670703 
10.144697 29.920572 7.808506 
-13.226044 25.101723 -1.619043 
-21.409891 12.641621 13.541794 
23.702112 -3.892590 8.787312 
-12.589108 24.694510 5.609965 
-19.348707 7.052897 10.606336 
27.156502 -6.502253 8.211761 
2.967808 26.133158 10.511539 
-18.193357 8.254110 -2.442009 
-25.978935 9.333315 17.271631 
19.061949 14.701787 0.111253 
-26.557188 -0.997856 7.632168 
-20.569477 0.321791 14.489347 
-23.154696 11.151805 13.584686 
-4.378978 24.806452 3.197627 
-27.046251 5.389459 13.660702 
-24.479044 -5.781837 1.777029 
26.454859 -10.901599 12.455685 
28.047304 -0.609711 5.670012 
19.777918 -3.558156 0.801791 
21.405436 12.862731 7.286580 
-22.020880 18.716911 15.429237 
-19.386780 17.834255 2.486611 
13.530079 27.101000 5.080466 
19.409470 24.514311 6.203017 
-25.584867 10.635947 12.594132 
10.786863 25.046173 6.638378 
-19.850565 -2.889494 -0.679454 
9.033875 18.752329 -0.137828 
-10.406954 21.034729 6.130623 
-19.479937 17.827244 -1.008652 
-11.220059 24.916069 2.273619 
-14.784312 28.826160 6.375191 
-27.692276 1.301341 -4.042803 
-17.902340 15.590298 13.449266 
-6.845617 20.823719 16.517624 
6.149556 32.023724 9.422193 
21.553791 13.743341 7.289458 
29.699821 1.260441 10.338907 
-17.599121 5.022404 5.352800 
-6.798775 31.922400 15.904114 
-16.061071 12.314629 1.993004 
-16.813822 2.994597 0.018097 
-19.135815 18.729414 1.240352 
16.756613 23.485100 3.460628 
20.173496 23.280317 14.710205 
28.738304 6.188838 7.216400 
22.236662 16.008228 -0.276307 
-21.516438 3.483362 14.798330 
-14.694376 19.721020 3.194255 
29.262396 -6.034911 17.175343 
-30.117537 -7.065416 11.779355 
-17.913300 25.417860 16.332710 
28.360769 -4.776455 2.473782 
-15.348534 25.615494 5.471301 
28.522020 -9.453869 14.212749 
27.136305 -3.161923 4.390507 
-29.975397 -5.811389 10.541490 
-27.210468 1.943642 6.402447 
14.695378 15.917813 2.392960 
19.505251 21.371094 8.130085 
19.633142 14.959869 0.587320 
-4.112929 26.500525 0.805526 
-29.492483 -8.683145 1.566300 
27.692841 -11.256851 1.115536 
17.667356 9.229882 7.955605 
23.145390 19.148863 13.310831 
-22.978947 15.648756 12.117199 
11.185845 15.635714 -6.042430 
-20.658907 -2.051328 -0.996402 
-20.376177 -10.002275 15.940845 
-16.346540 14.352432 9.311296 
-21.437292 6.685269 7.239140 
25.096611 0.937059 2.120808 
-3.136194 29.025812 -1.866696 
10.399295 20.417637 16.432676 
26.541946 -3.880312 3.529391 
21.074745 19.201817 1.744210 
2.315681 27.598022 -6.384523 
-8.198784 21.238783 -1.086820 
-24.355886 -12.245200 17.352179 
27.650772 9.522381 13.806458 
15.982405 24.992044 11.454238 
-22.540869 1.395661 6.224234 
-2.020882 29.255627 5.113649 
31.613462 -4.761415 16.326279 
-29.068850 -1.609400 -1.161628 
13.064837 29.489235 6.872073 
-23.564281 1.240609 1.715447 
-27.144558 -8.732439 0.145202 
17.944225 14.228150 2.644473 
20.843386 -2.264853 2.549395 
-18.853237 0.000974 -1.167392 
18.677406 23.704399 12.094183 
-5.968771 27.533243 6.629852 
19.797953 6.985709 4.118956 
-24.413696 1.197249 7.371042 
-23.257805 15.861409 13.879152 
7.293619 19.686115 -1.974247 
-24.760071 -1.815885 -0.431650 
6.118888 24.088507 12.930084 
21.203430 10.394736 14.394673 
-22.284626 4.746105 7.009815 
-17.351357 26.426126 15.564635 
8.794907 27.183649 11.587921 
-26.169832 -15.638566 3.049417 
18.044325 3.483259 4.125969 
-20.293495 5.014684 0.491741 
-17.646654 23.071198 11.496082 
21.305527 -2.367355 17.623671 
-26.444860 8.553222 16.202803 
29.937971 -2.887314 -0.296542 
-22.185583 -12.579622 0.771837 
-23.863228 -13.916561 0.652383 
4.643355 26.876682 1.840803 
16.805418 22.128756 4.380284 
20.062897 14.258158 3.497137 
27.380262 -0.772894 13.274428 
23.265173 -7.902957 16.955177 
-14.872996 16.398811 4.998805 
22.710159 13.899414 6.451019 
11.027184 25.065140 7.852803 
-26.639311 0.137193 13.821991 
18.756439 9.031622 1.609506 
22.712723 14.697075 8.653885 
-23.231115 -12.107484 12.773880 
-28.635538 1.775509 16.842920 
20.780018 -9.762382 0.560064 
-9.029329 23.077942 5.596375 
-0.477347 29.504770 5.318009 
18.316359 26.363871 12.985554 
9.410892 29.040333 8.902858 
-23.916409 -10.193559 7.082739 
-21.410698 3.355016 -1.197547 
21.506145 -4.786595 13.622541 
22.695118 15.377680 -1.034542 
-20.079216 -9.675858 6.800114 
-15.800040 9.300554 14.676366 
-3.378023 24.913713 2.259288 
20.321932 -1.365626 13.038814 
-12.127165 30.166300 12.431210 
4.744122 26.739315 3.206876 
19.314867 4.376361 17.263464 
28.807037 -4.926484 4.297395 
-28.056499 -2.881951 2.704774 
-8.763211 22.480577 -0.911664 
11.184756 19.644201 3.047330 
18.777390 0.774782 0.499948 
24.461260 12.605670 -1.640559 
-15.081674 17.542879 0.728958 
22.768614 -12.049088 7.106005 
-11.552576 22.964539 10.341972 
1.469597 28.575882 6.368857 
14.761081 24.732052 0.028856 
-19.747869 16.592831 -6.508425 
-10.329538 24.049623 -1.172948 
-5.758548 31.840113 6.413436 
-28.202599 0.012862 13.612511 
20.151623 18.715355 -6.465956 
-28.499996 -0.899447 -3.684616 
-20.819300 19.441242 5.678854 
-28.495771 -9.287007 9.638289 
-24.341703 -15.364994 0.259752 
-4.520412 21.035658 -1.123010 
-25.281527 -3.995438 12.860029 
-20.104357 19.901102 5.415634 
10.253809 22.954662 -0.986351 
-22.043766 -11.295923 10.631610 
-28.141777 -7.039749 8.033045 
-26.601320 4.238585 3.188474 
28.338785 -12.842240 0.332893 
-11.657161 23.898767 8.336045 
26.292847 -0.531747 14.590036 
-22.315775 12.341658 1.617125 
-18.417603 24.011906 13.331477 
15.753498 20.969927 4.874926 
-27.055237 -15.167638 3.911677 
18.797703 21.268778 -0.580596 
-25.026348 -9.871539 -0.521323 
-26.029224 0.555579 -0.260044 
-19.429642 17.542648 -5.803190 
-7.343343 19.383043 -0.756131 
18.764000 10.636272 11.485090 
12.403677 29.403683 11.451092 
15.442590 25.809114 13.963635 
20.237583 -6.239102 2.729994 
10.719318 23.837412 2.223670 
29.064270 -0.697164 7.807451 
-21.625767 11.098688 13.849392 
-19.238390 20.568230 13.484150 
-16.151033 26.266054 7.558235 
0.233254 27.952797 5.699218 
22.188776 17.391998 4.841593 
9.283834 26.129362 8.568971 
22.329550 -3.165474 5.872808 
-24.644682 -6.586385 9.545510 
-28.280914 3.242773 14.478127 
12.075136 16.587822 -0.736575 
-17.358505 14.602876 -3.311336 
17.708521 10.244340 7.756293 
26.750843 7.354373 -1.977719 
13.164052 24.785679 -1.202854 
25.766970 -2.511848 11.474649 
-18.360407 11.079128 10.982239 
20.033882 2.990602 6.681878 
11.864058 28.630426 10.650994 
18.614660 10.765958 7.228049 
18.901415 21.839647 12.400916 
-22.184534 -0.375426 14.657540 
-29.835899 -5.697808 1.351185 
-27.713900 0.595593 2.828410 
-25.763393 -5.537756 4.078065 
-28.342432 -4.583966 7.431039 
-23.620569 -7.897294 -0.671088 
-20.905483 6.565387 4.320540 
27.193193 2.819916 6.762255 
-26.841520 6.583310 11.775288 
-3.001975 23.873505 1.004370 
17.303225 9.402645 0.796279 
-14.880399 29.512079 10.409126 
4.120874 31.212996 11.516651 
7.673645 31.257360 14.812537 
-15.326297 10.431849 15.013029 
9.568871 26.774521 5.855845 
-28.138531 3.138998 9.698408 
-23.639299 6.067050 1.205958 
-18.526428 -1.903008 14.184313 
-22.340921 0.299747 -1.339718 
1.495702 29.658602 12.883056 
-21.168640 6.634200 10.650501 
-13.105981 29.933397 13.030310 
29.798998 -1.060551 11.228698 
-12.278667 16.608580 0.684726 
-28.486378 -13.467303 2.420222 
29.986685 -9.245584 2.580271 
-19.761503 11.546279 11.084507 
5.723209 29.124752 3.314745 
12.560441 29.433964 4.704693 
15.810789 15.070782 4.595443 
-22.979712 -11.559281 9.810737 
-21.666153 18.167963 5.757146 
19.367401 11.645419 11.189870 
29.285282 -8.755252 10.520829 
-4.883511 30.350910 14.367719 
18.193890 2.288189 -0.915943 
29.396029 -3.463655 8.669910 
26.254202 0.650078 11.829395 
21.783947 20.424469 11.992054 
5.309937 25.923220 11.623688 
-0.668986 29.277788 0.631595 
16.132944 25.280588 14.261757 
29.659727 3.471673 8.674441 
20.469952 5.693341 2.531083 
20.799332 21.627796 12.104631 
-16.253859 15.025993 -0.026063 
-15.363557 11.625335 13.607515 
32.538155 -2.536574 10.235895 
11.914883 15.142695 -4.303441 
-24.805201 12.443903 16.254343 
5.345177 26.977777 4.776388 
29.101763 -2.789381 2.391153 
26.110924 -14.166587 1.823195 
19.081429 25.858078 11.449973 
-7.677975 22.918917 12.673597 
10.429365 25.767658 6.623821 
-19.061352 14.270192 4.878869 
-2.280447 32.124935 8.087006 
6.392531 22.861010 2.303116 
-4.159437 29.133053 0.196533 
17.055368 6.281744 -1.061016 
16.865219 20.706968 12.662962 
21.976114 14.775942 5.635817 
-18.189703 -3.326580 4.524519 
10.271500 19.884670 2.732163 
-7.891825 21.783636 1.659625 
-23.988068 -11.657372 9.534964 
-22.696178 -10.986837 15.345608 
-18.460621 -1.220188 17.807913 
3.832272 26.957478 -0.713221 
28.945389 1.519732 -2.548068 
1.226660 32.480797 11.560855 
-25.505814 -4.250836 6.886480 
-18.743048 5.983087 4.197825 
10.063930 29.020947 4.769279 
22.916288 -8.189332 6.671988 
-0.628739 28.821199 8.821234 
-16.603437 10.403046 0.805461 
22.182350 7.935628 4.241146 
15.748761 22.168865 3.611063 
17.707104 8.667727 0.126468 
-17.860636 17.719841 5.170672 
19.319036 -7.893459 5.432089 
16.208504 18.210133 11.003417 
-27.974081 -13.421298 6.685660 
5.608247 28.200340 7.016912 
27.797977 5.458528 4.201246 
-12.926732 26.036255 14.758164 
30.002678 -4.821264 1.602542 
30.461718 -9.996370 13.033941 
-9.619352 22.660257 11.481226 
-3.389875 20.205467 -5.012801 
-19.805841 -9.456040 4.193991 
-16.198715 3.586092 4.820316 
14.341870 19.990236 0.927792 
-28.164793 -9.518035 14.685444 
-19.961010 5.382917 13.359989 
-18.417313 1.774750 13.887609 
-13.132070 23.230803 -2.158196 
-18.488689 12.186166 1.600110 
-17.650993 1.579531 10.140947 
27.576153 -0.238248 0.686507 
8.827843 26.951099 8.894861 
22.841558 -7.029900 10.899296 
9.609831 22.597349 2.951570 
0.005804 29.256907 -0.171248 
0.295313 31.838867 4.520715 
-23.262936 11.836605 -3.563424 
25.249981 -8.806325 -0.383984 
-4.096179 28.737003 2.663567 
-28.122284 2.863331 13.394997 
-29.800714 -4.984203 15.780818 
-3.902937 27.358870 0.574305 
9.645410 22.039007 13.977123 
14.157395 23.024986 7.435708 
19.991837 14.784938 4.725983 
26.568056 3.044256 1.640884 
13.541481 28.577776 8.895272 
28.101826 -5.705610 16.984962 
23.937819 11.596701 4.059499 
-8.367837 23.379553 1.750635 
-16.656702 17.946426 15.424996 
19.626829 23.052448 6.040835 
-22.468710 -6.422757 6.865139 
24.301947 -14.615015 4.960293 
24.204233 16.419939 14.886066 
-11.215839 26.739153 10.846270 
-23.068569 -3.624385 9.911993 
15.112809 14.613448 15.866425 
2.189477 31.118139 2.980508 
12.689413 14.621112 -3.138020 
21.563778 8.420565 2.696636 
-11.112191 29.894615 7.073794 
9.736524 22.808311 5.475681 
-17.800381 -2.042244 -1.740416 
-15.269937 15.641441 6.252856 
25.254974 -11.645769 0.101880 
29.871159 2.581385 9.568227 
-16.448305 26.299437 9.975210 
-10.677960 17.893980 1.427886 
26.881630 -2.395814 11.088781 
17.358656 21.099489 3.966087 
-14.712008 19.355179 5.803978 
-16.202606 25.018984 8.153060 
16.082775 27.042154 16.031273 
-21.975021 19.176373 7.763498 
-27.595760 0.479483 4.483741 
10.783115 24.998728 9.811217 
-25.749771 0.135370 2.370281 
-15.988291 26.758144 13.994419 
26.749159 5.600693 5.951263 
5.901025 31.842873 5.402874 
-28.755823 -10.773479 1.167670 
23.522903 -3.421177 6.714538 
-14.354575 15.532645 10.133947 
10.457364 23.144531 11.334518 
9.601548 26.071064 1.187182 
26.714670 5.111237 14.379840 
-18.016619 15.493471 -3.288603 
-22.510778 6.386404 14.297966 
-17.699127 13.258904 0.553392 
-16.240299 20.122206 7.870290 
-26.793240 0.657032 14.549201 
18.756510 3.659691 2.454675 
27.448627 6.243341 3.400258 
24.966471 -6.887648 8.675090 
-25.106829 -10.967286 13.319291 
-29.630363 -3.813293 -0.602274 
27.904467 7.709267 11.675219 
-12.331269 30.315182 13.850031 
-13.509624 10.705416 -2.877924 
-15.030210 10.138673 2.881781 
-4.847876 32.384865 14.761007 
2.488021 24.032949 0.071724 
-15.675494 14.367655 3.732667 
-4.614092 28.891991 -0.308918 
-15.803730 8.676118 17.244581 
-19.034964 -7.376086 -0.338348 
23.842138 7.768470 11.802083 
23.276623 4.079178 14.773566 
23.088112 7.553069 13.291367 
-17.375696 4.918222 14.145231 
-22.357035 15.977306 10.807733 
-28.688242 -12.313842 1.554599 
-28.619766 -5.671740 5.327064 
13.668562 17.173286 15.430248 
-22.911428 -4.546803 6.194238 
-28.314548 -11.952229 8.363737 
-18.108715 18.237597 4.459630 
8.444614 30.688080 11.599083 
-27.941595 3.616227 10.779921 
5.026202 24.444908 12.489704 
-6.325141 28.588423 0.561746 
25.539967 12.135406 7.418609 
4.052997 28.908253 13.339427 
-20.713842 1.701118 14.673552 
-14.959807 28.916704 15.154272 
23.195051 18.974962 11.763095 
-18.016396 25.487185 15.547856 
-23.337259 -15.782142 4.161386 
-22.908335 11.742726 4.125110 
7.421185 22.327894 2.011841 
22.627653 -9.507171 6.525576 
5.223375 27.872698 3.300863 
4.217628 29.039057 1.597966 
6.153857 27.280949 1.669402 
17.496244 22.979450 11.730430 
32.556614 -3.221108 14.035234 
-18.995888 12.899475 9.945138 
5.250297 27.329723 6.242572 
-9.067317 26.238605 0.949636 
27.000244 7.278270 11.392527 
20.889990 7.424403 13.527330 
-22.679163 -0.811866 6.482835 
22.445435 13.072774 9.931884 
-19.769419 0.077743 1.322465 
-6.237261 24.949030 5.877219 
23.667614 -13.038039 1.888997 
5.689285 23.330681 15.003685 
18.341084 20.918028 2.554633 
-23.756714 11.213216 -2.770198 
18.277367 13.772116 3.316533 
22.195683 -2.781384 11.303607 
-4.543412 26.610634 3.983901 
23.478647 4.827373 14.630075 
-24.451664 0.390236 7.122851 
-20.219856 15.350579 0.360768 
-5.401560 28.398746 2.121336 
16.094912 20.385820 2.327044 
6.089993 29.902769 2.388734 
-27.845528 -1.706770 12.508484 
-27.223112 2.897095 1.170273 
23.291693 -8.579994 12.155776 
-8.387966 20.680956 2.450398 
-13.561286 19.135918 7.112565 
-15.082523 16.465725 14.419277 
-19.487848 11.045850 13.718420 
7.121176 28.016392 9.028016 
28.586622 -10.500493 10.987989 
21.078976 7.732657 6.196861 
7.352372 30.951469 6.640378 
-1.137581 24.763454 0.385952 
-18.427406 10.671035 1.087316 
-23.583105 15.207231 13.884301 
30.295710 -7.909951 -0.864898 
25.011854 -9.451555 15.204794 
-24.185678 12.254887 5.627564 
-21.173103 -12.974651 0.246495 
2.204423 24.538271 12.894305 
-3.318947 29.453194 4.262509 
-16.110239 13.478027 -1.623936 
-24.903444 12.451482 15.489301 
1.439812 25.734562 5.574128 
17.509157 20.806734 12.017084 
-30.236309 -10.252550 2.271140 
20.102924 17.411186 0.135554 
2.781941 26.674284 1.689579 
-25.083414 -2.297872 12.691797 
20.347599 7.369157 1.700782 
5.540178 32.479576 12.330179 
24.343067 -8.916519 17.966606 
27.897642 -3.488106 12.801761 
4.020561 26.064314 7.350435 
22.328022 -6.292546 0.066570 
-3.357027 32.581898 11.988379 
-17.731972 11.978575 1.597945 
19.957680 20.996767 10.082821 
22.217583 -13.421094 3.989900 
-27.068428 -10.675267 14.335842 
-11.480218 30.679268 14.406586 
-25.672258 10.781735 13.778312 
-19.013731 7.749166 10.329271 
18.397226 1.673950 -3.647780 
26.359287 -2.398875 15.237044 
-9.971266 29.487179 9.077326 
16.137466 17.751104 11.758517 
28.760805 -2.053157 12.065973 
14.580706 16.848951 1.887698 
21.769983 6.069254 9.356452 
26.466072 2.121341 14.834787 
-18.923674 5.391601 2.940020 
-23.600237 -9.466672 -0.741680 
30.507366 -1.566355 14.901087 
19.446880 2.893091 11.387541 
-11.184105 26.908297 14.439396 
5.280562 25.252756 5.757236 
-16.857056 10.609070 10.352196 
22.441261 6.140761 11.879518 
-10.250443 26.386919 0.968403 
-21.548199 -2.491350 13.081074 
19.867710 18.124832 15.213643 
-27.038952 3.079827 3.185812 
-24.252651 8.985850 -5.287344 
2.601441 32.494541 10.751506 
25.357342 -4.283569 15.738569 
-11.625969 28.969238 3.862329 
-8.390593 27.533329 1.568229 
29.894489 -4.475283 -2.510584 
20.717869 -10.624197 6.330480 
9.188806 26.400208 -0.470967 
23.340961 15.751520 12.407033 
23.867188 -8.153626 15.504751 
13.814926 26.512882 6.424829 
19.841444 4.263277 9.105282 
24.904707 -3.702910 7.245114 
-1.610099 28.554302 5.637097 
7.506614 23.081635 14.151767 
21.520012 -2.137863 11.822999 
14.421983 15.753498 16.665329 
28.796417 0.960073 3.864413 
-20.964197 -4.699377 5.383583 
19.121111 5.998021 13.247587 
-24.957563 -3.636867 2.755987 
28.440542 -12.623734 -1.169155 
21.142889 -7.805857 6.547262 
-24.183664 8.786812 8.651070 
-17.034029 -0.203114 4.099810 
10.304908 27.348099 -1.812685 
-10.749411 18.047186 15.396111 
-20.791691 20.550379 9.286978 
30.074633 -3.911066 8.371859 
22.780310 12.923837 5.471376 
-10.331113 30.334263 11.001618 
-4.894867 29.199049 14.385069 
-15.363830 5.873549 -4.681339 
0.732245 29.278254 0.767227 
-16.685452 0.588145 4.866605 
18.534317 13.904777 5.815196 
30.794195 1.282305 14.129972 
-15.096787 14.758763 9.020746 
-24.228807 6.524790 4.010773 
-20.204596 7.597595 10.463402 
21.972952 -3.173210 7.874481 
5.743689 20.902313 -1.289418 
-7.747096 28.962975 10.717764 
-27.398500 -6.423322 8.395329 
16.744513 21.054619 6.139167 
-21.908958 -5.132246 10.209095 
17.705849 16.016106 6.634490 
9.132481 17.512737 -5.074153 
-16.638546 4.653015 0.655462 
-21.227219 -6.482475 2.986472 
-20.457516 -5.560257 13.824799 
-24.825811 12.796083 6.941757 
-3.396451 23.057985 1.876790 
-6.040627 23.724377 -1.065894 
-22.902523 -15.030493 1.153137 
18.666063 4.616350 1.985923 
-28.458832 1.241484 14.542374 
-20.533949 -7.198701 7.593576 
-28.284250 0.997985 13.888065 
-24.594604 6.401362 3.164286 
20.468124 -7.109085 6.832071 
6.610935 31.691368 5.773350 
-25.959776 6.712215 6.318217 
26.447882 6.248092 5.934726 
-22.577265 12.485365 11.311967 
-24.069853 9.992365 2.266956 
20.605347 -0.053830 12.536915 
21.526363 -6.452584 0.964911 
21.073627 18.397915 -1.721994 
30.288784 -9.478249 11.198958 
-13.555564 17.761108 9.748400 
15.520693 14.647973 4.096853 
-3.226207 22.572632 16.398457 
-18.399399 -4.216498 -1.048383 
13.618323 25.320688 -4.715960 
-27.353086 2.487427 0.597408 
3.907390 32.502636 8.968911 
-15.972952 18.940840 14.963892 
-18.080940 19.820187 5.898541 
-28.279594 -3.828485 15.882701 
-9.443005 27.298529 0.605657 
30.687405 0.280281 13.540500 
-30.223301 -9.780507 3.880007 
26.408318 7.892235 -3.268571 
18.833242 21.405603 -4.085504 
3.913609 20.311525 -6.892563 
-20.623234 -2.630265 11.798726 
-10.509814 20.811977 -0.432757 
-21.499317 8.655025 -1.859660 
25.147732 -0.619028 2.793198 
30.104099 -10.155161 15.607527 
10.677736 28.897915 12.313129 
4.090665 32.229362 6.122178 
18.113926 4.952785 4.362497 
21.770176 10.788504 7.149284 
22.823359 6.573892 10.150354 
19.500437 14.521995 5.574961 
-17.442348 12.740595 3.237121 
-27.510660 -3.849036 3.468103 
15.795180 17.945927 -2.516180 
-13.700315 28.988777 5.251126 
30.155098 -4.983782 0.829225 
-20.090113 -6.406776 4.672663 
-21.254803 -14.058618 3.222841 
-29.990324 -7.637056 16.400633 
22.929514 6.253282 -0.457561 
20.104265 -1.759564 3.244604 
21.315044 9.575619 -1.604286 
12.800261 14.935138 -2.042987 
22.828756 17.531862 14.772395 
27.054405 1.299555 6.840142 
5.665330 20.629618 -2.142183 
-15.760916 19.263235 1.996598 
-17.981638 7.631455 5.097259 
-25.326340 2.199902 6.830319 
9.073284 24.066191 5.991151 
15.838754 9.060252 -2.721469 
25.645536 -9.530959 15.625008 
-23.385906 6.711696 3.979103 
23.788446 -3.665121 12.387321 
15.697988 21.111931 7.656307 
-20.639826 16.405125 -3.525173 
-4.343228 29.726677 2.851155 
23.332588 15.906174 6.880484 
23.495007 14.081780 -1.173856 
-10.071182 19.173368 2.966653 
-19.903381 -0.911340 5.901519 
10.916868 20.075018 -1.507350 
-24.122114 9.201719 11.134668 
-20.965551 7.372497 2.736408 
-16.583900 10.645771 7.666368 
-20.641981 -8.097344 8.726355 
22.161654 -0.232177 7.163097 
29.098412 -0.157797 10.131166 
-30.174404 -8.172311 12.156053 
28.058672 -0.809214 4.948691 
17.787727 5.115595 0.208315 
28.319271 2.977231 0.800241 
-26.432892 -5.264015 3.211762 
-21.489779 -11.526761 7.512620 
8.160780 27.389833 -0.663096 
-19.657095 9.581189 6.910669 
-11.340526 30.527548 12.737209 
1.612246 27.055920 2.213436 
-9.921749 27.002956 -0.223265 
24.150438 -4.004884 10.870755 
-26.715872 -2.016599 5.135472 
-14.136499 29.538462 14.481928 
-23.390688 15.264720 16.927794 
-19.509563 16.366951 13.845881 
-21.483889 -12.374271 7.986130 
-18.458225 3.550236 13.846053 
22.930834 -4.392872 13.485338 
21.556690 3.394844 11.928201 
-4.289987 26.278654 13.288331 
7.110016 23.973783 4.021244 
-9.882897 26.887709 7.213962 
-18.594080 10.057774 11.450897 
-15.289720 19.298784 3.333226 
29.924450 -10.414721 3.085725 
-23.878304 -11.477336 -0.468725 
22.726181 19.611776 8.746343 
-14.460036 18.382584 13.040802 
11.227382 25.050148 10.645456 
8.604774 23.580132 3.576454 
-18.855429 -0.745767 6.000608 
-16.528532 25.774185 11.515117 
19.059574 22.395065 11.221529 
6.752323 20.572119 -0.606293 
-23.550220 5.784588 0.484651 
-7.292133 20.768011 0.536010 
-28.169012 -11.338247 0.916976 
25.612427 2.540803 14.936807 
23.743748 9.255965 -0.306530 
-26.922443 -11.548965 12.450867 
-19.839123 1.824013 6.145173 
-13.450903 17.554308 4.154436 
-19.921959 18.281483 3.887476 
-9.110909 25.447182 1.064725 
9.560205 26.994490 6.677325 
0.793110 30.182245 11.236310 
-2.574524 26.482351 10.479567 
-17.880430 20.080002 -1.888324 
19.709858 23.034433 16.230118 
20.693342 -1.134207 0.328386 
27.267654 10.309236 16.886141 
-24.846478 6.333001 11.785575 
-8.975295 25.622112 -7.904015 
24.283220 10.539291 5.176991 
24.578133 -9.791231 11.889209 
25.839108 2.133336 -0.645342 
-15.163558 17.866848 5.991727 
-23.470161 8.720067 11.660189 
-8.950355 21.630270 13.039297 
29.101528 5.262414 7.391045 
-19.000225 -0.722574 11.453457 
-19.318924 -6.536474 13.608570 
25.616524 -0.188787 14.747808 
29.429577 -0.617368 0.857690 
12.274310 25.355167 7.225885 
-8.499454 21.963001 -1.480558 
-16.930046 19.300812 3.282249 
-22.123783 -9.592209 16.058418 
14.955863 24.915632 -3.338939 
-25.518892 -0.834310 11.524915 
-17.762682 -1.098986 -3.544944 
-0.692333 28.490784 -4.220021 
-23.465784 10.790768 3.820417 
-22.487383 8.453179 2.171873 
-19.264534 23.463251 15.641678 
-28.905144 -9.902841 1.151009 
-1.750505 32.335602 15.849848 
-3.820987 23.700378 13.467606 
32.567627 -2.783847 11.827147 
-12.754107 24.502022 -1.459879 
22.933781 18.126583 16.481209 
2.271643 32.586502 7.895352 
-19.672619 18.206219 -1.989362 
-22.355993 -2.604411 6.332277 
20.211134 14.084554 11.278811 
-9.804266 17.176554 -0.332176 
-22.569382 -4.020078 6.543613 
-28.513710 -2.752944 2.014236 
28.964340 1.422568 13.526872 
10.024786 25.275530 4.653472 
1.335177 25.541071 4.771619 
18.292919 1.857499 -2.620235 
-25.391851 -12.235153 12.488747 
-24.941772 8.381882 7.288985 
15.461053 24.402428 -0.242274 
6.299934 26.782553 -0.450080 
-18.978939 4.804097 6.723590 
-23.838470 -2.537311 7.228089 
15.434638 27.757526 11.487185 
-22.799353 -13.945679 8.101944 
-18.366838 14.690270 6.032291 
-3.758816 32.463680 9.615763 
-24.994278 -2.240223 14.247190 
-17.102484 16.709900 -3.586092 
-15.878547 8.613398 1.627253 
-16.451870 17.187305 6.584131 
-28.106485 -10.866449 16.514139 
-19.913099 20.822245 7.307742 
-25.681675 3.498995 6.213819 
18.259134 22.677486 3.743552 
-29.336750 -6.305466 4.461881 
21.448364 17.911211 -4.330075 
-21.941563 0.761960 5.698537 
-24.693529 8.481635 8.069925 
23.972776 -5.997971 2.642418 
18.968140 20.706020 3.100056 
21.190708 17.307289 3.658759 
27.553436 4.205021 12.400915 
-26.964401 -14.292785 3.728091 
17.065264 27.201197 10.875291 
3.310846 32.247009 13.065985 
22.649994 6.821682 8.551333 
1.462895 21.189697 -3.787636 
-25.083557 -11.905037 10.495866 
18.026154 10.229421 -0.552889 
-17.921646 0.668386 16.809223 
-18.151289 11.723825 0.995078 
-5.229957 26.534340 6.565567 
27.864201 -1.158388 4.227251 
14.101446 17.596764 1.923077 
-2.287621 31.952627 10.245058 
-29.926342 -7.119316 3.407609 
-7.867911 27.229950 12.887088 
-4.583049 28.206713 6.299863 
21.666325 9.002293 7.718609 
1.469453 24.829453 3.178047 
9.000859 27.244146 3.155710 
-28.792850 -2.648471 13.613482 
28.554253 2.288460 1.532891 
17.076385 9.007943 1.654525 
-8.030843 27.481962 0.094320 
24.995630 2.023196 14.994843 
21.247656 15.171971 4.668053 
15.303864 26.423580 11.368215 
31.679995 0.018833 17.427227 
-7.909161 20.056566 16.566635 
21.461765 14.039480 3.550195 
7.490671 25.082773 10.998478 
-8.576253 17.135494 -1.832044 
-3.623285 19.759138 -6.875387 
-16.980930 0.914600 -1.208096 
-23.003202 4.498450 7.408969 
-17.827763 12.344622 6.562164 
22.310354 -8.886042 -0.835463 
-23.610203 -5.766113 8.398544 
9.843467 29.388716 5.453892 
17.961592 8.954894 13.263522 
0.761411 22.229008 -0.645841 
28.605597 -9.916838 14.906443 
21.789503 11.180126 -1.487870 
9.624528 25.484537 8.747392 
22.735565 -6.445261 11.308350 
-9.643521 20.588140 3.985065 
1.333220 30.418392 2.483657 
-2.622812 28.618870 6.278116 
-19.875544 -1.215963 6.985638 
20.038019 1.238263 16.612171 
22.969553 -6.369482 10.590341 
-17.020567 16.191227 15.259370 
20.947777 -2.945961 14.408178 
-17.721943 -2.002067 -0.460581 
3.084800 23.186865 1.684968 
-20.544498 16.590706 12.768187 
13.978276 27.180717 7.385308 
-27.636683 -10.909246 10.555051 
21.352755 7.533087 5.545321 
-2.950283 30.129135 11.081277 
4.052848 26.566759 2.616993 
-9.951895 27.293299 12.282681 
-13.137595 16.646191 11.939794 
8.392788 24.423252 7.036070 
-28.116198 1.608362 8.195728 
24.932522 -2.137860 0.484591 
25.537237 9.365748 0.231646 
15.055199 14.665553 16.721497 
0.773563 29.152451 1.523115 
19.043222 21.245707 -1.332914 
-26.747938 1.546297 14.647804 
-20.697062 -9.536048 1.904342 
30.201929 -6.006956 17.207884 
7.664932 24.512156 5.689176 
7.096230 27.909277 3.278064 
-13.713053 10.925928 -1.884364 
-6.400557 28.553663 -0.436287 
-25.077780 11.098859 7.042302 
33.128342 -4.504745 10.182556 
-15.643224 13.574316 0.446631 
20.005140 19.832296 -1.770558 
19.996025 18.072531 11.963691 
-19.431990 6.881684 -1.864607 
-23.042797 14.694806 7.647958 
-24.805916 -2.810483 9.194937 
17.074181 22.518871 -0.064036 
-11.006612 24.246288 6.644331 
8.045610 19.094221 -1.986504 
-6.097807 24.333443 11.861440 
4.421315 32.404480 13.964174 
29.093288 -1.021799 11.975213 
-17.509270 1.571091 6.249594 
-9.545656 30.119757 6.990413 
-22.000296 12.808852 0.241092 
20.129229 -7.623197 -0.091997 
-19.481987 -9.140915 6.611383 
-23.879028 13.276432 10.559237 
-22.150398 -11.456259 -0.531228 
7.019057 22.312361 1.146698 
15.581367 13.938087 14.949684 
-26.886892 -7.797160 0.124547 
-16.458017 4.400186 -0.105580 
19.198681 0.237394 3.006102 
3.134453 28.653643 5.283873 
17.755667 16.452614 5.705512 
-18.776690 -2.065583 13.514341 
-19.719488 6.124038 3.913998 
-0.469334 21.221880 -3.550430 
-18.894203 -6.528580 16.262856 
27.332777 -2.538783 15.666958 
13.090543 26.122425 0.442698 
29.000967 -1.236600 9.944709 
-19.923737 20.380098 14.420379 
-24.166555 10.703975 -0.489619 
-26.000875 -12.405938 0.241698 
-18.821173 13.450790 4.228501 
-17.204460 20.512619 -1.487097 
14.607821 18.323385 11.768248 
4.736526 26.655375 7.401809 
-1.248689 24.560209 3.080727 
-16.828447 27.188126 13.514462 
-26.666561 -11.617708 11.714876 
-5.084415 26.524660 -0.597669 
-15.259821 12.783713 3.465757 
21.504183 -4.461661 16.479944 
-5.665392 25.311695 12.693734 
24.682386 15.259486 15.621811 
-18.328850 13.510036 1.870592 
4.478364 25.441355 3.577317 
-10.727674 24.589737 3.725462 
21.074333 19.172270 0.892565 
-16.576960 4.278731 4.849732 
-15.418915 19.839457 8.261356 
8.983447 27.976728 -1.507379 
26.926413 -2.622273 6.064834 
5.591511 27.631695 8.134331 
-5.463508 23.251490 2.330483 
22.980648 19.375315 10.137832 
-18.074848 16.598661 6.588496 
-15.045685 29.042131 13.148503 
-29.197556 -2.652521 0.269141 
6.485926 23.545568 13.864707 
-26.739517 -6.196667 8.678251 
-26.800602 -2.521211 8.676989 
-14.608562 23.581163 11.477806 
26.082096 8.216152 6.983804 
-11.163136 27.875307 10.556256 
-16.229046 3.930451 -1.969649 
25.897509 11.712944 11.503533 
-11.142083 24.651604 -0.035682 
-29.198242 -3.343115 13.531286 
14.165542 17.431456 13.440597 
-18.244324 -3.290291 6.012287 
-24.531225 6.519534 14.288379 
-16.438255 18.999245 4.625343 
21.620766 3.428521 14.627155 
-21.011660 15.653335 -3.113175 
-18.822309 13.310161 7.842270 
-5.518724 25.318834 2.180827 
21.478968 0.186936 1.934199 
-27.554956 -5.803561 2.118021 
-22.519358 11.722814 4.865044 
29.287416 -7.397974 10.662314 
22.416389 16.633055 12.440944 
-19.709875 16.068615 10.727803 
-16.879168 2.098652 -0.259657 
-18.667648 11.982812 12.910942 
-25.158115 11.126835 11.073527 
32.014526 -1.849763 15.018034 
-25.355648 4.156729 6.227813 
-22.621672 -12.019283 3.718039 
26.952816 -4.530820 1.186726 
-5.896377 32.196091 14.909265 
-19.556324 18.054043 0.198183 
-20.410690 -10.813718 3.644175 
-28.271671 2.769673 17.648560 
19.616096 1.080308 12.629634 
-18.679926 -4.285742 -3.023785 
-17.238546 20.129799 13.887359 
24.575089 1.749235 7.561224 
-21.931293 16.166246 9.203598 
-8.197400 31.494473 12.007573 
-15.903682 14.833265 -3.656126 
10.318751 26.833776 -4.410147 
-19.071741 -0.880355 8.326498 
-0.280902 23.294842 16.340214 
-12.660572 30.053417 7.096280 
28.328352 8.231584 13.905552 
-14.933442 20.003069 4.205660 
-25.657555 3.398173 7.042481 
23.603868 7.055488 2.745582 
-19.500343 -7.085714 18.138464 
-12.172583 25.466347 -3.601288 
17.888096 20.346163 9.366979 
-16.823875 17.732643 11.700743 
-25.859123 4.250903 5.544007 
28.662386 -11.463485 6.463437 
-16.713631 20.288307 7.121130 
-26.602371 -9.980045 16.019922 
-3.895187 32.163570 6.079188 
10.116950 30.590853 13.948122 
23.613525 4.517335 -0.850464 
-18.091654 3.953902 7.909675 
-21.911880 -10.721283 18.354353 
21.229332 -7.146223 6.857204 
10.236384 20.832479 0.808846 
-24.532249 -3.909175 8.276727 
20.765339 14.739535 14.696838 
-22.984341 16.622116 14.874463 
-1.751009 32.583138 14.166929 
-18.463902 20.407911 14.473788 
-22.550909 12.114555 -5.791066 
30.100601 -8.114634 -1.902977 
1.591179 27.370016 9.564054 
9.289207 21.636372 2.209922 
23.677990 -4.416933 1.569267 
-21.340376 -10.631453 9.373881 
8.032154 25.939802 9.200536 
-15.431045 6.162459 -2.773917 
-21.495462 -2.527966 -0.854119 
-23.730808 9.756897 -0.139091 
-21.136705 13.799272 10.520051 
-23.769156 7.800744 6.879003 
-17.464317 13.540490 4.335380 
15.111770 13.957417 1.206970 
30.095297 -4.004109 -0.097997 
29.530386 6.159936 15.489519 
16.349041 23.550438 -4.683054 
4.874156 32.380157 8.815992 
20.878565 16.536606 -1.335696 
19.997627 19.026161 5.652270 
3.809568 28.028572 -0.475409 
29.646276 -1.721898 0.490627 
-24.978090 6.181509 3.852878 
27.066969 -13.210417 4.806052 
23.942505 16.189585 11.719756 
22.092112 -10.019253 6.828072 
-12.198128 28.210472 14.420528 
26.308401 0.658434 14.783293 
-16.781702 6.304651 15.014980 
-14.835297 9.718980 3.643260 
-28.459646 -10.274938 18.370464 
18.395212 5.068238 7.122272 
-23.507458 6.606622 5.295001 
4.976565 29.761026 2.350742 
27.229900 0.363311 6.947842 
12.077731 18.794395 16.511911 
5.455360 24.571087 -0.053586 
28.894634 -5.218437 2.229572 
-15.347524 15.812405 13.125961 
-19.075680 8.640190 5.902942 
29.413666 -5.785494 9.429457 
-29.338581 -12.743966 2.772263 
-21.169012 16.422796 4.634938 
31.481930 -1.080724 14.338238 
25.422779 3.561412 14.861595 
27.995775 8.931855 16.957710 
-23.272522 -11.285662 7.921830 
-29.391056 -2.864682 -1.989228 
19.521313 14.624931 14.862273 
2.327271 32.091106 15.837964 
-13.718657 16.982660 5.959938 
-21.674202 14.960547 9.243478 
-29.855787 -8.125621 5.392628 
14.229630 16.213858 15.686000 
-22.293612 -5.850660 2.872668 
-3.999046 28.469204 5.224286 
6.323671 30.438362 12.807442 
17.468098 9.585563 16.987148 
12.926229 22.491932 11.774565 
-16.375978 21.700068 -4.645308 
-25.215195 7.756961 10.075280 
-20.954708 5.363775 14.349099 
-14.031226 15.669944 9.165505 
28.906189 -11.019287 17.115936 
-18.943983 19.068588 -1.195900 
4.780741 26.488062 4.988374 
18.303629 14.847546 2.135722 
1.824557 26.560190 -0.782566 
2.663526 25.629107 1.618601 
-2.506288 27.599390 -6.439660 
2.811945 32.480366 7.058741 
-16.925674 19.395128 6.162439 
10.313820 22.204386 -1.425632 
-24.040781 -11.442673 12.932062 
24.689548 8.759790 10.473075 
-15.048159 29.038795 14.357115 
-15.949728 8.563674 15.339432 
-18.608150 -0.125939 10.508621 
4.952588 25.170820 11.129341 
-24.296257 0.292165 -0.934214 
26.736658 -1.215884 14.515736 
-8.910499 30.880817 7.378585 
16.010332 10.627519 5.935591 
15.107163 15.237809 0.881061 
-26.423002 5.421963 -2.094792 
21.849220 11.058684 14.299747 
-16.145975 14.296263 10.204374 
-19.042091 -5.604423 14.417525 
8.686045 18.042160 -3.735905 
0.994123 27.489220 2.309741 
-30.211063 -7.257557 18.214657 
0.065851 27.907637 8.050023 
21.280024 19.625778 11.252971 
-15.865582 12.480887 2.783236 
-25.932196 7.715043 8.981056 
23.606310 -2.726895 12.698020 
3.343257 27.349651 10.630012 
32.015892 -8.636173 17.179384 
-25.646687 -15.843611 4.801553 
-22.736765 9.053699 13.210574 
-29.046726 -0.076441 16.922924 
-17.821653 16.116213 14.804976 
25.111307 -3.333963 5.418222 
-9.695075 31.296030 14.360452 
-0.753638 25.567778 4.385747 
-23.108702 7.903753 1.639739 
14.635428 16.512318 13.422202 
1.802677 29.281660 -1.040781 
21.453060 14.426661 11.416979 
29.325850 6.139729 17.103699 
28.301664 -8.450545 17.073977 
27.420603 10.260038 14.868781 
10.906459 30.320093 14.075610 
0.276158 27.432737 4.751911 
-17.978865 12.876225 10.121442 
-12.877949 28.478300 11.959979 
-22.767738 -11.389776 14.449082 
30.149313 -6.725008 17.269764 
27.228420 -11.535031 16.196917 
0.840630 28.673080 2.562449 
14.941965 24.706007 -4.198869 
-29.204662 -9.237822 13.479738 
18.785475 26.269203 10.431098 
-2.654436 28.681486 5.523586 
-27.005035 -0.153163 6.340373 
-17.600494 20.487623 6.765745 
-8.846201 16.251865 -5.074968 
-18.789295 10.704751 6.519435 
-26.693565 -5.536143 7.917286 
-30.462437 -10.218574 -2.153438 
-16.002321 6.828268 0.351935 
3.227231 32.546227 7.920257 
-20.494749 -10.249729 12.195126 
28.925678 -3.630668 3.112921 
-20.467508 -4.178656 1.622584 
-24.924036 12.431257 9.931639 
-20.911278 -6.540483 7.097338 
-23.553265 -13.685601 8.378370 
-23.305981 -14.447146 2.890572 
19.506132 18.946609 14.071095 
-22.491238 12.858552 -0.956920 
-25.248642 11.098482 7.934051 
18.737793 23.953299 4.547726 
-20.434473 13.626305 10.697971 
24.710875 13.880449 11.756136 
-21.169622 -3.611249 9.043595 
21.215595 -1.405021 -0.194549 
-13.557944 18.185577 8.915073 
-13.706980 14.160281 -0.276964 
-2.315598 29.258936 1.209679 
-13.763434 24.494396 4.326764 
20.425165 -4.183445 2.133981 
11.381571 30.147354 9.144078 
26.114445 -9.483294 12.523008 
8.296570 22.278475 15.346503 
-25.091787 -2.906866 3.834044 
11.451402 28.536682 12.583825 
26.506502 11.686892 16.814764 
-22.187815 -14.107852 -0.289077 
2.404123 29.138266 1.498120 
-17.748110 0.333038 14.655480 
16.106882 19.215117 9.834702 
-13.931180 24.348173 -3.333330 
-23.778955 11.854428 13.334199 
16.454493 19.228687 6.348217 
3.672227 21.374821 -1.849337 
-19.744141 8.064005 7.830564 
24.485746 -10.667645 14.067052 
4.855923 24.129568 13.217373 
-19.305031 23.120653 14.100012 
-10.732067 25.625662 14.230388 
-23.698277 -3.281842 10.306958 
20.361279 10.819447 14.237847 
-27.728086 -12.407430 0.993224 
7.505307 29.803299 8.580613 
18.967167 25.749334 7.798355 
-4.113303 29.776489 11.821764 
-20.750475 -11.704952 -0.972958 
-27.285213 6.094870 9.282595 
20.456705 16.014996 -1.849144 
12.882525 18.644264 14.405169 
18.334087 4.075957 1.200537 
-10.216602 24.878939 13.806862 
22.649208 -6.659036 7.375487 
-2.508019 28.633045 -3.715166 
29.644039 -2.587177 13.214166 
28.970509 -11.488420 2.141439 
-21.251888 -14.082757 6.329710 
-2.214829 29.370874 9.871954 
23.048996 15.731482 13.422554 
-23.283356 -7.933188 16.549461 
17.558697 7.693846 1.905321 
19.215353 3.377769 1.151371 
-24.861612 8.414548 -4.012390 
-2.186483 23.249596 15.349730 
-22.715111 -4.580607 4.074293 
17.404972 23.426935 14.414766 
-24.403561 13.106586 11.991302 
-18.254177 -0.113714 12.478007 
27.792601 1.129757 6.422291 
27.596390 -0.982842 11.093647 
-19.959490 -9.673223 -2.140033 
-20.044376 3.741404 14.416597 
-11.039680 22.753914 8.788244 
-16.934847 13.974949 4.780173 
-24.013748 9.115659 2.038041 
20.025358 24.101093 8.910712 
25.011084 -9.713657 14.504666 
-13.202650 24.503458 11.107033 
15.110067 10.518295 -3.629400 
-14.306248 19.912081 1.811579 
19.102310 -0.819938 6.179069 
-12.069960 27.484255 3.657643 
-18.519274 3.403979 6.540807 
9.432285 26.779985 1.294086 
16.634346 20.227764 10.577764 
-11.388484 22.227962 9.188655 
3.267123 32.588856 11.190489 
-13.540774 15.729517 12.009451 
22.154911 8.060621 0.977501 
23.100008 -2.953467 1.922012 
4.964228 26.781073 8.534292 
0.560940 30.243183 10.410990 
5.849401 27.710394 6.308623 
16.330444 17.091066 5.052545 
-16.779482 12.429342 2.582785 
-1.640072 29.279413 6.319088 
23.477373 -7.672438 17.903259 
22.895844 -7.884286 11.919832 
17.826357 7.540004 3.147287 
-12.640919 12.705540 -2.054030 
-9.373422 28.941912 8.363633 
-13.448833 13.887135 3.739629 
-18.555904 19.607807 15.008578 
-20.271915 4.691679 -0.161663 
17.217979 20.805412 10.079629 
-26.831839 4.562466 -2.172751 
7.697535 27.469584 6.852758 
24.306055 -7.387171 15.775587 
30.677839 2.254542 14.210057 
19.882296 5.888293 2.104170 
18.338156 14.366281 0.728024 
9.667338 24.241823 10.680461 
21.552114 -2.861798 2.775856 
29.732071 -5.412056 3.153815 
-23.989513 -14.859920 4.231244 
-21.594667 6.976153 10.121373 
-0.511870 27.572968 4.519717 
19.674383 14.869910 1.437114 
-18.605770 -4.445744 16.854565 
-14.044779 13.145244 1.167311 
18.063465 2.705230 -2.646358 
13.323881 21.323097 9.471997 
28.634485 -0.062447 6.334175 
20.342958 -1.075094 1.293814 
6.215156 26.902370 2.559461 
-1.910026 29.960672 3.873772 
-10.774851 27.947758 13.419291 
22.724850 -13.328189 0.854796 
22.066126 -4.034985 5.621939 
-0.550287 26.902815 10.065337 
26.726871 6.901917 2.306370 
24.061926 -4.343258 15.028135 
-8.011555 28.147383 -1.171171 
-26.266436 -4.993541 4.079977 
-20.431479 15.732841 11.297628 
-11.076936 23.757013 13.714831 
-17.488825 3.290084 17.552660 
31.783581 -1.025453 15.526952 
-8.688890 26.140587 7.975253 
17.637793 15.018187 -2.418102 
13.271286 25.281174 6.242881 
5.078280 28.496460 -2.467149 
12.904116 23.497690 9.916028 
-20.862474 14.368794 7.088789 
21.578997 21.204668 13.819366 
-0.792896 25.731033 0.596092 
-5.214430 22.363329 15.198745 
-15.808044 15.938744 -0.264988 
