-11.911326 15.105465 10.968752 
24.318768 -9.963107 -0.476383 
25.588627 -15.092701 13.189783 
-15.438962 12.727018 -2.036839 
-27.900080 -4.768621 7.471048 
-26.576834 -5.532764 1.514389 
26.183537 3.064035 6.271715 
-26.757675 -7.805944 13.716036 
15.536328 9.131446 12.785570 
13.845737 26.246937 -1.364231 
-7.103833 30.625940 5.570938 
-19.183540 12.506628 8.628098 
-15.190254 8.353909 7.741326 
-18.052481 -7.357140 13.814758 
-18.088524 -4.487794 10.122353 
-16.420061 27.217827 6.071944 
9.236903 21.499500 2.267390 
-26.937199 -2.030992 1.991078 
-17.256102 21.450050 -7.842650 
-26.819077 -3.289550 10.847222 
-22.229649 9.641826 10.993095 
7.366614 23.731207 0.847313 
24.496679 4.076494 -2.488873 
-16.702913 11.483620 2.943471 
-6.906096 25.500242 7.463808 
20.070009 5.988107 8.224730 
11.726216 26.401381 11.764967 
-10.013760 24.684547 8.115312 
-14.020562 26.216545 -2.828147 
6.299291 37.292011 6.162911 
-14.715730 25.616716 -3.982685 
10.569538 31.627115 10.074362 
27.549198 -0.869258 9.121696 
16.960840 9.416261 5.263064 
-22.135210 11.841535 10.721313 
-17.842686 7.284822 2.080322 
21.211397 3.479976 10.816362 
-24.915752 -3.318821 2.929239 
27.903044 8.263938 12.832801 
4.113059 32.063671 12.082261 
-9.472252 16.128828 -3.578589 
-22.567337 10.996522 10.885905 
3.155879 38.342999 6.647074 
8.169846 25.086744 9.406389 
-23.085608 10.479238 10.836228 
7.213185 31.874441 5.698153 
19.465075 -0.902453 -2.178235 
-23.310791 16.040161 10.009888 
-7.359381 28.568188 12.765961 
3.051434 24.277308 1.328848 
24.638706 -3.267591 -0.900239 
12.623545 12.274874 -5.248239 
20.015467 10.529277 3.864462 
20.407318 -1.005821 1.031797 
-13.807821 23.275675 12.446358 
-22.300489 -2.877293 0.293054 
7.515716 34.961761 7.251381 
-16.396339 1.287387 12.842807 
21.416300 -9.045670 4.921464 
-21.958635 2.829977 -2.999816 
-4.736970 21.914537 0.690863 
12.030137 31.645231 8.807024 
-15.524542 5.637580 9.729799 
-14.094579 28.216686 7.501625 
-8.453472 26.072742 3.097264 
22.258188 -0.248923 4.780820 
19.868841 -9.588606 12.955050 
22.220568 0.602990 11.437664 
23.270184 6.511458 5.153467 
-23.826822 2.003752 9.084534 
23.117094 2.116369 3.285235 
-29.402323 -6.935226 11.370031 
-17.909393 0.579114 3.588681 
14.727795 20.832899 1.445433 
-17.533810 15.446490 2.789149 
-18.439030 24.403503 10.387995 
27.812634 2.551963 3.424667 
-14.006791 5.943455 -1.567332 
14.668499 20.603973 7.023817 
9.354176 28.259396 9.763295 
22.955048 7.139036 0.456419 
-19.897583 -2.377390 4.315693 
12.501071 31.713270 7.954507 
-18.852371 -4.842566 2.027611 
20.698355 -12.513944 4.725470 
28.324997 -14.066319 12.505012 
-19.459301 23.231422 12.863694 
-14.483090 27.590477 15.784530 
18.264868 10.557038 3.692398 
6.229596 29.207870 2.660674 
-14.553893 24.484512 -1.750353 
17.517054 6.952931 8.772594 
20.085785 0.053867 -2.609769 
-7.762845 33.473320 11.163127 
2.152657 30.611418 0.632877 
-16.167465 14.768450 0.607623 
-18.195450 24.638510 6.653328 
-9.668139 21.823736 9.437541 
-12.442894 27.096748 5.956915 
25.282541 10.761995 9.357228 
8.558138 28.821939 -4.312860 
-14.781333 12.062281 7.496757 
22.763990 -11.190325 12.732275 
-2.570178 34.364410 13.949107 
-22.248558 -2.763824 -0.555592 
-19.737778 20.384033 8.211639 
24.416368 16.080599 14.289706 
-4.333634 21.310099 -0.871833 
31.520948 -9.634665 9.979893 
8.987526 32.892601 6.062521 
27.271469 7.841468 6.552805 
-21.999855 6.374710 4.941608 
8.382166 22.219265 1.665014 
-0.970292 36.979668 10.690658 
-12.777678 26.169907 -7.412252 
24.622644 -12.103644 2.995577 
16.438318 26.229517 11.158087 
22.888086 8.011581 10.211244 
7.025455 29.436907 6.798177 
-22.358334 5.593246 7.816210 
18.516548 -3.283476 13.921731 
-7.099844 30.966049 9.045386 
-22.832823 2.101354 -2.706952 
32.187767 -12.572715 -3.558400 
22.755020 -3.138227 4.609934 
29.524981 4.821152 7.746931 
-13.496520 30.297201 5.528543 
24.909113 -4.003375 6.212668 
-27.747744 5.344148 11.343204 
27.133808 -11.713499 3.135340 
-21.465359 -4.138396 10.332209 
-4.379579 32.604954 13.375441 
29.503721 5.727718 10.726190 
-19.448212 -3.506660 5.312890 
-2.432252 22.145920 -2.320690 
17.788008 1.000710 0.674329 
-5.456335 28.174210 -1.324622 
-18.472395 -9.221952 9.261702 
-23.261650 -14.554524 3.532877 
-17.703941 24.195705 12.415139 
27.026846 -3.349433 7.380486 
-18.801981 15.612936 0.460613 
25.864405 -13.687376 11.556161 
-20.060255 -5.760630 5.326134 
-11.554314 24.186573 6.845305 
-14.744983 8.410888 3.090513 
16.539766 4.584007 -0.043865 
29.670916 -11.406837 14.298825 
-22.321970 -13.384567 12.319526 
13.309694 26.107241 1.210861 
-8.293368 29.976181 11.928124 
22.188503 -8.905950 -0.796451 
-3.680639 23.312351 2.338638 
-21.083879 12.862901 8.646604 
-25.870695 -6.601228 7.204321 
26.753071 0.758756 5.474988 
-3.020081 28.470251 9.174242 
15.694302 16.995441 7.802891 
6.083405 24.331884 0.377861 
-21.902571 10.169756 3.664835 
5.176275 26.225052 -1.140194 
-27.596399 -10.948152 7.816376 
21.175663 -11.515370 5.006077 
23.649509 18.930273 10.686275 
23.091879 8.219363 -2.126521 
-8.197808 20.730169 -0.135020 
-18.970539 -1.416927 10.487702 
-18.148069 -5.583477 4.300799 
18.122337 2.538289 -0.645659 
-14.992518 24.066408 3.817550 
-22.761389 -6.271407 9.700665 
-15.009204 11.092110 7.444930 
-19.049601 7.064937 4.132735 
-19.207905 -5.864871 5.196488 
-0.338854 32.129711 10.254917 
-7.184609 26.147196 1.583519 
-15.323399 8.925445 2.929478 
9.296940 28.401375 -4.863953 
18.717070 -2.060177 0.724218 
18.475641 25.998196 12.196912 
29.494848 -5.030808 7.789456 
24.544857 9.130199 0.201093 
31.093916 -5.290980 1.973484 
-23.711393 9.110259 3.552791 
-14.502260 23.861937 -1.311257 
0.643039 30.136591 -5.067239 
7.973986 28.156952 8.793022 
-24.318623 -1.757437 0.637061 
-16.104424 -2.444444 -3.832334 
15.009063 28.949816 5.788579 
17.122185 9.813396 4.676068 
23.351509 12.117684 8.259289 
-19.703053 7.850580 7.977990 
-13.345545 25.312042 -8.292472 
-28.495111 -9.864388 13.452138 
31.276073 -2.900238 -4.726014 
-24.428036 -14.698157 14.926052 
-14.779911 7.145044 12.855670 
28.600090 -10.102790 8.014002 
-25.617924 5.718189 4.965816 
8.694307 31.484056 9.671941 
-16.182735 10.355336 2.369538 
15.631948 5.619325 -1.964547 
-18.641432 7.134557 3.337002 
-0.769868 33.964958 12.350266 
-21.896290 3.263608 11.435571 
-11.365847 26.607077 -8.440748 
8.248595 33.384705 10.852040 
23.556688 4.985086 -2.484051 
18.669024 11.905152 7.998286 
-24.247673 4.745646 11.012313 
-3.279463 30.600246 1.872532 
-15.856626 3.771396 13.735220 
2.987345 26.442404 3.931514 
13.624366 21.628521 7.071646 
-22.006777 -0.089319 11.706294 
24.173393 -12.047035 3.703222 
3.914298 34.916744 7.516482 
29.525791 0.579378 5.518466 
24.286848 17.384571 10.781646 
8.208505 27.698500 -0.842081 
0.601279 29.725496 10.677293 
-19.082121 0.955803 10.828408 
-25.594213 -10.917960 13.798759 
15.204534 6.191270 -4.825867 
-29.094584 -2.429880 12.269939 
24.096844 -1.973997 5.509136 
21.397224 -12.204187 12.188614 
-25.469513 6.610516 -0.481407 
17.208197 7.561305 5.595925 
-29.482389 -8.464714 15.017205 
6.788687 22.073469 0.166514 
22.213419 0.590591 -2.933379 
13.700147 29.696333 15.054957 
-7.408146 24.827093 0.792122 
-20.193836 6.268445 9.653428 
-8.362817 26.063150 -0.539871 
-22.129576 12.688838 -6.806881 
5.841006 23.073631 0.260508 
15.958868 7.651653 12.813380 
24.353954 -4.270724 1.519835 
-27.441010 -8.069924 1.927605 
-6.311609 20.274643 -3.240443 
-8.128848 26.561575 7.010803 
20.085577 2.907344 4.526375 
-23.405239 -10.773094 9.907034 
-16.614008 8.543121 3.610334 
2.409230 25.739912 11.732982 
-6.377254 27.323545 9.517609 
-15.349930 13.239128 -1.297832 
19.109531 -6.497605 15.318358 
17.083328 9.711570 2.248638 
-1.045875 35.769375 11.766668 
-18.990110 -10.213099 14.044445 
22.485296 -8.159524 -0.772107 
31.940159 -7.928744 14.139431 
14.965830 7.375489 -2.226397 
-19.464180 -11.498242 10.589039 
-3.494891 31.344097 5.868010 
22.920849 -6.406541 6.932811 
22.919724 2.991271 11.625725 
-19.586592 6.675551 9.978736 
20.483027 14.297679 1.865409 
4.376074 24.056210 1.201005 
-29.377934 -8.460112 11.402649 
23.813017 11.988090 -6.546483 
1.198258 28.373581 -1.197164 
-19.565228 -1.720651 4.436151 
-12.647926 29.379204 14.189135 
-20.796003 -4.526406 7.959670 
-13.017349 26.208704 11.364755 
-6.498089 37.203178 7.568196 
22.401182 14.255728 -0.861424 
-16.730885 9.705637 2.481213 
29.819176 -5.815796 3.782833 
-18.005152 24.332483 5.450871 
-16.718309 -4.827546 -3.314156 
25.777618 -8.565930 -0.170482 
29.375813 -5.093807 4.097560 
27.938906 -5.463428 6.581723 
14.394305 11.168808 -0.554643 
-16.649452 4.973767 -1.042549 
-16.938967 -1.515173 11.446130 
21.541571 10.231943 5.078346 
12.964551 25.875237 2.837074 
2.726231 24.265047 0.472988 
6.389339 26.896742 8.920788 
19.332577 -2.743479 0.558742 
-4.339323 29.339167 3.859950 
-25.749224 2.342875 5.551476 
14.334620 23.951658 3.712242 
-19.638975 18.126236 -6.326532 
12.716940 18.544470 1.295261 
25.460979 -11.453771 6.050923 
-22.161081 -4.197263 8.692335 
-29.659840 -8.974334 3.742965 
-19.728748 11.580386 -3.238491 
1.408101 38.236423 5.713122 
-14.599290 9.697392 8.018250 
25.808168 6.779693 10.808284 
-21.530321 5.757483 10.327585 
-7.406679 22.952345 1.966030 
-21.888033 12.876410 4.230536 
-24.601103 7.559741 7.133908 
14.880817 28.833578 7.837867 
10.617237 18.962423 0.945523 
-18.729788 -11.772409 5.550971 
27.798735 -10.593824 9.875657 
-26.643667 -3.807798 11.848602 
29.920813 3.319096 14.574500 
-4.561784 27.966621 2.685690 
7.674695 21.328276 14.183839 
-9.377219 15.679326 -5.788161 
-1.403218 38.916916 7.511913 
-0.041669 24.109623 14.262559 
-2.620515 31.215502 14.652398 
24.854721 6.381100 5.082179 
18.893480 -8.457435 -1.864727 
-19.594278 22.203930 15.654314 
-28.685196 -2.912490 -0.323314 
14.679966 21.708071 -1.891542 
-18.838034 5.972821 9.322943 
-11.520601 26.231308 -3.987094 
-17.425209 -8.213250 1.767150 
24.417095 15.244060 15.760779 
-7.401906 26.827936 7.169508 
0.298962 31.091444 -1.076362 
25.766525 -11.356399 0.410790 
-14.681321 20.530474 11.296513 
28.228821 -1.027460 0.974659 
21.412016 -12.879948 -3.562717 
-17.461418 20.722372 6.972161 
12.001466 13.302977 -6.749999 
-5.833605 24.380064 4.145072 
-15.968938 9.090922 4.120222 
14.329571 20.933544 -1.443295 
2.816207 30.014694 -4.548112 
26.748676 -0.632910 5.928691 
16.387730 20.722555 6.836988 
-17.996487 7.292514 8.005692 
18.132566 13.873026 0.396981 
-20.819262 8.645715 10.964540 
24.487440 -8.296933 -0.543527 
18.325884 23.355728 3.659879 
15.334821 20.006777 0.177193 
3.006380 30.224432 6.463543 
-1.566195 21.669088 -7.808888 
28.435555 -7.401746 14.474918 
10.390758 18.896217 -0.255480 
-7.634645 24.444418 5.094330 
-15.577219 24.302202 -2.782717 
26.431829 7.372309 -2.407197 
-27.955593 0.496875 6.416335 
31.100111 -9.662064 13.815226 
13.785438 25.539600 1.506336 
-28.044380 -4.131125 8.118976 
-7.994637 28.022129 -8.598136 
-28.665680 0.917267 12.401951 
20.409527 -5.632565 9.314404 
29.251247 -13.324288 12.377293 
20.236382 19.962292 8.938921 
-23.326834 -8.072756 6.162937 
27.042330 -9.849257 14.536259 
25.154383 -8.206882 7.593406 
-4.609376 26.710443 9.857185 
-26.271612 -0.333264 4.323708 
5.501594 26.191877 3.020162 
22.119202 13.084889 9.173805 
-21.589209 19.974401 10.485821 
4.695003 30.797340 14.607619 
15.730575 28.891577 8.075520 
23.203514 -0.257344 5.089694 
7.514018 20.803072 -0.279489 
25.293085 14.174694 10.906829 
9.341395 26.041170 11.593079 
19.798506 -2.347065 -1.634420 
6.392377 28.661673 8.230766 
25.397451 -10.882915 14.050736 
-18.106594 24.187353 15.700122 
-25.414949 8.932994 8.209430 
6.122384 37.681171 7.898142 
-3.444091 30.645096 0.071276 
-20.707924 2.892810 3.447339 
19.215797 -10.384693 0.024126 
-14.456220 11.369264 -1.991676 
19.001173 3.285505 9.335736 
24.676167 15.378635 14.256519 
3.091839 33.750145 14.823727 
13.649731 20.821321 -1.987733 
18.352369 -1.663002 3.066788 
-26.941563 6.668158 12.593867 
20.171108 15.235867 0.823749 
24.711533 9.352561 10.222675 
20.025270 5.990751 1.395220 
-2.174165 39.010071 6.731093 
13.925190 20.591631 4.725743 
-19.870838 -0.346824 11.096051 
10.803887 19.006426 -1.015737 
-18.255354 12.263442 5.145820 
-3.695063 20.902262 -3.966873 
23.555531 -12.094080 0.100133 
17.761547 22.316685 -1.678153 
25.115494 2.872454 12.078387 
-17.804031 25.240625 13.985180 
30.102200 -3.087819 9.580219 
-12.172998 14.434965 10.462359 
4.638376 29.245691 8.037759 
7.417484 24.029751 1.666773 
29.963945 0.107115 -5.092989 
8.110999 37.723370 7.134752 
2.988035 32.612354 12.017264 
0.721467 27.767307 10.451453 
28.849142 -11.332553 3.892949 
7.110069 29.257133 3.773386 
-8.690909 26.045416 7.074800 
-11.396464 25.220945 9.303389 
-10.304817 25.506058 -0.619441 
29.512365 -5.778808 4.575827 
20.880983 9.594501 -0.416194 
-27.532236 -11.236161 4.100676 
28.583181 -5.015872 4.517530 
-13.312380 12.999311 1.080552 
-24.183016 -9.266510 8.482877 
18.581238 -1.272249 -0.154079 
11.833636 15.512318 -0.675150 
17.326508 22.742887 9.059824 
-24.630863 6.244292 -1.207530 
7.563504 26.690762 5.307692 
20.816921 13.351932 7.843206 
-10.405365 26.843103 9.134901 
26.317970 11.074574 14.458038 
20.850214 -1.544624 5.143900 
-14.433630 28.028578 8.495555 
28.850311 -1.089935 6.015827 
22.772137 10.375235 3.574421 
-20.880062 13.611922 -1.800675 
8.040913 24.027967 -1.231377 
-25.232702 6.035338 -0.006174 
-0.804517 30.453911 9.987941 
-28.734535 -2.457265 10.759695 
27.059860 5.721577 -5.779842 
17.097647 0.238833 -1.773965 
30.897156 -11.850329 14.523901 
-25.254555 -3.731695 11.832925 
-20.670099 8.433860 5.357985 
-8.835953 26.676817 -0.520250 
-24.106337 9.183886 -5.005624 
25.856382 -4.886656 0.953837 
-21.779903 2.650807 5.122312 
-11.502828 19.449713 8.772658 
16.832165 9.301798 -3.826640 
0.880175 32.629498 13.499165 
-3.125447 29.488564 -0.277822 
-24.551241 8.448714 -3.683434 
-10.473572 20.623926 0.981537 
-10.359161 18.901608 0.502730 
-15.046947 12.048505 3.314106 
-1.793527 36.798389 11.134459 
-25.103424 7.005388 7.323417 
-12.755275 28.079678 6.350716 
2.434424 30.282549 4.375501 
17.346546 7.477022 -3.369591 
-23.385452 10.139283 3.363346 
-11.830465 25.314318 7.916356 
-3.592889 30.586891 -1.472829 
13.870469 25.971752 12.056892 
0.782884 30.977137 7.325812 
-17.203573 2.607620 7.360497 
-13.389585 12.973612 2.625065 
-28.229502 -3.944156 8.915063 
21.020983 0.686521 -2.889062 
27.206436 -10.951962 7.482846 
-10.815022 28.572781 1.611258 
18.987677 21.662260 8.227872 
-17.520041 13.250605 3.605953 
-13.968605 21.317886 -0.054780 
-27.553110 -12.523046 12.576406 
-23.644447 10.088776 -5.216389 
27.855946 -6.558995 7.638493 
10.981137 28.501953 6.204511 
-7.949872 25.113329 10.366159 
-15.461886 7.230832 2.995274 
-4.031134 27.618156 -0.644069 
13.992099 22.496052 5.554334 
22.597548 -11.891375 9.392054 
24.839746 6.901030 2.572043 
-19.826647 12.507218 -3.114526 
-11.034135 27.800884 -0.421918 
-24.202942 4.806637 3.712472 
-21.829224 -8.994717 4.937720 
24.597681 -2.814399 10.142799 
-21.983923 14.110595 -2.052384 
-23.102783 6.955706 8.432636 
1.556345 35.206921 6.884852 
-8.643971 28.420704 0.462148 
17.837660 16.538082 8.439212 
-23.828791 -8.059075 7.194651 
-25.889013 9.953251 11.865296 
-28.137566 -13.195708 14.934501 
-5.515621 27.390142 0.797522 
-23.519575 -2.528308 2.089995 
14.976773 21.405577 7.940635 
-5.198807 27.608051 7.019703 
19.331333 -0.964537 4.121540 
17.811819 21.870472 11.287314 
-3.310555 36.488430 10.679570 
-28.449810 -8.937783 8.672003 
3.115376 29.526781 13.367279 
9.762877 29.446766 3.450624 
-5.676365 32.286137 12.852784 
-21.809370 6.929975 9.967396 
27.912802 -12.996735 5.483819 
-17.655998 12.275270 6.070606 
-29.038797 -9.635110 9.122675 
-14.782675 1.955961 -3.409016 
-10.264479 17.783140 14.038760 
17.049385 7.673389 6.362591 
-18.087900 14.913362 3.738816 
16.964155 5.185354 9.948762 
-18.064465 -5.355744 15.138321 
-19.627251 -7.398697 5.230084 
-5.992046 23.007549 12.388335 
-10.321159 27.685261 -0.357323 
-9.164883 26.956018 0.739819 
12.867775 22.121786 7.373721 
-7.320894 27.746275 1.344908 
-8.948264 29.538471 12.749751 
30.170450 -4.124504 13.021921 
-15.591912 -1.026805 -0.558768 
18.484983 26.876263 10.515145 
-7.640318 23.276524 -0.111228 
7.924331 31.669863 9.594274 
18.282774 -1.485219 2.292896 
4.057763 27.363867 4.455657 
-1.588353 34.432350 13.715498 
-17.962891 -1.687271 5.131355 
9.364576 30.089106 6.099315 
-28.837866 -12.726395 -1.342094 
-2.954347 25.716719 11.413398 
17.881138 -0.056843 14.285083 
23.148457 13.804818 7.652550 
24.318405 7.778869 5.272765 
6.089199 30.540089 8.571074 
-14.586006 3.607437 -5.684990 
-24.920446 7.162521 -6.152462 
25.248213 2.168220 6.526188 
-5.590793 29.547499 9.103958 
-7.513556 32.714962 5.149135 
-6.567122 29.545612 12.642312 
28.240471 -14.765725 -0.857101 
19.054878 3.474902 6.019966 
-27.961655 0.264355 -1.387791 
-17.605726 -10.718121 0.404889 
15.046179 19.956059 6.877568 
26.306746 1.456455 12.201182 
20.629271 13.151365 -1.684711 
-8.181907 27.049458 4.934241 
18.747036 0.650767 2.968107 
-29.851202 -6.519727 -0.226702 
21.408676 4.308075 10.700492 
23.239697 -5.920368 12.626011 
-14.596024 8.951522 -1.860283 
-14.066172 8.062165 0.402406 
-16.024754 12.783319 2.505713 
-26.810932 -13.089138 4.192087 
0.086252 22.510403 -4.200211 
6.516337 29.726011 -2.972160 
-9.514284 28.003780 -6.860981 
-20.015785 -14.134545 3.034999 
-10.758035 22.068153 9.795655 
19.524118 0.110326 3.497779 
21.222950 -9.600574 11.723419 
-2.940346 25.486469 1.321464 
-22.610998 6.184379 0.426924 
-19.640406 9.729684 11.034852 
-22.500706 13.265531 -2.264981 
12.028945 27.296869 -4.120850 
12.908672 23.092560 11.303534 
16.117210 7.625552 9.093857 
14.863720 13.372873 0.692374 
30.613224 1.092220 12.727121 
20.132586 16.235634 8.497143 
-22.791285 8.813774 0.249096 
12.504849 29.611729 11.676197 
-6.579741 28.070253 3.278656 
20.030928 -6.997306 5.130154 
-22.530342 13.527382 6.392555 
-25.067137 -13.043226 10.568574 
14.934216 20.527847 10.488231 
-19.234228 -12.864846 5.967270 
27.845652 8.364366 11.647250 
-26.663113 7.563904 11.408722 
19.854351 4.630724 9.614017 
-15.827939 7.497038 8.351120 
11.037357 25.702921 8.042066 
-10.069499 24.138632 4.312250 
-8.643968 24.869257 10.329676 
18.078644 -1.110650 14.166048 
9.394443 25.456816 2.193855 
-13.489288 22.782032 1.521029 
25.456474 -11.496360 7.508789 
-10.468143 21.455008 1.821009 
-0.487568 27.912691 4.070586 
-19.997204 -12.247441 10.409169 
-23.016333 -4.971413 7.309609 
23.385536 -11.285874 -0.273776 
19.663435 1.978989 10.046244 
-25.762453 -2.078388 5.018783 
23.192301 0.071057 3.655947 
-18.907089 -8.994843 4.844748 
-28.356310 -12.356635 11.238877 
1.889329 34.437134 13.716821 
-16.343235 22.598454 -1.171490 
-25.627071 0.902056 3.585345 
-17.304115 15.425207 1.779885 
14.914032 7.042476 -5.985361 
-10.408314 27.684938 13.119296 
18.974911 7.716175 -3.477644 
25.889084 0.588115 5.650232 
11.099790 27.548672 4.483685 
29.657789 -0.320577 7.520826 
-11.849870 29.514280 5.880267 
-7.857035 30.853716 10.318185 
-17.820091 13.170052 -3.325591 
-24.235470 7.957458 6.636538 
-13.843443 26.006884 12.607269 
-18.565250 23.039566 7.131116 
-28.386847 3.395037 11.319332 
-17.049631 -6.938188 -0.749200 
19.196598 22.018221 6.806483 
-16.852253 1.207109 3.558649 
18.392620 20.091999 7.916089 
19.757883 12.921593 7.628773 
27.643250 -7.341696 14.458601 
-24.288876 13.519392 14.033896 
-16.044388 7.733860 -1.550993 
-28.824390 -0.255375 12.300486 
11.587988 26.071596 5.206266 
-17.197987 10.136275 -0.344567 
17.204367 21.003925 5.711445 
22.326452 -5.913317 5.100070 
11.508221 17.507322 14.042997 
27.377775 -14.667738 14.227724 
25.926147 -10.140071 10.169987 
7.807761 37.046440 8.734640 
-24.882381 -2.663000 6.047094 
19.241835 -7.492333 3.651223 
-12.955056 23.635469 12.242673 
22.487123 13.584400 -0.410207 
25.499510 12.843844 9.175993 
-19.229851 2.759437 10.693381 
-22.439745 -2.330219 -1.374114 
-21.483404 9.313083 4.680278 
-24.276375 7.060789 0.545808 
-26.523882 -6.883012 13.518081 
21.897163 -7.164833 -0.640872 
-0.765174 27.794849 1.508604 
-13.213455 8.658593 -1.153381 
-7.029397 31.748407 12.904254 
25.857307 -5.941194 0.429460 
25.488100 -0.133374 -2.069516 
28.875988 1.704633 5.433273 
29.267075 2.729886 6.019771 
-22.770586 -9.914948 7.087970 
27.914762 -8.276981 5.375299 
5.486617 28.945822 2.925318 
10.375457 25.301443 -1.670848 
-15.974071 7.155107 6.953657 
-12.431195 22.303791 8.394011 
-0.445790 30.132380 -5.385788 
31.089548 -8.372170 9.409899 
-18.258043 -8.324841 13.894635 
-26.082870 -12.707194 6.319128 
5.738853 20.805004 -5.864663 
-12.862210 27.510515 -0.415196 
-14.910083 5.861293 0.377515 
-18.321413 12.106172 4.408608 
-12.937673 8.290389 -5.188502 
-27.748190 1.347787 -4.133254 
15.646276 23.654884 12.167973 
-16.423981 -3.633683 -3.572999 
21.100780 18.433994 -4.870906 
11.796852 23.741631 9.958803 
27.729139 3.978815 5.391888 
9.793824 16.675491 -7.164354 
29.409533 5.276188 13.552503 
14.011047 25.773125 -0.524199 
-17.263090 0.463900 9.714805 
8.243924 33.287750 7.578712 
20.226423 11.007974 7.400002 
-28.508638 0.889755 13.235617 
-15.781367 14.210837 -0.184668 
4.680231 32.913364 13.294932 
29.807360 4.462956 12.943456 
-21.777693 8.600785 4.553355 
0.791811 23.927752 0.468687 
29.412437 -2.622610 11.641151 
8.938512 35.299347 7.715620 
-13.126201 27.049961 -3.892995 
22.721939 -14.184537 2.239827 
-22.694252 -10.320699 13.454802 
4.337460 28.971394 1.659771 
20.135912 -8.377487 10.439578 
-22.911312 -5.580793 -0.339336 
-22.851877 11.772467 10.229197 
23.354872 18.899620 13.923882 
-25.451612 6.859638 -2.693590 
10.477906 20.976107 10.642492 
22.257202 -3.573110 7.091792 
29.598469 3.109918 9.539607 
-25.285160 -13.405546 12.483004 
-4.938241 33.317490 14.035536 
24.853741 5.391285 0.571327 
-3.960942 32.647583 14.858507 
-27.819445 5.119008 7.219847 
23.045033 13.063062 0.478148 
17.589128 1.685961 15.465792 
30.478691 2.148555 12.098313 
-15.032592 7.145671 15.392604 
30.419191 -3.632707 8.535209 
25.944162 -0.180822 9.112926 
-20.212378 9.275893 0.707275 
-0.802704 28.761391 5.049367 
-25.555937 6.658258 -3.659098 
-13.294284 28.487112 7.732843 
25.689220 -4.061908 6.180809 
-19.895689 14.649653 2.788605 
1.736680 30.353888 -3.866813 
-4.367596 28.489828 11.660417 
24.736860 14.724400 8.852311 
6.260669 31.937498 7.982419 
7.772485 29.010828 -4.571501 
-21.448517 13.500625 6.878573 
7.981133 33.033543 12.952109 
27.978643 -11.188337 14.407030 
13.370549 28.932590 9.970098 
11.974739 27.708632 7.218835 
15.255084 24.910715 -4.942307 
-6.719841 28.515810 11.392663 
-20.916182 9.099743 1.881979 
-10.106529 19.319176 11.121135 
10.246293 18.888250 14.445770 
18.168859 27.112381 12.854217 
27.160114 -11.042552 10.192381 
21.350584 12.959541 9.142129 
-25.312662 3.456330 3.982380 
17.087053 7.516271 7.075042 
-0.062202 31.727686 8.703775 
-13.131443 28.559248 15.810296 
17.700514 4.578887 2.893212 
-1.019655 33.316002 9.955454 
-21.124229 9.352295 11.086124 
-22.123550 13.867711 -4.040237 
2.209059 32.918335 15.976483 
8.380920 21.107567 -0.938489 
16.346502 16.131729 -0.567849 
5.172096 33.302628 15.039826 
-10.903835 16.915209 0.204993 
-11.324684 20.666464 9.987883 
-15.930893 9.561809 -3.534451 
20.290735 -12.705867 1.129878 
1.250969 32.945904 15.971807 
28.383745 6.492477 15.615819 
5.067872 34.759377 7.739354 
8.697825 29.044846 -2.389573 
-7.367475 29.182398 -2.301630 
-17.974398 -5.323438 10.789812 
30.874577 -6.925155 9.378473 
-0.028943 26.164587 11.882009 
-8.138456 25.423378 -1.091606 
-10.332378 25.607920 7.747575 
-1.588001 24.350836 13.663715 
22.263138 -4.813752 8.678090 
-10.765138 21.984146 3.596425 
-18.792347 12.618627 7.846789 
-14.018468 26.356627 -3.806964 
-22.790964 12.936490 7.985819 
-19.170631 20.118408 -3.389101 
-19.761692 -5.587691 9.282541 
18.472767 -5.215677 -2.053040 
-24.590389 8.703862 6.881125 
18.015177 8.286025 9.637288 
14.793362 24.557861 0.278928 
12.626685 24.875597 -0.683683 
21.895279 20.621914 9.192938 
-0.487725 37.957848 7.141565 
5.862897 29.918566 2.128994 
-26.718912 5.539729 10.100107 
-12.405992 15.851140 8.034492 
-18.223335 -6.045020 10.208251 
22.350592 -11.379242 8.874811 
26.290701 -13.568915 9.929557 
23.989353 -10.806177 -0.336426 
20.514168 -6.444572 5.290159 
-21.675049 14.220580 -5.824756 
-14.231785 25.413179 -2.769629 
18.220043 -4.091815 -1.415041 
-10.595444 25.443340 9.341783 
-24.216688 -2.828699 11.111946 
5.396201 28.099548 -8.556137 
-9.785589 25.683140 5.585222 
-18.086250 13.464551 4.133886 
19.487841 12.345640 4.929794 
6.721263 28.306389 10.807907 
30.495773 -11.364110 10.270551 
-15.407891 10.362671 -3.607703 
14.442811 25.282099 -0.904385 
1.762450 29.556515 8.613825 
8.419911 31.422861 10.401059 
-15.658963 13.641844 2.478776 
25.937040 6.941370 5.048280 
10.448333 26.344530 2.444453 
-21.101688 20.259697 14.443538 
19.671764 20.394279 -2.018257 
25.373390 -2.230714 5.644366 
-20.693151 -12.634535 1.012949 
24.454618 8.259657 9.059926 
25.718882 -12.707126 8.789957 
23.680784 -7.150862 5.405104 
13.963099 26.110266 -4.074859 
-0.146220 29.053648 -1.103539 
12.549795 19.270771 0.388992 
23.831671 -12.583889 12.920272 
15.568743 29.066685 7.224238 
20.461191 -6.450282 10.225087 
8.384128 27.917864 7.176974 
6.934225 32.206532 15.988588 
-17.853453 7.207327 1.306593 
-16.355597 10.510947 -3.711570 
11.878090 23.790777 -2.768990 
19.873768 -9.552361 11.996921 
-28.518394 -12.582047 0.739967 
24.951708 -3.204331 3.840894 
23.916653 3.953548 5.346695 
-26.451778 -2.646880 8.580752 
26.424158 2.238188 0.759237 
-18.629942 23.548058 15.685121 
29.986994 0.483125 -1.663850 
27.193386 -13.050331 13.283087 
-5.093483 25.236219 5.611179 
-1.685148 33.525440 15.037395 
29.279663 -5.360363 13.789266 
-21.472507 1.012482 11.664127 
0.588760 27.914501 1.895032 
27.873051 5.747965 11.192095 
-16.227682 22.000942 9.187641 
-22.620979 -13.453588 7.706313 
22.762342 6.783037 -0.494530 
-0.147939 35.574169 10.115807 
-17.344122 3.987533 7.266118 
-23.993071 9.421471 -2.750177 
11.956145 21.932030 10.256461 
-21.511347 -2.766975 5.173074 
12.557149 25.397326 4.871760 
-17.799200 9.895411 -3.532938 
-4.286983 25.908344 10.688300 
23.328068 7.082926 3.747921 
17.111383 3.461471 12.326077 
-16.581072 26.451889 3.616454 
-4.975662 29.916229 13.774244 
8.580453 25.520218 10.101254 
-19.381384 3.372405 0.296183 
-13.357294 27.092991 -0.025235 
5.284124 28.351109 11.086062 
20.660618 4.333671 4.378285 
-18.240126 -1.686572 -2.137100 
-19.229134 11.336667 10.662351 
-6.527664 23.793905 10.809942 
-11.492949 21.036100 -2.313744 
-11.218313 24.275034 10.374626 
11.049966 25.632460 -1.790238 
-27.027645 5.662778 13.987912 
-23.574406 4.765625 0.407420 
24.571726 7.377401 10.313921 
18.969149 6.714317 4.435184 
-15.057509 28.300728 7.697320 
6.881413 27.281435 9.790946 
20.896399 6.194686 9.109970 
17.559338 1.471961 1.419514 
-6.670980 27.950241 -0.398214 
24.362787 11.796576 3.233745 
21.908724 6.568138 8.176995 
-29.248240 -7.405139 4.198599 
27.182110 -10.649130 0.892367 
21.567049 22.018202 10.619320 
22.500622 15.519689 -3.564487 
-23.652971 10.293183 -3.114601 
-20.114017 7.387897 -0.470174 
15.404518 21.054207 0.513848 
15.812008 7.300108 1.499704 
27.981335 -1.794867 6.486567 
-6.576933 28.358526 7.752917 
27.330618 3.554085 9.396214 
25.880766 -14.550330 2.362073 
-14.172186 13.910555 1.118452 
-17.947603 -9.670756 -4.099789 
22.443695 4.447234 3.862831 
26.372847 -3.843673 9.531042 
-26.517628 -9.638782 6.031479 
25.173828 -13.479136 5.290533 
-20.141199 9.103065 4.969066 
20.392874 1.631609 2.996969 
23.966963 12.202231 -5.571754 
-9.640962 29.352896 12.875895 
-21.624903 12.912390 -1.823517 
-20.717407 14.238156 2.058834 
-17.675846 25.653976 6.368749 
-21.109781 -3.893564 1.733045 
18.448524 6.874319 9.189146 
27.078011 -5.021929 7.792410 
19.598207 2.129579 3.432029 
-28.559586 2.145605 11.820299 
-21.097906 -13.494149 9.239068 
30.042534 0.444356 -2.666080 
25.552874 8.424232 -6.110892 
-29.417620 -4.667001 13.482391 
-4.962364 20.298115 -5.733434 
28.748032 -8.864703 14.612664 
-22.368782 11.656240 7.932641 
7.033039 31.850689 9.900801 
-17.478216 26.594189 9.051299 
-19.619534 5.482113 -2.947705 
-28.775757 0.799493 10.470324 
0.253362 31.676695 5.615805 
26.812168 -9.603971 0.387705 
22.052624 -10.398950 4.748692 
31.812254 -4.766433 -2.720169 
-8.151418 28.738785 -5.429398 
-8.694926 27.799883 -8.574070 
4.234105 35.740635 11.623822 
-19.538935 -3.426485 2.350255 
-19.807285 -3.025282 3.639741 
-13.434690 27.315264 4.586009 
1.418233 23.522003 0.028149 
-14.527885 8.023966 11.027246 
12.993977 23.642578 8.643829 
-20.502567 15.943777 -7.192391 
17.137112 27.794739 12.209898 
-24.749538 4.378888 -1.658215 
9.262457 19.542194 -1.231366 
-12.695969 31.294069 7.809207 
-15.135509 27.074074 15.771166 
24.992989 -5.873306 13.503899 
30.009424 -9.988576 6.259542 
16.123539 3.894710 -2.213354 
27.860678 3.371063 -0.795892 
-15.663882 23.897655 -6.787542 
21.032726 -9.385312 8.239425 
29.062653 -5.615382 11.966619 
-25.863523 0.068125 11.515217 
24.993519 0.496763 5.902865 
23.729904 -8.148904 5.203505 
6.828392 28.877769 -5.805936 
-16.860559 -5.951692 -1.939346 
21.226715 5.200866 10.273636 
2.581292 30.008022 13.726724 
22.245756 4.465291 8.099497 
-19.709932 8.404117 -1.561139 
-19.265453 -10.056779 8.142634 
-19.859217 17.778189 -2.323253 
-19.564756 -4.177492 3.378507 
30.233330 -3.481112 12.591685 
-29.364719 -7.151748 10.038010 
-24.784105 -1.551979 5.082056 
14.723676 24.164972 5.231884 
11.004265 19.580248 11.334465 
30.839876 -1.963255 12.140387 
-16.693750 8.711090 -3.233826 
30.672682 -1.071875 11.951230 
16.706070 5.095333 13.771490 
27.652271 -5.782801 7.986940 
-27.237276 5.944660 7.693622 
12.391286 13.115601 -3.287159 
-11.985840 14.816517 14.206261 
31.136044 -7.747856 9.779551 
-11.752104 26.085232 7.742301 
19.582640 8.299082 10.280069 
7.534397 25.094400 -2.084943 
-23.847790 -6.201202 8.038750 
17.488537 3.493591 0.993074 
-28.406511 -11.649249 12.882726 
-19.252554 -6.635367 0.368592 
-15.592437 8.466692 6.283897 
9.275997 32.165195 9.924583 
27.819691 0.817177 -0.820771 
16.147539 10.834948 8.250529 
10.735871 19.347008 12.243211 
-11.140575 30.552549 10.439514 
18.549519 -5.324450 -3.197899 
-18.895306 -2.218224 10.216068 
-3.901063 27.587620 0.278544 
1.215246 36.811584 10.360268 
10.380845 26.482815 8.919094 
-8.288206 35.386822 9.100180 
-1.095722 28.924942 -8.680355 
-5.846511 28.555964 11.171120 
-25.169474 4.608305 4.833328 
-24.396862 -4.923320 12.608389 
-28.875666 -3.311854 10.926602 
-13.557024 25.906866 1.277918 
-12.555901 22.145638 6.613109 
10.770426 29.514633 13.288908 
18.540600 26.377331 6.461666 
28.684340 -13.971008 13.617994 
6.023415 27.337896 2.457934 
25.795187 8.300354 -1.651806 
-5.062171 34.968349 7.357130 
10.576753 18.309044 0.263649 
20.158035 -12.773462 2.883214 
-18.957987 13.672511 4.712007 
-24.403269 8.046104 5.891750 
-17.434391 13.675039 -0.042937 
3.827720 38.430019 5.756200 
-27.364817 -1.052543 1.061092 
27.299629 -1.714285 10.335056 
25.069084 8.319236 5.768453 
-20.866619 10.921756 11.007317 
-21.639645 -7.218690 5.071585 
-16.562716 11.213800 7.244155 
15.701976 12.756980 0.329075 
-1.770601 30.638033 0.156404 
-3.273407 28.869907 12.385154 
-2.848484 28.402678 1.737916 
15.980199 24.473000 -3.127683 
16.175526 9.295731 1.986503 
20.583450 13.148115 6.412808 
25.171799 12.818386 6.297760 
-7.424336 18.821665 -4.535597 
10.065559 20.926836 0.131489 
12.960523 29.809532 10.920030 
-21.677362 13.659579 0.577401 
-23.901016 -12.392418 4.677673 
6.297237 28.298891 -2.170252 
-8.353662 28.690779 -0.167225 
28.709885 3.493151 -3.487077 
-24.323334 -6.033246 13.195885 
-13.359784 29.372347 6.110506 
-26.489561 -11.944223 2.848860 
-17.662685 -9.736028 -2.871770 
-4.899184 28.246706 8.826900 
22.838943 7.476894 6.991860 
17.676840 10.741582 2.330932 
18.534355 25.769669 15.929091 
4.497329 38.456478 6.108891 
7.370870 32.515171 6.985431 
-15.702002 27.498011 5.470819 
-21.100344 9.580251 -1.509076 
8.604531 34.235416 9.765162 
-11.886075 27.518528 3.872099 
20.687082 19.284687 -4.614896 
1.864971 23.723515 14.575747 
14.012856 20.370455 -0.575167 
-21.555054 -2.377789 11.106750 
26.897488 -13.800364 4.204171 
22.733402 19.772213 9.580893 
16.234724 20.731310 -0.147222 
-15.641281 27.336748 4.692495 
0.141296 34.655094 7.431200 
-6.455753 33.599323 6.442018 
-17.428951 22.477785 -3.817479 
26.313141 2.327250 12.170868 
-19.837490 5.882367 6.598243 
1.184988 34.332134 7.008211 
-13.067973 26.841137 -5.062254 
-28.032385 1.812546 8.595648 
1.657014 24.656895 2.266231 
21.611233 -4.808468 10.567283 
-8.819259 28.251696 -6.827108 
0.139035 21.910738 -7.831436 
-0.200038 31.411346 3.824661 
9.177763 32.641270 7.396867 
25.156494 -2.637478 -1.111993 
24.660543 3.824718 4.970425 
26.570782 -13.469400 5.274274 
-23.406542 16.128462 10.857718 
25.076054 1.747092 -2.516320 
-20.001554 17.803005 -3.131483 
16.095217 19.198544 7.091286 
-19.508253 7.488443 0.110872 
-15.253919 22.720425 4.326016 
-20.244865 21.706207 14.464782 
-9.379471 20.426571 11.161523 
22.039692 -3.850263 -0.127811 
-25.529734 -3.041954 7.441133 
16.625959 7.448179 -1.951958 
-26.114813 -0.291264 8.986350 
28.045761 6.961356 4.810494 
-25.358709 -14.733575 12.972204 
-23.866961 -9.557833 7.534948 
-17.905888 -7.338789 12.720718 
-13.494903 21.744675 0.446868 
-27.524725 1.256645 -0.359661 
15.885763 26.985750 12.084165 
-20.653151 -9.478070 12.536793 
-26.565723 -11.952694 6.974799 
4.930571 23.794874 13.070267 
9.042179 25.819099 -2.107847 
-26.765944 -12.981009 12.440149 
-21.680050 18.593296 15.574306 
-11.365530 31.850698 7.021214 
27.064587 -11.122794 6.614099 
20.851891 -7.304443 5.378956 
28.663996 -4.001185 7.547752 
-19.674183 8.036966 2.030981 
-23.546959 -1.877214 5.137240 
0.004233 28.870501 -8.669587 
26.905209 2.292646 -1.590225 
-17.907505 4.621555 -3.015644 
-23.224972 7.754137 9.310602 
13.589465 29.588531 9.503503 
-18.240334 24.366192 14.959462 
-14.038392 25.631592 3.889782 
20.250614 9.581585 10.697591 
24.018227 -14.017213 3.849721 
-9.795072 15.747303 -2.973536 
0.682161 24.992449 2.112881 
19.004145 2.038079 6.545698 
-21.434805 7.681489 4.651245 
-23.510777 0.929217 -2.262572 
23.955399 6.539130 -1.230490 
-12.422523 13.641889 12.976730 
24.416534 -12.147134 8.734542 
5.336057 28.862375 12.303415 
-26.817221 -4.828001 7.659581 
9.598223 28.294596 -0.296871 
25.497854 -14.914477 11.353355 
29.406706 -2.943324 8.270642 
30.734810 -8.345927 4.748740 
-16.963490 23.544950 10.748796 
29.810453 2.191042 6.704440 
-1.614294 26.213415 -0.363830 
13.409571 14.278026 14.420435 
-25.406368 6.251353 -6.044662 
-22.406645 2.579408 11.659653 
-21.692684 9.833598 0.633076 
-10.121502 31.206575 4.407320 
12.693687 27.057697 -3.379167 
-11.191130 24.335701 5.936635 
14.558143 26.350512 12.214578 
-29.053953 -4.712884 9.629154 
-17.772509 1.628363 10.034866 
-22.605459 8.848542 3.941646 
-16.017164 13.623111 -1.300844 
-6.672137 31.565071 6.420434 
14.167638 28.562727 7.692565 
20.521057 16.005201 0.102309 
11.027622 27.729727 0.421802 
-26.283230 3.791899 1.375051 
17.143082 21.047338 7.113311 
-23.284145 -13.820160 8.556314 
3.049630 30.241869 0.713366 
-19.212435 16.850527 -0.535624 
19.041008 -2.156903 4.505634 
-3.418679 28.242006 -0.332372 
18.322500 25.320660 4.041017 
-25.899315 -11.614563 4.893756 
1.731563 32.587074 10.289130 
22.319159 0.636376 3.231203 
22.096607 4.806707 10.857973 
-15.194770 24.906742 -4.935164 
28.108881 -4.855142 13.607805 
14.321435 24.983082 -7.029775 
-7.673219 35.489834 9.705542 
-19.740700 21.742916 9.026656 
13.601082 30.295111 9.165649 
17.452919 1.712301 12.804972 
12.348884 16.867435 0.722454 
-15.825875 28.053564 8.070655 
-19.644829 15.824912 -0.420675 
-17.705881 22.174009 11.454343 
-12.381227 27.733679 1.904631 
17.518492 -1.151546 -4.067804 
30.429140 -13.101404 0.979816 
9.109704 32.812305 5.188394 
-14.091409 9.860613 15.449362 
12.594138 19.578485 -1.297907 
-22.381212 13.283759 -1.412507 
28.276211 -8.245606 9.462439 
31.901375 -9.344533 14.313283 
20.183714 0.987483 -2.802634 
-0.107662 31.892479 6.239928 
25.121828 -2.980994 11.666397 
13.539841 18.562603 0.872035 
-10.877927 19.057219 9.996610 
23.228397 -3.523399 9.701527 
5.087504 27.553827 1.967839 
19.942448 24.803709 14.091612 
19.169451 -2.353731 9.192072 
-24.381947 11.979345 4.840953 
-17.132004 7.005819 1.878286 
-12.128693 14.371764 11.264204 
-15.704329 4.829387 10.222742 
-23.366093 -14.802771 2.212858 
26.179388 3.375366 4.316554 
0.785927 28.558512 7.590841 
24.189831 -0.266727 4.637153 
-25.609837 3.964902 -1.131773 
-17.419836 -1.446689 15.216185 
-17.202681 24.254211 3.197190 
0.661464 35.842800 10.612341 
-1.846997 22.126104 -3.818431 
20.743151 0.590060 5.113760 
6.334102 38.145363 6.049256 
24.450510 -6.892510 -0.331206 
7.287388 36.010696 10.681903 
-2.856975 22.619125 0.661166 
20.577501 19.408976 -2.408153 
-19.573849 19.206255 -4.048366 
-21.564274 19.017803 9.249366 
7.147942 29.414574 1.240933 
31.396984 -3.966086 13.285400 
24.213316 2.297240 -2.789347 
-10.879467 28.105398 -1.111029 
3.329461 25.962297 -1.028407 
14.268131 21.916002 5.198140 
7.063180 19.479610 -7.512305 
-20.533815 1.752196 -3.186761 
-16.713520 25.826056 3.262198 
-23.540539 1.431073 5.753951 
20.414289 -3.213912 -0.492568 
21.962290 8.619500 -3.013791 
22.698387 3.217484 8.475520 
10.500371 19.725922 -1.701741 
19.263830 9.768030 3.337029 
15.806796 4.552432 -3.307894 
13.309588 14.340980 12.225919 
23.461086 -7.062288 -0.539813 
-23.016785 10.825871 -6.586066 
26.360596 -11.893009 2.748918 
-28.837910 -7.995116 4.521802 
-22.631939 -4.137884 5.977643 
-1.526162 27.253599 10.434739 
19.029942 14.687252 7.432581 
7.717615 20.138508 -0.680423 
5.815317 32.880863 8.009545 
10.202789 21.476898 3.205758 
-13.288793 7.551138 -2.379108 
15.087621 26.866978 3.013595 
17.631538 10.723471 7.426511 
21.792717 11.562923 7.865897 
24.730986 -10.625111 13.874296 
24.824184 -0.068022 6.436515 
-9.384099 31.615078 12.898017 
-1.204898 22.294348 -4.251480 
-4.171005 27.289377 2.721827 
-28.681025 2.138164 10.661291 
-19.578550 19.306574 -2.831321 
-29.429918 -6.049537 9.020159 
17.665642 25.039106 2.767883 
-0.324792 23.934406 0.109275 
-25.028879 -13.646782 11.727016 
-10.510365 28.126755 6.884900 
-20.794231 -5.592424 4.936293 
-12.477938 26.670752 3.972179 
-20.680794 -13.823256 3.659968 
23.162720 -12.383623 2.606850 
28.002115 -1.929827 7.937025 
-2.042859 29.871023 13.310604 
-10.576551 30.881166 11.984648 
4.152731 32.739529 15.983632 
22.547995 19.483160 15.831281 
19.873882 -8.082200 4.368818 
-2.620092 37.468666 6.562232 
-27.514055 4.982169 13.056338 
-14.826251 20.560257 5.923774 
22.304186 15.003417 -6.915172 
-1.712437 30.713367 8.279644 
-22.439362 -14.842129 12.793839 
5.874866 31.822596 14.467525 
7.446182 33.162891 13.481112 
-21.645607 19.655020 13.475595 
-15.679475 22.855375 9.961763 
31.106459 -2.036409 15.468341 
-10.511459 19.618839 0.743354 
-24.194794 -8.428628 -0.275143 
8.558319 27.612606 -2.477831 
-0.266218 28.098354 2.012614 
20.295149 -6.006421 2.571641 
11.575775 22.424326 8.471658 
-0.888874 32.655636 13.032111 
-21.445074 12.813565 2.307188 
-23.764467 9.469822 -1.841065 
-27.719009 5.677625 10.093345 
2.350368 33.534760 14.039553 
3.852372 36.288792 6.520127 
-3.152662 34.867138 13.095080 
30.694050 -1.526314 -1.738188 
15.521971 5.300817 -4.616713 
-22.200783 -6.954288 5.776105 
-18.846569 -2.812365 4.311440 
-5.358411 22.685158 -0.752924 
-18.076962 7.907762 -2.514805 
-29.063307 -3.218670 -3.095917 
27.378414 -0.001122 -0.988030 
20.387383 -9.895145 0.850780 
-19.115164 -8.241269 0.161449 
16.808161 1.512265 -5.312520 
27.872826 -5.867160 14.053979 
-28.310814 -10.040725 3.553912 
-12.479952 11.290358 -1.374046 
8.552986 32.930561 12.007618 
1.849190 22.527531 -2.785679 
6.167287 24.253790 11.566159 
17.115957 3.401514 13.793651 
-20.000458 -5.365971 10.788040 
-26.851366 -7.427375 7.392259 
-23.681810 -1.688699 6.257971 
-3.552428 32.521202 15.937658 
-23.549128 -2.465225 11.270394 
-26.158731 -11.888228 3.509306 
32.410938 -8.095117 -1.067587 
11.583768 28.629715 2.769493 
16.416162 28.762367 7.876480 
28.679356 1.378767 2.440706 
19.440966 7.201591 -3.113147 
18.639738 10.833966 2.559703 
19.516455 -9.657066 -3.957868 
-22.336145 -2.977363 1.181378 
-30.175409 -7.994698 -1.387179 
-26.183243 7.196896 15.333058 
30.196661 -0.532090 -1.063828 
18.843019 25.315811 5.544051 
-9.230599 31.053486 15.068392 
30.894350 -0.973583 15.487410 
-16.084936 2.933246 13.746278 
19.942255 -1.599091 7.416801 
-26.047022 -13.929174 2.875413 
-5.420102 36.352001 9.761065 
-18.661278 -8.157114 0.745476 
-3.274377 27.632996 4.137347 
-28.676157 -9.493762 3.907756 
19.658072 5.354837 7.983313 
-24.088043 -8.437763 8.273211 
-22.387726 -1.455941 5.471035 
16.343355 2.806559 -3.083187 
28.981743 2.072845 -5.333337 
29.540842 5.519926 11.938960 
0.257923 30.257624 11.356696 
-0.071821 35.530773 7.748606 
-20.601017 5.848475 7.336421 
-0.676172 31.129986 -1.451702 
20.696959 -8.338298 4.900124 
24.413448 11.960080 -1.766635 
14.511419 8.052498 -4.419326 
-24.281252 7.972911 4.282070 
-16.668369 7.802050 9.793653 
-28.757153 0.906420 11.664508 
27.269207 -11.378732 1.277388 
29.711803 -9.462760 6.705600 
-26.061752 5.910599 -2.840606 
10.062902 29.678896 6.250832 
-19.651840 -8.237095 7.113828 
-23.353678 7.537897 2.415323 
24.901754 -11.872930 4.095492 
4.701726 29.469240 -5.327115 
25.204622 -6.164044 3.472178 
7.203680 38.149044 6.682395 
18.535042 -2.303476 10.982261 
-20.976044 3.288221 -3.181170 
6.022532 32.683472 12.742196 
-27.179440 -6.785572 11.334725 
-7.372125 29.246765 6.471493 
-4.276345 23.390221 2.847203 
9.430313 21.331230 11.813402 
29.338551 -6.694226 2.732764 
-12.898690 27.395426 1.213489 
-21.071432 -14.191626 12.000763 
24.154947 -10.487020 7.059827 
-22.953306 -14.597793 14.935965 
22.168499 21.227333 13.577386 
2.688072 35.375641 12.235131 
-28.036343 0.064826 7.848616 
24.721901 6.733943 3.419147 
17.106125 21.680769 11.307480 
-12.846015 29.649574 9.381806 
-18.269911 15.330978 1.511474 
16.028179 15.817400 7.998489 
16.165348 23.110891 12.025127 
26.206411 -6.829693 14.170719 
22.954931 0.181772 4.551301 
-18.119688 10.149794 3.683133 
8.275280 22.113617 -0.218818 
-11.846620 11.224401 -4.069911 
-15.253534 27.328609 14.804156 
-16.846788 22.665110 -1.930081 
-15.774332 24.301043 -4.552889 
-22.806843 10.853017 8.181119 
-9.492754 21.350544 1.278620 
-14.346594 26.628231 11.883677 
1.666135 30.190886 1.980410 
30.118788 3.097127 10.268332 
21.063240 13.884025 5.075740 
11.029565 20.600540 10.221178 
-16.823214 15.184152 2.919680 
12.207982 26.521021 7.757685 
19.580624 -3.321947 9.396138 
-18.591419 10.109333 -3.421860 
-26.655315 7.473357 12.560646 
21.684607 8.860219 10.723770 
-12.414439 30.541866 9.322539 
-11.805787 28.031706 2.913163 
0.235482 36.571972 9.066224 
-9.468338 22.961178 2.671537 
-28.956087 -2.429798 11.473203 
-12.911197 26.630913 2.776176 
25.740686 7.680008 -0.747208 
-18.799026 -10.264603 13.134706 
18.611652 20.728947 -7.618413 
11.467633 14.981746 -2.609476 
21.310507 -11.237731 10.766818 
12.498899 20.786432 -0.070204 
-1.447136 31.002180 1.388303 
6.239102 25.785580 -2.003272 
-7.209539 25.892332 8.910423 
14.191988 17.603432 7.212459 
-17.464111 2.115887 6.861866 
-16.188875 11.098422 5.879806 
3.818243 28.704796 7.319394 
-26.668537 -14.186490 13.088805 
-21.544510 -14.136134 4.789295 
-21.760103 3.711417 -3.003684 
0.371718 30.810169 8.797249 
-20.770811 15.419967 8.009767 
30.454962 -3.337620 1.088150 
-4.010846 28.798450 5.987617 
-19.678429 -6.046499 8.627111 
24.640694 -3.975215 2.507415 
12.714740 28.288071 11.485965 
-21.331314 -11.404837 8.074687 
-23.274334 -2.652463 6.199888 
23.793354 -4.588151 0.914239 
-11.711882 29.446640 15.834883 
17.704054 4.768595 8.408440 
-11.558732 27.837324 -4.086003 
-11.908768 12.298622 -1.859230 
2.809721 29.636986 -5.765252 
-8.211827 27.345636 2.745669 
-7.980327 22.067131 11.475291 
-20.015165 0.172578 -2.911660 
-9.598587 31.254992 10.408851 
3.743967 27.859159 -1.384023 
1.862870 32.089718 14.878369 
21.517061 -12.959840 0.657668 
-21.636028 -5.500637 5.263276 
8.530208 23.175846 2.908657 
-17.892012 -8.084178 10.637270 
21.111498 -3.033683 7.076293 
31.106220 -2.921683 12.690705 
27.074110 -14.755812 12.721715 
24.058346 12.382709 -4.690602 
21.619905 13.394403 8.319946 
8.880148 24.580757 1.323386 
20.767384 19.423790 -3.643720 
29.495253 -4.206347 3.102377 
22.103575 13.342715 2.670468 
25.198793 0.743629 12.138556 
25.360363 -9.944150 14.184712 
11.971149 25.538908 8.556757 
-23.204256 16.838125 12.184401 
4.849340 26.898069 3.403018 
15.729965 9.981483 9.322825 
-26.411510 -1.066793 4.483654 
-26.282526 -5.873254 7.936604 
-19.293335 -9.908855 11.471313 
-10.316992 14.176940 -4.382584 
-27.058271 5.435793 4.781315 
29.588806 2.080555 5.850257 
-4.112493 30.526365 3.941551 
1.338116 22.160091 -5.622190 
29.082346 6.061320 13.349464 
28.692669 -5.905568 2.370026 
25.074661 -3.538746 0.326488 
9.238652 23.523367 9.916582 
-17.931265 -2.742223 2.998308 
25.832550 3.939492 0.519031 
6.029289 22.452490 -0.293202 
21.945837 13.735466 7.647482 
10.778247 15.304446 -6.995571 
-13.020326 11.135766 1.114740 
-12.612045 9.154316 -5.374871 
19.687494 7.735374 3.424452 
-6.476718 27.736532 -1.167321 
28.444965 4.030013 5.203824 
-12.950547 19.592665 7.518435 
-10.325212 29.373266 11.019604 
11.352385 29.731852 12.762094 
3.935463 31.508654 15.056057 
-18.259237 0.281493 6.247753 
-18.697418 -8.060946 8.419383 
18.421932 -2.039425 1.757166 
-2.745360 37.393204 9.450434 
-16.689455 26.448195 11.677845 
5.442479 31.062269 14.664475 
-26.951487 -10.998099 5.788060 
17.497976 6.792108 3.112427 
-23.186018 -3.570353 10.563138 
-29.181047 -11.426695 12.369139 
-1.811448 29.396631 0.003196 
0.085116 31.657032 11.633055 
7.835196 26.429916 4.419627 
15.429654 9.386300 -1.028985 
8.629766 30.243944 9.856998 
12.329614 23.764194 11.215064 
-14.392686 24.961432 -1.023245 
9.067282 17.530836 -7.270082 
-26.569479 4.885687 -2.927468 
29.090197 6.121973 5.908907 
-6.475238 30.404995 7.235701 
32.450890 -9.518133 -0.550966 
4.071646 25.004656 1.540981 
13.088381 25.862476 -6.905451 
-17.323395 -4.230430 1.169913 
-23.933548 -12.843431 2.933769 
-9.279183 31.823479 10.815130 
12.013475 26.083378 10.442085 
-15.775282 3.296177 3.397770 
-18.181444 24.697853 11.148283 
-11.705300 15.456685 12.791657 
17.682209 0.930330 11.126822 
-14.083288 24.115725 12.669824 
-19.456427 -1.598807 -2.256989 
2.421926 36.702408 6.361187 
30.315493 -6.681636 8.358778 
25.686798 1.240906 9.174596 
16.681971 1.668058 -4.154974 
21.385794 -10.750424 11.739615 
6.886226 28.415997 -0.198341 
-10.773836 29.542154 12.080504 
-15.665246 -0.112397 -5.241429 
-12.313343 27.395887 -4.610888 
23.212723 10.515122 2.873611 
24.309277 -14.537960 15.193619 
-26.884094 -12.025939 13.426811 
18.655914 -0.703665 3.889114 
-8.826983 25.468443 1.647710 
23.852432 0.693619 4.844172 
23.284998 -11.861464 5.524630 
-15.191212 0.124250 -2.055120 
-27.273115 4.803178 14.101459 
-29.304649 -6.011357 11.172313 
-26.096458 -7.607498 8.385568 
18.741032 6.502690 -2.083826 
-0.081010 29.669924 6.349240 
19.135492 11.850435 2.936965 
-1.411049 25.947987 11.733798 
-27.084913 -2.189848 7.155106 
15.486242 12.582273 1.942190 
23.845537 -12.213195 3.017517 
-26.421791 8.336200 11.400958 
-7.079866 30.428450 10.747960 
17.653599 0.849193 13.024463 
-1.496674 30.629814 -3.752437 
10.367974 27.322744 0.378835 
4.359859 21.261293 -7.737098 
21.561796 -4.929158 1.805896 
4.126338 28.746332 12.317263 
19.260195 -3.178133 2.340173 
16.372871 28.316170 5.599847 
-21.087927 -13.274027 10.699556 
-24.587528 11.762806 5.679953 
-14.138312 20.726665 6.313808 
29.141411 -13.729070 15.235234 
1.925036 30.377851 13.792044 
8.044017 32.505592 10.387952 
4.718920 23.272587 -0.057933 
-20.622789 -8.329192 -0.828848 
18.022703 4.319356 7.936286 
-21.464947 2.207483 4.374317 
