15.117178 25.337078 9.057258 
-12.862569 30.300734 5.218587 
17.128906 22.179792 13.755665 
-31.104971 -17.353176 2.922435 
-4.633185 27.280155 -6.069789 
28.658697 -0.770938 6.141919 
27.589859 3.083638 -0.308383 
19.520096 9.620818 8.318849 
20.458035 -0.782714 11.153890 
-27.834953 -19.718643 0.225110 
27.849527 -14.808269 10.533961 
-26.084457 -8.558761 1.586958 
-17.853060 19.060799 9.911477 
14.086282 25.418484 11.966603 
-19.132504 18.567066 6.283476 
-16.066063 27.112194 5.912435 
20.463814 12.228996 5.800226 
-33.759781 -6.938780 10.465310 
-19.982584 11.538178 12.569407 
14.869438 22.892969 7.804287 
1.327215 25.424086 12.443552 
-20.674810 -4.305488 9.454026 
14.966521 29.145622 6.449853 
22.752342 -6.621743 0.075582 
-26.919720 0.131895 6.207044 
-10.505336 22.470709 -3.367785 
-15.291676 26.640985 12.405588 
25.667177 -19.243868 4.040267 
-27.512114 -12.943503 13.482210 
9.164176 29.261776 13.629511 
8.867126 22.742321 3.263816 
20.827560 11.832234 1.167068 
23.194086 -12.625775 14.444695 
8.162915 29.872021 10.970162 
23.892654 -13.378877 12.243286 
20.955839 17.396990 6.277236 
-28.771751 -14.484649 8.308887 
8.880479 24.216608 11.321051 
22.533035 11.254542 3.466424 
19.843828 1.195645 15.787547 
-21.548058 16.307505 -6.126751 
-30.588745 4.846661 14.351493 
26.188341 13.557602 11.897622 
-22.321995 -4.593760 12.032298 
10.461605 18.344793 0.673513 
23.706741 -6.231640 9.454280 
-13.400783 24.293058 13.255378 
-24.188103 -6.986623 11.857376 
8.111368 27.073183 -0.138879 
-22.987341 2.077707 8.829096 
6.893734 24.229855 10.323804 
30.271402 0.138766 -2.332603 
29.809074 4.914759 5.863369 
6.809517 20.863798 -0.499844 
-18.731634 -3.387878 2.808496 
-20.347849 -6.032293 -0.393460 
-6.453318 31.520023 12.569239 
28.488220 -7.835062 7.014703 
-16.205286 12.882171 0.233524 
-28.883017 6.768558 6.624872 
26.053720 7.716551 -3.951029 
1.552934 35.048515 7.976210 
-25.584578 8.006555 -6.535114 
33.778805 -12.703762 13.592351 
20.172371 8.730244 8.816330 
-18.978092 -1.350775 -1.178198 
24.056147 -11.755359 3.102967 
-19.879372 -8.416711 -2.167218 
30.339203 4.976490 10.572948 
22.072023 -4.689978 8.933531 
-27.024109 6.567237 4.123666 
19.070868 2.072507 4.296716 
-29.074242 3.687125 6.868343 
23.212418 -11.808381 9.525083 
20.771379 4.020545 7.008251 
21.400177 15.340137 10.908948 
14.983684 21.095230 12.507232 
-15.983181 25.657175 14.797503 
29.091162 0.901337 1.702304 
28.770592 2.899959 -0.529306 
-20.646009 12.605967 -0.206581 
16.703394 13.139173 9.919097 
20.192564 6.213953 4.679457 
-20.903538 -2.864347 -2.302368 
-26.187847 9.207665 10.769949 
13.566746 26.519863 11.388055 
-13.365010 11.123133 -2.483212 
19.811249 8.463030 0.562878 
15.286746 26.901234 9.933003 
-20.220146 6.580752 10.700897 
4.935719 18.632246 -5.038893 
-21.139490 -13.322173 -1.470872 
21.111261 0.280585 -1.781441 
30.069727 -5.344898 1.955781 
-27.284111 -15.934579 0.362275 
-4.478665 27.149548 0.518410 
10.926482 22.126026 0.523516 
-25.324450 9.030523 2.611372 
24.728987 6.671849 9.443840 
-3.025804 28.974039 5.019228 
-19.544491 16.162531 11.693641 
-18.805183 6.754362 11.564186 
-24.608082 5.907605 -0.384425 
3.849060 35.790104 5.143948 
-29.541552 -0.576357 9.905517 
24.478291 -8.075564 10.463842 
1.374706 31.222847 6.558561 
-5.305025 27.553001 -4.474717 
31.757713 3.074556 10.901141 
20.754442 15.415054 6.010085 
-23.944910 5.503846 -1.082448 
26.031231 14.295435 15.404390 
29.324797 -4.825858 12.346389 
19.651098 0.782243 5.368607 
-29.433586 -3.547880 4.839700 
-19.640991 16.072563 7.978156 
22.528282 14.026535 2.037931 
20.592173 23.512764 12.418937 
27.262264 -13.201355 6.632582 
-24.977726 9.911086 -5.747425 
20.273846 3.125444 1.833007 
22.006691 -6.875916 12.302264 
-23.315481 3.847256 11.510839 
29.266481 -4.218171 0.406346 
29.572721 -15.003798 0.904670 
20.823280 18.336678 9.578345 
24.760473 -15.586328 0.198730 
-11.011435 18.982317 -3.000332 
18.588810 -1.002649 2.277954 
-32.197212 -10.576722 6.875194 
17.350052 3.101740 0.066589 
-29.779516 3.883035 9.712535 
-17.736780 -1.407787 -1.627812 
-26.127525 3.716948 7.952157 
-6.616720 29.937019 14.014103 
-16.830364 22.548952 -4.276882 
-25.310120 -3.002651 4.789188 
-19.856007 6.023611 9.271742 
-0.516287 33.366074 5.439722 
20.600925 -4.610812 -0.924280 
21.675646 14.271313 11.150626 
17.444727 1.363501 -3.385896 
32.813686 -11.255786 13.939016 
32.169437 -0.738959 6.266173 
-15.291044 26.556160 13.259789 
-9.775398 21.517185 10.725533 
-13.438829 19.571842 4.041344 
7.436814 19.211061 -0.563499 
2.022735 26.524099 -8.053367 
-14.293731 24.059177 -3.414171 
-34.474525 -10.902134 12.831635 
-24.707481 -13.849762 14.048097 
14.596611 20.157763 -0.360920 
14.191310 24.702797 3.616309 
27.205566 4.376276 10.351371 
23.750025 8.079235 -2.235405 
-18.280382 19.706289 -8.623544 
-17.318935 13.841887 -4.124166 
-29.264544 -4.172156 0.195799 
21.698500 21.197836 11.074255 
-32.164021 -15.595068 13.041027 
24.056000 15.889307 13.312861 
17.608967 21.255527 -7.126744 
-5.598559 25.922176 -9.628695 
30.839062 -9.290606 6.577887 
3.536795 25.797955 10.359354 
32.599457 -6.868181 7.950889 
-22.212212 10.780203 -0.787740 
24.672867 10.995279 -4.102710 
-1.126739 29.789011 15.656737 
18.334066 21.204308 -4.470825 
-26.354513 -16.306612 9.385056 
-4.021277 20.712856 16.407763 
22.885643 2.572767 7.917380 
3.881256 20.377403 -1.285028 
-29.976242 -17.359583 2.088109 
-25.321911 -8.250869 7.729288 
14.304552 20.721310 8.474573 
-11.797637 28.017191 14.128453 
-19.768866 19.058182 10.386717 
21.109535 10.836564 4.992991 
11.550642 28.587160 11.940092 
17.727703 6.926438 -1.503263 
-9.343702 25.050209 0.524053 
25.527081 15.565109 7.778453 
-28.321484 -4.505375 4.638253 
19.726677 -5.310952 -3.521806 
-16.158239 23.378119 -3.848821 
24.647739 10.749266 -5.188987 
-5.133073 26.853167 2.753026 
-19.724209 4.854378 10.615870 
0.799243 25.960260 2.654386 
-24.673820 -8.205102 9.993531 
-23.328751 7.461986 5.355191 
-27.488863 12.282866 7.116100 
-4.215028 23.633598 0.383822 
-10.304328 23.915836 2.454612 
14.881453 29.187536 4.964163 
31.518280 -14.180902 7.431419 
-25.157446 -9.384949 9.129930 
8.183008 27.048613 7.176813 
-24.498018 17.680845 15.209506 
10.084510 29.229523 11.691756 
-33.026554 -13.426013 -2.638909 
13.666103 13.182767 -0.170682 
-24.373716 -12.149726 8.748363 
22.401339 10.719373 5.930777 
9.280667 23.142302 -0.647079 
-20.041094 4.205991 2.709289 
-25.791050 -4.801640 1.971086 
32.068890 -12.629629 7.731627 
22.014217 6.966851 0.415732 
-6.760422 21.040157 13.609838 
18.798006 13.582199 13.174785 
24.000189 -2.534453 -2.163755 
24.847982 -6.594201 10.339000 
-0.645635 28.780333 0.952349 
-20.437260 -0.307660 11.654530 
-20.304596 0.767603 -1.486498 
-24.060801 11.927825 -3.595167 
-25.148762 -5.125002 12.504866 
-6.144684 26.251595 1.894513 
11.518353 25.525904 -4.438578 
21.421263 -0.231145 9.959849 
31.373102 -2.412424 -2.941266 
21.328655 -10.588387 1.876914 
-24.633698 -8.562154 2.702224 
-21.502789 4.094432 2.022211 
25.012508 -15.714163 10.587266 
24.322037 17.593475 12.078527 
11.206741 30.393602 7.798795 
-27.728662 3.053928 -1.074338 
16.699072 8.730382 3.617352 
2.528291 27.387079 7.105310 
-28.989075 -11.593557 7.983356 
-30.596773 2.237898 6.017376 
-23.113739 12.893741 6.729096 
34.064663 -4.675389 12.860966 
29.768351 -0.059885 1.150995 
-0.512777 25.742605 -0.148884 
-31.453739 0.992950 7.052636 
29.800211 0.351706 0.161101 
8.854234 30.880873 8.018667 
-19.551727 -5.129526 -0.168591 
-9.574780 18.588058 -1.646152 
-20.274225 21.099215 11.134108 
-3.334653 22.917988 -1.217426 
16.874983 10.070957 10.854165 
-21.430105 0.920342 9.654952 
-21.521227 21.934111 4.363928 
-7.580680 16.235771 -7.851430 
-5.501882 30.501087 7.443868 
27.150366 4.275713 -0.490162 
18.800743 23.552319 16.654400 
-2.950500 29.078253 6.898449 
-17.145441 11.388239 0.829487 
23.015282 19.420324 15.493353 
6.488183 25.501926 12.553716 
-0.578812 24.180965 0.992913 
1.337080 28.876135 13.794316 
10.861868 23.683096 8.884536 
16.430874 17.271120 4.088251 
-20.474121 4.470588 3.513568 
-19.242178 -4.983552 0.905925 
13.348129 19.758066 9.528786 
-17.922924 0.258620 3.589800 
30.587107 -18.506798 2.288377 
-18.865873 13.891694 11.164452 
-23.205896 -9.619387 15.109131 
-20.488922 -4.862518 10.933132 
23.002285 5.038208 1.746145 
25.195669 11.217501 5.670521 
29.757034 -5.895800 9.484132 
-30.465603 4.745924 15.626931 
-18.612391 -1.758178 -0.410348 
33.596554 -10.216629 2.747927 
-4.957353 30.782017 13.420481 
-7.576486 23.102848 0.327879 
-24.886473 -1.300688 0.741892 
-8.967328 17.978823 -0.672586 
-10.484187 14.079441 -5.674451 
20.678822 17.745472 8.993479 
13.644412 24.328711 6.451425 
32.248260 -4.669791 -1.193897 
-28.070772 9.384536 6.336829 
18.000690 1.726080 0.689484 
-5.840024 25.847080 0.159117 
8.641955 19.858196 0.951383 
18.192545 23.545311 4.752371 
-26.878994 7.483073 3.841723 
-30.145802 1.876088 4.701300 
25.288862 -8.014823 8.547483 
-3.646012 33.976067 8.812016 
17.861444 11.564172 3.842816 
32.327141 -13.031017 6.409392 
2.896880 29.939697 7.690845 
9.589996 21.464569 -0.041566 
-21.207333 16.174622 10.601891 
-17.226896 3.803892 -0.657427 
-2.005734 28.957615 16.741718 
-20.099216 -3.518553 -1.995357 
20.294374 3.803980 3.409756 
25.606407 14.420881 9.805529 
-25.722755 -19.822668 3.454829 
-16.040268 22.173681 5.350591 
-20.025877 23.459364 8.484733 
31.145773 -11.933923 1.198970 
-25.353100 11.599413 11.606560 
-4.576719 25.705706 -0.130660 
-18.054708 13.808759 5.616811 
23.178724 2.423934 6.764366 
-27.198832 -10.213685 -0.064781 
-30.935947 -0.133104 11.695666 
-21.916977 -2.718204 6.022530 
17.022093 15.563305 0.244343 
-21.368099 22.378391 5.193294 
30.941845 3.742223 10.236601 
-20.739620 -12.107572 -1.595836 
-21.651438 9.226843 6.440135 
-24.500723 3.661000 0.384175 
-0.420459 27.607687 2.730057 
-23.390064 -14.040931 5.906952 
-22.711540 20.108370 5.126246 
-25.652521 8.276584 4.811016 
-34.398418 -5.475924 15.204362 
-19.345373 17.773766 -1.706343 
25.978441 4.723406 7.817716 
-19.703646 12.118461 -0.463348 
25.470139 -1.168460 0.971822 
31.672117 3.582821 15.951131 
-31.220156 -16.196070 2.395302 
20.854259 17.931067 8.217417 
5.285446 27.915363 3.793103 
-18.235678 23.519827 16.432823 
17.969330 10.485491 2.398493 
1.162672 22.739244 1.816136 
-25.212751 16.107201 16.101851 
-25.373117 7.350028 4.818941 
11.216539 14.916967 -2.705059 
-14.625842 19.433292 -3.008588 
24.963358 -6.993540 7.391660 
-27.418489 0.822769 3.651475 
5.250458 21.685719 13.703097 
16.256495 4.685922 -5.421466 
20.926746 8.311920 -2.949002 
-19.169119 23.416828 7.027727 
-15.743760 16.871351 8.573769 
-17.659260 19.046316 13.014649 
16.305614 13.980141 0.637172 
-21.982023 -12.118780 3.880172 
17.896196 7.769618 -1.547403 
-7.374292 25.848171 -2.774303 
21.782948 -0.754921 6.369625 
0.101796 24.548840 3.110966 
30.957676 -17.291704 15.131703 
-10.810346 20.340607 11.219239 
31.147816 -7.611601 2.776035 
-31.899334 -17.445713 4.794530 
31.050329 -15.709670 10.425091 
22.665043 4.607306 5.381507 
-19.550043 20.370844 4.158571 
20.743176 11.768353 2.987904 
-10.442501 22.297968 2.967473 
21.079966 21.506493 4.834110 
-19.259912 15.819853 5.976342 
-7.690322 27.591883 12.828829 
19.766630 21.013718 4.607064 
-27.820271 -4.566852 5.316634 
5.802619 25.284189 -0.522809 
31.069063 -9.488733 7.333300 
8.343431 27.762600 9.109003 
-28.056364 -16.651508 11.247288 
20.283499 2.509030 4.664345 
-20.894949 -1.069785 4.723165 
25.694279 6.386836 0.017015 
18.271635 18.752211 3.078027 
-20.347385 12.947421 -2.014081 
19.902695 18.777397 2.435541 
-21.414791 5.309883 0.890518 
18.664038 4.337716 14.810651 
5.178400 23.539991 -0.405245 
-26.355799 1.096379 0.488331 
22.211880 20.799538 11.980802 
8.247252 31.089947 10.931593 
-11.677022 30.658018 7.130040 
-30.759020 0.202628 5.981592 
6.994541 21.354153 1.751543 
29.092028 -8.800059 13.857661 
-20.228127 2.554872 3.272267 
16.892702 10.852518 1.581607 
11.770914 24.469830 8.090766 
31.536180 -4.221731 10.416875 
20.032541 16.678787 12.376876 
-18.725760 17.002821 -3.660955 
-25.706306 -5.104106 10.017414 
31.087341 4.793787 12.361325 
30.583054 -15.669350 12.846671 
23.865152 -1.761098 9.769092 
28.298563 -5.005645 4.946688 
29.698736 -11.824933 8.252951 
7.442772 35.160488 6.961753 
14.275987 22.833540 7.027090 
3.008374 34.542168 8.625706 
-24.671553 10.601408 0.931108 
-6.075502 34.837452 7.527115 
-29.484154 -18.220045 10.125059 
28.443380 1.787611 2.707122 
20.995678 14.645276 6.535375 
19.940811 8.852198 4.253085 
19.138035 16.608871 10.632973 
-4.676161 28.552311 3.784055 
16.627787 21.087564 3.488434 
-22.245609 6.369237 4.605718 
30.379890 -15.516466 11.458621 
11.881847 28.099213 5.347400 
-20.918606 22.778522 13.461264 
22.317631 -13.623830 3.949507 
29.090984 -15.973989 13.281735 
-5.947476 20.684208 14.892547 
21.263994 -12.037817 1.079958 
-1.902839 23.665936 11.436686 
-32.674095 -9.843749 13.237208 
15.401906 23.804392 8.598451 
18.813807 -0.188666 4.480120 
-13.645313 16.959412 0.828994 
0.085249 30.685564 8.905876 
8.151434 29.261837 7.990181 
23.657316 10.790285 1.833430 
-6.672219 24.841852 0.025742 
26.366295 -9.896885 6.701107 
6.107065 24.458775 1.361312 
-19.729259 -5.584628 0.480920 
22.899570 2.649810 9.036398 
-17.240534 21.683186 -6.455715 
-24.676992 -11.023458 8.374212 
-9.788135 22.062513 2.083771 
12.454976 22.795399 6.620070 
-8.519267 29.788067 7.141327 
23.204849 -7.087125 1.983685 
-21.428440 13.200395 10.236264 
-6.301075 27.966269 15.200456 
-15.218604 26.273724 14.376983 
26.250963 -1.420192 5.353350 
18.332590 23.254904 11.549373 
34.068581 -6.835769 11.981051 
-21.936626 20.852156 15.459728 
8.888866 32.381683 6.740602 
6.771981 28.278471 7.638808 
-5.443646 27.826866 15.880205 
-5.287447 26.611778 6.376674 
-21.600626 8.416325 10.619827 
-2.552159 24.340662 11.810305 
20.355129 -8.256440 -0.612298 
19.154331 14.930282 6.251414 
19.375284 5.094750 1.458555 
31.551353 -4.928262 9.117823 
8.860589 25.688145 11.848762 
29.158747 -19.174984 2.442604 
18.340878 -2.250182 1.127996 
-16.572371 21.820198 11.414145 
-18.495314 24.394194 12.751651 
20.098799 18.297941 0.232298 
-28.061028 2.024287 0.073408 
8.647653 23.106377 1.021430 
17.133652 11.130702 9.649336 
25.124044 0.232017 4.778736 
-30.252544 -18.411642 3.597149 
27.012642 -1.354960 5.705318 
2.435593 25.778927 4.796438 
-23.677832 3.399127 7.512176 
19.345367 -3.491536 1.100597 
30.263189 1.563993 4.457848 
18.996666 11.835479 -0.836976 
-23.588026 11.351163 2.666125 
12.933870 16.968239 0.748703 
-26.746277 14.224529 13.705315 
-23.299456 13.089396 -6.086043 
4.713188 33.868370 5.279873 
24.602381 -13.488350 12.681160 
-7.681753 22.062458 2.551672 
-19.900461 14.427735 8.833518 
-25.321234 7.203859 2.714480 
18.700888 4.114006 2.411837 
-27.231369 4.848096 11.090394 
24.327265 7.864078 4.966665 
-15.652105 25.216743 7.933954 
-26.918865 -17.562393 10.018028 
-19.005516 11.528750 2.040395 
-16.441580 15.735798 8.781412 
17.869352 10.451105 8.924181 
-9.678982 25.483345 12.892983 
29.483759 -12.437707 0.204260 
-19.422573 -0.361834 -1.359813 
26.459450 10.652933 6.040987 
-18.668224 22.699371 10.567063 
-4.512752 35.526077 5.158244 
19.117374 4.025813 3.213758 
20.599669 14.522523 -3.193177 
-7.130562 30.290867 13.466356 
-27.049553 -2.939272 -1.753367 
32.791950 -8.247800 7.123880 
-13.907791 10.541313 -2.138571 
32.706837 -14.167722 3.220509 
-20.899097 -2.376018 14.507206 
30.489443 -7.828786 4.713591 
-18.914534 17.382452 5.230927 
0.302836 29.917633 10.478528 
15.015632 19.864017 5.595037 
-28.799856 -5.575142 5.450575 
-25.393534 3.056123 4.677049 
15.501386 28.013519 5.012677 
-24.359467 16.587240 5.846701 
-19.203732 5.521698 11.088079 
-28.826878 -6.648690 10.630783 
-0.896208 28.782373 9.763422 
-18.466169 11.248031 8.800178 
22.405891 5.257795 11.806664 
-15.846582 27.969898 5.227152 
-23.672638 -10.620224 5.674181 
11.685277 24.341135 -1.202494 
16.350018 21.614105 13.412317 
-24.261393 -2.835427 -2.465408 
33.417980 -3.888570 11.316320 
23.677330 -2.596433 5.555695 
-13.377939 18.937830 10.557343 
-20.873959 16.160942 3.502417 
24.140549 13.740332 5.237401 
-2.570774 20.047672 -2.159372 
-18.024933 13.472926 -3.980390 
-27.143156 -10.985435 6.687757 
13.064468 26.599377 16.739269 
-27.545250 -0.305440 5.920368 
-26.283392 8.053311 4.260605 
-33.123131 -2.191327 11.265678 
-16.671425 12.197642 11.542934 
-20.549942 13.795673 5.202876 
-27.659441 8.547120 10.574495 
12.736515 27.164267 6.221609 
-15.797064 11.670105 0.712685 
-32.621147 -16.572985 10.518656 
-21.589558 -1.869730 5.909739 
-6.762113 25.739868 -9.608605 
-28.228930 -8.994777 0.535007 
31.867231 -3.748310 -3.668303 
31.407337 0.317455 5.019649 
33.422752 -7.836724 12.062537 
-30.339710 -11.521272 9.033000 
-32.319695 -8.918642 12.964698 
-25.876270 15.226929 4.676835 
24.985083 -6.142805 11.305408 
-26.803991 1.450856 5.473812 
-25.064199 5.934444 5.398749 
22.050798 -2.812696 4.829671 
-4.750754 21.010860 15.020420 
14.168062 23.012484 -2.148990 
8.684351 28.429913 9.662916 
27.844524 1.974047 5.755321 
-24.341087 -12.040767 5.623794 
30.108042 -6.529927 12.747707 
22.315151 -15.119876 3.898901 
24.390610 -6.228389 5.562174 
-26.753576 -19.400707 -1.453757 
21.682034 4.517085 4.373151 
12.519223 12.410632 -4.036915 
-23.192209 9.870638 -2.685349 
-28.497082 -5.299224 -0.523695 
-34.825748 -12.489054 8.853791 
20.671465 -9.454524 -1.518727 
-36.387558 -14.192760 13.330683 
-34.002213 -8.688235 12.284087 
19.540779 9.414299 0.955011 
21.477930 21.554474 15.720467 
23.189966 11.159287 7.262125 
-14.907220 13.417343 14.500924 
7.759055 33.240429 9.863767 
31.024818 -12.437157 14.275135 
21.268641 11.542844 6.192139 
15.863151 23.811638 10.912954 
14.756941 18.920996 -0.685645 
-22.918631 -10.722660 1.959592 
-31.895809 -8.664347 0.769948 
5.321065 24.337177 2.680759 
-2.157501 29.071047 5.186783 
-21.797913 -7.066138 7.949058 
-6.524052 26.736340 0.292873 
-1.556219 18.828274 -8.261933 
-17.050068 22.883734 6.440030 
21.199177 14.991184 -0.695940 
-13.912159 13.338479 1.785218 
16.738739 21.363781 -1.008170 
-20.554907 2.488931 0.877654 
-25.425854 3.912457 2.204978 
-11.901159 22.627871 9.035008 
-24.775185 16.786110 16.130964 
21.158548 -3.818044 13.653680 
-20.186686 17.683212 2.681413 
-22.078161 0.014295 11.831833 
19.837873 18.036837 5.016209 
-0.958915 26.075676 -2.322551 
-29.924225 0.366289 5.344926 
28.232555 -8.773590 13.736659 
20.238672 -0.319323 13.363839 
7.093039 21.615038 -1.235411 
19.263449 -2.835153 -0.018718 
-4.870028 28.641081 14.066884 
-9.203749 25.949247 9.901874 
29.338757 -2.401378 4.336286 
6.619882 23.538944 10.930888 
-21.077457 17.877293 6.454910 
20.941370 23.003866 6.202262 
6.805940 17.420158 -5.930589 
16.776917 3.321982 -2.860700 
-26.836086 -13.428944 -0.281209 
30.724062 -17.100824 5.374243 
25.825813 13.869104 6.867472 
7.188572 20.161215 15.151777 
30.087036 2.813810 11.941828 
-7.133814 25.476274 10.892985 
3.767116 34.275444 4.973476 
32.594521 -1.859160 8.528488 
-30.656841 -12.960689 8.430330 
-21.689190 13.094038 13.454105 
-19.067801 -4.772820 -4.082027 
-21.783873 12.909372 -0.132590 
-28.904306 8.032982 8.976559 
19.205774 11.598644 5.568491 
9.967038 22.851297 11.161801 
-29.002089 0.093050 -5.104471 
34.283981 -4.647613 14.658247 
-11.184242 23.888351 -0.858854 
-16.352301 22.246737 8.629976 
7.822849 25.965334 -2.664359 
26.024574 1.908870 5.250406 
15.470593 26.842804 10.779046 
22.904802 14.843098 0.448427 
5.597811 35.122517 4.562912 
-22.664959 -16.978682 0.836294 
-24.594753 -5.294734 5.820049 
-7.199624 21.051767 1.420048 
-9.084374 16.777365 -2.329661 
32.590668 2.279485 7.303786 
11.862757 21.338840 9.920241 
15.031634 10.385475 -0.610102 
-14.623923 28.034990 4.793791 
-15.135215 22.590639 6.957777 
-3.467062 31.091179 13.102169 
7.726229 27.687048 4.008793 
24.529081 -18.785124 2.458958 
15.947594 12.695053 10.447369 
20.018980 -5.183791 2.550106 
4.170467 32.722496 11.245390 
-23.299122 -13.996663 -0.094540 
-31.324656 3.294124 14.298697 
21.338207 -3.734316 15.603917 
18.832087 -2.461583 -4.062137 
4.974448 19.300358 -2.681717 
-27.450056 12.100505 13.951412 
21.443697 6.706792 4.849737 
23.225746 -6.218497 6.931324 
2.533274 26.920393 6.334542 
15.923199 7.502323 -0.183863 
18.947945 18.833708 2.584684 
32.537247 -2.395215 10.765196 
26.464819 5.227738 8.705596 
33.404198 -15.108862 13.176306 
-24.574490 -6.882246 5.530739 
-24.266230 0.312186 12.318174 
19.627056 10.732265 0.520131 
19.718658 16.633152 6.762188 
16.107859 20.059902 0.641659 
-2.330099 28.144716 -1.484890 
-22.330515 -7.552737 14.050596 
-23.205702 -10.747581 11.045374 
-23.547911 4.725491 12.020361 
-22.429899 17.599194 7.290737 
13.775532 19.818409 10.446911 
-22.639397 -7.886198 8.484379 
31.899475 -9.514411 5.404608 
-25.635334 1.371203 5.521669 
28.460060 -10.054361 14.132389 
-20.374313 7.654329 5.420063 
-13.222833 10.943075 -3.366696 
-13.194912 23.801359 7.087362 
15.622005 7.747703 -1.235497 
26.738596 -15.339638 13.068691 
-20.499168 23.229912 10.029536 
-3.632138 27.989902 -4.048132 
19.471634 7.137207 4.193140 
-23.397545 -11.827882 10.725600 
18.326950 4.564197 3.159349 
14.650084 15.495426 0.408527 
-24.523678 -9.424988 4.797477 
-12.194852 28.597176 11.508607 
-7.493906 24.597715 9.907263 
21.891315 -4.182442 2.285800 
-19.233875 1.326641 0.713894 
27.175941 -6.546311 1.949770 
10.264633 26.431648 -2.941238 
-29.767092 -2.016540 -4.721356 
-19.980577 4.011086 10.674130 
22.327503 9.660407 10.608085 
-25.956978 9.006842 -1.878175 
-22.817423 -11.335744 5.089275 
25.626904 3.612472 11.880922 
-20.116533 -1.593409 8.935606 
23.287355 10.072637 -1.234357 
12.570626 22.081486 5.890629 
19.916098 2.196952 11.317215 
-25.969019 16.175781 11.664187 
-29.810490 -3.570996 9.387354 
-22.908331 14.140372 -3.289320 
-4.280750 20.446850 -0.580077 
25.118309 6.310415 11.927956 
25.402819 -7.638587 9.230207 
15.086662 12.484399 13.792929 
-32.605072 -0.041917 15.427234 
-17.463213 12.770220 -3.755078 
-10.902975 24.007248 0.567486 
27.831839 4.181523 -3.993011 
17.935116 14.925795 6.752123 
22.474592 -10.736606 14.328072 
-17.427307 9.583754 12.570806 
15.971409 23.272402 12.708815 
18.954342 9.894860 -0.362788 
17.185778 17.503180 9.483358 
23.299343 -3.587550 5.715782 
26.600296 -6.334183 5.143198 
-16.330540 3.625521 -5.610874 
-28.640476 -19.908216 2.989054 
-0.849462 34.144855 8.156733 
29.865807 -13.212363 11.649112 
-25.894835 -14.339356 12.606957 
20.777510 10.926905 12.838961 
-34.143673 -6.257398 11.551273 
16.767347 8.485464 1.752940 
22.572403 -3.464401 5.181538 
19.063250 8.821442 -2.415594 
-28.018036 -6.324763 0.881810 
23.461512 6.582444 12.197055 
0.598124 26.819820 6.661209 
-5.310682 18.558279 -3.750056 
-25.763742 -10.643595 -0.326977 
3.300890 21.033689 16.463846 
-16.691635 3.246850 -3.141430 
-22.644417 -16.566401 2.739131 
-5.670521 28.172459 6.218972 
1.976916 25.837481 -9.523091 
-25.431229 -4.812250 -1.857703 
27.395924 6.309477 7.852109 
-3.529228 26.023367 8.915454 
-34.618942 -6.390262 13.174206 
-31.600245 -6.252641 9.940021 
27.766960 -17.834934 10.483999 
16.891487 13.341430 11.566009 
20.151180 7.972702 10.214832 
23.942411 -3.528000 1.860835 
-31.224260 -14.585291 13.523587 
-33.314327 -12.702338 2.083483 
24.799759 0.549398 0.996877 
21.261726 -4.435513 5.875572 
-17.258810 21.795053 -3.546839 
22.026186 20.870529 15.619995 
0.460768 29.740587 8.542035 
-22.740637 -7.796535 1.494342 
21.029774 4.008953 3.936773 
-11.748129 27.519543 15.283011 
-30.445940 -3.113085 0.365124 
12.726779 19.984518 3.604224 
18.378170 -2.583127 0.193540 
-23.735235 5.968598 5.405333 
-20.260494 -2.425608 8.649044 
-34.235832 -11.539569 7.531038 
8.212151 16.086716 -7.636383 
20.163303 2.628429 0.978877 
-30.580797 4.920938 13.237607 
-23.584299 -17.309029 1.683172 
26.121323 3.686805 -0.415722 
19.494139 -5.218406 -2.510132 
-0.740705 27.850695 1.971163 
-21.252592 6.275199 -2.940004 
-11.482966 19.404921 2.071463 
-11.692069 23.001747 4.833151 
-16.974747 5.902056 0.127624 
-23.638754 12.639286 -3.678693 
-2.864355 34.193249 8.461647 
17.864473 11.312549 12.442008 
1.407761 22.825384 -0.252698 
18.207272 15.915891 9.592773 
20.965908 10.281332 10.520404 
18.039785 10.684097 11.825098 
25.642195 8.846478 -2.806981 
23.306391 -14.453515 6.232239 
-23.515789 -10.690231 15.065470 
-5.951597 17.296968 -8.029390 
-25.397789 16.719921 11.486786 
10.913737 27.851276 11.587228 
-25.342535 -7.492827 4.894252 
7.790594 33.220181 5.317694 
7.510453 29.597828 14.332951 
17.334557 18.408209 2.505469 
-17.183649 1.223911 -5.174517 
-23.235487 -14.900736 0.109335 
-24.774448 7.864670 4.028152 
17.567223 14.930932 7.802082 
-10.695314 30.502657 5.192774 
-29.177746 -8.916517 0.958918 
22.402536 16.957560 0.151806 
-19.010641 22.982344 16.407225 
-30.830055 -4.211467 -2.023932 
31.644087 -10.274425 1.718789 
25.021656 -16.732155 6.319898 
-25.156563 3.468286 9.282384 
26.681919 13.069331 13.050550 
29.260569 -7.918848 1.286898 
19.971542 7.064854 11.112391 
8.822368 25.276209 10.816075 
20.050913 -6.390790 -3.317209 
-25.745461 14.183433 4.748445 
-14.146122 15.817472 1.029498 
26.311214 7.104214 -2.101169 
20.539200 2.490646 9.952270 
25.787712 -10.230482 13.367336 
20.929407 -10.519291 -1.344484 
1.662024 27.113359 6.844671 
27.308233 4.735405 -5.299570 
-18.368908 12.842642 9.533390 
33.817574 -11.832367 8.360593 
9.156547 23.078592 9.927170 
-28.196527 -16.317406 12.304108 
30.495140 -17.449337 13.994428 
-30.432877 -5.398787 5.896351 
-20.399870 4.619529 9.108134 
12.512508 23.947201 -3.144373 
26.314503 -2.506879 9.680185 
-4.630303 31.422302 7.079602 
22.857977 -16.228407 5.294075 
22.808010 -9.363406 10.714121 
-10.781554 20.310171 2.130982 
-26.572029 6.509205 -5.165225 
6.031063 24.725473 11.533072 
33.245388 -10.006557 3.542786 
-18.932472 -3.083887 -0.979252 
-12.916865 29.410011 9.516960 
24.322845 10.339192 10.245569 
-22.908918 -15.271856 0.920612 
-3.972947 21.543249 0.870960 
29.982450 -11.619071 11.628775 
-28.483418 -8.185582 2.013433 
-25.430515 10.465912 7.853140 
-32.364792 -17.643137 10.829140 
11.866996 27.127607 6.561126 
-13.111544 10.756495 -4.381276 
-20.035294 -2.460746 -2.152266 
-26.886160 -13.496538 7.348418 
-26.260077 -13.930893 3.671773 
8.484962 29.977690 7.899921 
23.494629 11.385808 0.104958 
-21.595182 1.059864 8.472111 
25.929682 14.182097 16.330887 
21.750805 -2.818919 8.749616 
-33.455261 -12.409266 13.369514 
21.970272 14.812675 3.754088 
18.548073 8.089722 5.059757 
-8.169316 21.573477 1.634780 
-32.528004 -14.989430 3.209938 
-9.203213 31.946604 8.345453 
-24.037821 10.780181 0.322581 
8.321395 29.698990 13.124609 
24.417208 15.924791 5.161958 
-21.301764 15.654654 6.406023 
23.644899 3.007069 8.387938 
-23.671700 19.119171 11.800234 
-20.185865 16.914248 8.944251 
-22.594881 14.826242 -1.872432 
-8.296505 26.880859 -3.028028 
16.683338 13.423487 8.897319 
2.393036 26.281034 9.261528 
2.051543 20.035597 -2.773654 
24.262400 -15.891828 11.826049 
26.236557 -14.845926 6.529128 
-22.922634 -14.340195 0.608048 
23.820118 12.890211 10.316501 
27.020075 5.945569 5.530890 
33.958553 -10.659201 0.783665 
-20.068415 5.707546 -2.727041 
-15.566085 25.468334 9.511947 
25.527588 -15.943281 6.361084 
14.969854 23.537760 6.262397 
20.896059 10.593615 6.628749 
-26.900093 4.103324 9.022971 
14.142132 15.870014 11.224026 
11.839202 24.214169 6.073396 
-7.233928 16.889635 -5.964384 
25.732019 -15.763756 0.262056 
12.041183 18.923759 0.012225 
11.354104 25.051226 5.402361 
0.183270 26.035269 -9.581138 
-23.977703 -18.199873 -0.470044 
15.572762 11.160404 16.151279 
-24.759357 10.060628 8.718510 
-26.513369 -10.133287 5.855185 
32.357746 2.014848 6.143072 
-7.339703 24.358444 4.561613 
24.138338 -14.910455 -0.017958 
12.726969 15.144540 16.289936 
-19.277206 18.114071 -0.615350 
11.721581 23.944069 -2.857876 
-7.173750 25.627396 13.421836 
29.038534 4.130875 11.046981 
1.747425 27.648783 7.747404 
19.748472 5.200010 11.146400 
14.579715 24.789045 0.784289 
21.999228 11.355684 6.726533 
-32.411751 -12.311876 4.695966 
-0.980144 32.086624 5.683115 
12.760773 14.598752 -0.642851 
27.846178 8.053185 7.118701 
-22.345896 -15.678689 -1.220060 
-23.654251 -6.596945 -1.415001 
34.525692 -13.711831 14.613564 
25.373180 -15.254202 12.526739 
29.654016 -1.596189 5.407627 
-34.549061 -15.358006 10.541488 
-19.165646 19.373083 -7.149235 
-34.422047 -6.316431 12.317508 
23.097378 5.973100 9.530746 
20.285643 4.605440 4.293059 
23.979158 12.287368 -5.360234 
20.892126 6.893343 4.325914 
32.436005 -15.367335 11.947063 
23.389914 -1.870067 1.453956 
-26.568174 10.617529 9.345794 
20.700863 -0.950113 1.788105 
-15.242867 22.923517 8.689358 
24.187212 12.634628 11.358325 
-24.717649 1.279750 9.344410 
21.918995 -4.908357 5.852120 
30.792711 -1.043464 -1.302282 
-33.976612 -7.809224 7.343521 
-21.358082 22.697474 9.932346 
15.193263 14.672533 11.336090 
15.742419 21.747940 -8.599525 
8.448886 25.653782 9.251757 
-12.973606 24.761246 -6.612256 
-19.871990 -3.728285 4.676735 
21.619614 14.105023 6.090381 
-19.471710 19.040348 -3.017937 
-10.308250 16.101418 -1.684016 
17.065990 11.670610 3.422750 
-21.710552 -0.608428 4.514404 
-22.471903 -16.338749 5.549646 
-22.628263 -15.795628 6.309134 
24.456469 -7.227353 1.896729 
31.861403 -11.124056 1.814107 
-30.128244 -10.561352 8.155047 
-16.487164 17.787323 7.256170 
20.627003 -9.276274 -0.451574 
-24.358725 7.160547 6.101697 
-13.560148 18.195318 10.731780 
20.260534 19.105289 -3.401968 
-13.396768 14.600401 0.178229 
-22.218822 -3.738412 12.108704 
-24.027895 7.874013 12.403978 
20.959177 20.059561 5.735919 
-25.661594 -10.709938 3.059710 
24.951439 9.532750 1.301808 
-27.406519 3.638591 -1.570089 
25.690475 4.006245 10.578532 
15.449821 25.566858 8.264389 
27.801512 10.643241 11.699935 
13.939123 26.648613 15.929505 
18.975775 16.537592 -3.191226 
13.523595 29.747089 7.152337 
-5.175440 25.494862 10.182673 
26.706783 -16.016857 9.580948 
31.789761 -4.039725 9.628473 
27.104200 11.811301 11.955737 
28.051367 -6.420963 9.472898 
26.877493 -16.941622 5.852079 
-21.665962 8.266091 8.798210 
-31.280346 3.413352 13.193905 
24.110794 6.649290 -1.820286 
-10.535470 23.967014 12.584034 
-20.500910 14.843422 -1.136585 
-22.782988 3.397924 9.513501 
24.823383 -10.467118 12.906646 
0.681051 28.806614 12.053542 
4.081377 21.730684 14.074830 
-13.190551 28.045126 5.070010 
-12.169880 25.654539 13.949602 
26.439760 -16.240160 11.775016 
21.742199 10.524323 -0.818181 
-18.728958 13.069390 -3.716910 
-23.836185 18.107582 16.188156 
21.610403 2.563069 -1.428388 
34.301041 -12.332388 9.683249 
-9.343570 27.278362 7.440244 
-0.614645 24.937908 3.299627 
-2.824332 26.743399 5.967012 
17.183235 8.280519 13.344510 
-20.343576 9.696573 3.337342 
-0.397033 30.760059 7.499688 
17.602095 23.790308 5.229466 
-19.805780 -8.367810 -1.069333 
-22.676805 -3.556581 5.918299 
-28.669956 0.952741 -5.260354 
9.334222 19.904879 -1.882991 
19.780048 19.061981 -1.800697 
-3.913373 28.954754 6.338401 
23.304995 -1.974816 4.188908 
-23.868748 -7.486247 -0.959908 
-31.771687 -14.998114 7.236908 
-21.594530 17.579601 10.549740 
30.181389 -11.898831 0.543356 
18.339651 6.789218 10.579491 
-18.379076 23.048140 11.461266 
30.437965 -4.139771 1.309269 
-6.524934 21.884834 2.257422 
-26.833214 -5.889616 -1.077461 
-0.601097 24.049829 0.220276 
27.114859 -8.933242 -0.218264 
25.767887 15.031659 13.549709 
-22.500742 -8.714609 13.009867 
-6.294851 27.593182 4.329785 
22.421566 15.171111 -6.187622 
26.809519 -13.400894 -0.441299 
-4.190761 23.306862 2.500876 
-24.407913 14.880705 13.694662 
-20.644207 -6.067072 5.360494 
-23.756308 2.017749 8.682563 
27.656693 -5.382111 2.284718 
-16.370703 21.231039 0.319577 
-35.251736 -11.636769 9.875378 
-34.016251 -16.840389 11.504808 
28.116795 -4.366828 -0.814492 
1.301492 29.390003 10.258596 
11.592519 27.958273 15.257565 
-32.663937 -3.680709 10.001651 
-22.581837 -15.771922 2.079086 
20.268183 9.919552 -1.571324 
5.250096 22.079460 -0.727170 
3.808588 33.457111 10.265468 
22.845924 -11.388615 10.297967 
-23.455341 -7.669907 10.912712 
9.663955 26.712158 4.195181 
-19.255650 12.674175 6.228572 
32.804813 -14.776799 11.120030 
-19.176189 11.729448 0.319915 
-17.127081 1.451614 -3.785348 
26.810154 -4.974286 5.997205 
15.875062 12.536282 -2.333221 
23.454580 2.935562 7.302474 
-13.236487 25.262068 7.062195 
-27.181410 12.792422 14.213785 
28.284868 -15.766244 13.273928 
25.396112 -3.511570 5.089193 
4.597826 28.825151 16.775826 
-2.530153 24.775784 12.607961 
-19.770735 13.539447 9.140140 
18.871952 21.363371 14.053054 
-22.554506 4.953415 -2.059375 
-27.169785 11.684588 10.909978 
-9.681245 23.341532 3.901602 
-20.992357 8.890354 7.659263 
14.720525 15.481748 -0.408683 
-14.117603 22.776020 -4.198882 
-14.175115 13.353189 2.818304 
-26.441872 -0.644670 6.523289 
0.409977 29.418890 9.259111 
-11.401087 24.851484 5.255482 
32.869579 -7.904209 1.152557 
24.270870 5.787188 6.047886 
-9.100497 26.802240 -3.178864 
-25.016380 17.365307 13.041829 
-22.018776 -15.548592 0.278532 
-22.064032 14.865840 0.646441 
8.917081 26.349123 -4.813038 
32.107548 -17.622303 0.621879 
-30.409555 -15.626520 13.208930 
33.922268 -13.539784 2.522321 
-23.069019 10.643063 4.594575 
32.724251 -6.875222 0.281251 
14.621763 26.645504 11.243133 
-7.895858 32.431919 5.561942 
5.086324 28.827383 5.630610 
-14.008570 24.844072 10.634915 
9.069506 26.172228 -1.365961 
-31.256758 -9.672674 7.139427 
-22.371910 9.471787 6.230655 
-11.665706 13.909894 -2.832907 
22.504654 2.965650 -1.460664 
-19.988512 14.625848 5.269152 
26.654331 1.173352 -1.702655 
20.810215 -1.856401 -1.687081 
-0.886240 23.057705 -0.889280 
-3.888146 22.286245 12.476310 
-31.508009 -10.540700 7.243111 
23.494507 -15.161238 0.660318 
24.623510 -5.616231 -1.147377 
7.336002 27.634092 0.068439 
-28.216917 -6.266383 2.914380 
-5.762170 33.933811 8.970716 
-23.309578 -18.257223 2.102939 
5.777029 33.020481 10.588141 
-32.242599 -10.590990 4.008218 
22.067770 11.153147 0.784269 
-2.885775 33.795616 9.153872 
-18.233803 11.867865 9.389307 
16.693066 20.389915 3.098215 
27.712534 -5.656339 5.125673 
30.418640 -0.022970 5.303875 
-5.209589 23.714764 10.351341 
-4.288668 25.141691 -1.863924 
-26.864614 5.935637 -2.997901 
-31.352348 -6.937600 -3.825296 
20.820438 7.098043 9.472854 
-31.353794 -8.459686 1.850461 
-33.293076 -15.962601 -0.734362 
-11.725162 19.586334 11.400588 
-20.338263 -5.231380 5.538337 
27.657722 -11.996331 7.787794 
22.114845 -14.514194 0.907060 
-20.898371 16.966120 -7.047781 
-22.281132 21.199713 5.142066 
-12.036113 20.683533 -0.970766 
-15.539196 13.749222 0.065179 
22.611868 11.539712 9.273737 
-27.082157 -4.417420 5.650698 
-30.193130 2.932367 5.999356 
23.193544 -6.952767 1.155550 
16.934452 12.271858 7.928031 
24.129305 -15.682150 10.346923 
19.914183 4.792890 -2.342002 
-0.526088 20.085493 -2.931077 
-21.353153 22.699076 7.500597 
14.819671 8.115781 -4.478247 
-18.511990 6.173427 15.753781 
14.264960 25.252743 9.463531 
13.513721 14.197672 16.257641 
16.515276 17.890137 2.012542 
8.339581 29.920109 11.893179 
15.688248 14.968766 10.547523 
-21.960180 10.275721 6.394304 
-13.115072 18.367300 -2.910769 
-32.971127 -11.155649 1.824212 
20.903990 -9.607661 -2.709049 
11.526549 27.625912 15.971041 
12.346746 23.569256 12.650005 
23.464531 -11.327950 5.305753 
-13.420362 9.726257 -6.710529 
19.032814 17.192085 5.063623 
14.714651 13.940909 -2.454951 
25.233189 -17.537235 6.235093 
-20.516497 8.086584 9.095786 
-24.280809 0.575440 0.711634 
30.663715 -1.111183 -0.389215 
29.646954 1.563578 -1.205527 
23.567017 -9.288313 10.311270 
-25.541996 3.092956 10.950990 
19.572500 17.233522 9.570393 
17.763969 19.840883 -0.641622 
-26.258223 3.923429 5.611748 
-27.223858 -0.058562 4.967901 
-20.728271 9.542381 8.197378 
28.716724 -16.698252 9.983187 
-32.505100 -11.489101 3.898650 
27.965269 -19.544106 0.885337 
18.328108 5.364464 -1.341758 
-21.253016 -4.853173 7.096621 
-28.698107 -9.384398 7.353610 
23.683731 13.381420 -3.217739 
-14.144444 24.952637 -1.217029 
34.093521 -3.449366 14.653193 
-29.658916 -15.117538 9.457033 
0.692519 30.683153 10.455581 
25.821760 -18.052547 5.609210 
-29.540440 7.222768 13.791334 
-35.856976 -12.853545 11.353013 
2.478320 27.292278 8.687117 
-26.261143 16.128460 10.689213 
21.747097 7.977494 0.127457 
31.399273 -7.664652 13.295733 
-4.503889 26.370844 5.848011 
-24.651682 -4.813065 -1.998181 
-24.393650 10.427258 -6.971015 
24.358246 7.812277 3.949360 
21.842110 12.170165 6.851467 
-18.210529 15.896760 6.241554 
-21.119978 17.734344 11.718784 
5.334098 28.000601 -0.523576 
20.381031 -0.020045 11.550653 
19.970337 -0.957902 -1.422954 
-30.784281 -4.213257 -1.115119 
-18.571381 18.035721 9.782672 
15.461782 19.626049 -0.621078 
-5.622243 22.805643 -1.510870 
-28.022070 3.256612 -3.316924 
22.557388 -14.295994 5.367636 
16.859627 22.666540 -2.964015 
-25.745750 -0.310239 -2.229348 
25.215019 -16.848825 10.113319 
-6.386423 27.143129 2.285007 
26.746632 -16.054874 4.934109 
2.049242 25.772186 9.944308 
-24.183216 11.769338 -4.650954 
7.352265 29.091045 15.524477 
-29.792528 -18.722012 2.901451 
-20.524294 9.748374 10.254511 
32.990074 -10.981809 3.033591 
-10.974949 22.727985 9.190879 
-20.857380 22.261427 12.087403 
-22.475893 -14.630774 1.700539 
-15.290359 7.020450 -3.457573 
33.070595 1.521190 12.741714 
33.715309 -15.167177 1.153628 
-16.217997 5.031734 -2.834481 
-6.056453 31.720997 6.816247 
-23.800957 -17.977228 2.666335 
-16.232269 27.657473 7.183894 
-15.929043 26.167400 12.676106 
29.734776 6.939104 11.682322 
29.788288 -17.421541 5.957805 
24.696758 3.649792 5.893067 
-20.840284 5.388025 -2.586349 
-15.852510 23.142990 -6.269473 
32.581551 -2.336705 9.694932 
22.227898 -9.760291 13.301721 
2.800659 34.382603 5.065413 
-17.453981 9.669621 2.246284 
-22.973614 -7.773519 6.925974 
27.799370 -5.636986 0.125449 
22.752638 5.969491 5.268789 
33.222626 0.161952 14.881387 
-3.614806 24.059040 10.313869 
24.970713 9.959426 -5.148945 
-15.664797 11.844086 15.992165 
27.739412 -9.253720 3.483640 
-21.620695 18.219688 11.327094 
-14.188164 14.247199 14.753956 
-14.981475 21.902189 -2.322280 
-22.986900 -0.776652 4.669953 
21.643091 5.770823 11.871994 
-15.840466 21.005266 10.892277 
24.402334 8.950521 -1.818609 
-31.331945 -13.437309 7.885911 
-26.076544 -19.139242 4.909815 
9.001333 33.162575 7.162564 
26.516899 -8.735253 5.879849 
-15.913898 5.810657 -2.709474 
16.245237 19.229214 3.533200 
22.124172 4.560358 9.335896 
-12.590488 24.165466 6.739830 
-21.507479 16.032440 -2.776031 
-22.777359 -12.276796 1.206857 
-25.285782 -15.767201 6.792799 
13.766953 18.489046 0.789643 
28.048096 2.335277 3.260563 
-17.456072 16.999372 5.069246 
-32.274300 0.171522 10.479234 
14.687284 24.743168 -1.186599 
-22.531570 -8.770702 12.184650 
-21.147270 -6.882980 0.387628 
-19.435368 4.436134 1.236396 
-30.143345 -10.347984 1.085439 
29.510914 -15.695328 9.204225 
-3.285893 21.256731 0.299429 
-28.396738 2.230860 4.860894 
32.479843 1.264657 6.368906 
24.169624 -17.364803 2.950949 
-1.078553 26.999182 6.753963 
22.149654 6.019286 0.914233 
-5.469650 26.226498 3.742618 
-24.366819 -6.020152 -1.611236 
19.818621 19.587116 -5.368489 
15.293531 25.603413 16.713636 
-25.619520 15.402626 16.071915 
-9.306172 20.081093 -2.602455 
11.647721 24.788897 13.482155 
2.598357 28.227703 -1.464112 
24.597742 -3.783369 -1.867993 
25.858864 -8.459309 0.603487 
31.394604 -8.371358 2.862110 
17.815458 1.381898 -0.078420 
-21.511408 -0.077154 6.545660 
-14.332576 17.569468 1.038031 
-22.623701 -8.636404 13.994754 
15.358835 19.906620 0.213706 
24.748644 13.371414 11.299551 
-24.237169 -10.582562 10.976430 
24.151386 -18.002586 -1.109846 
-28.709780 -5.495976 1.020499 
34.317871 -9.988261 11.454890 
-25.990980 14.698023 16.042191 
29.432774 1.846460 -0.412504 
-9.412647 20.887407 0.557916 
18.498392 -1.847406 1.885816 
20.784237 18.137259 3.176004 
-17.259779 8.338998 0.950470 
17.761768 6.920474 4.447050 
-25.033579 17.150814 14.484803 
34.361378 -5.912252 15.596332 
9.700702 24.701221 6.569392 
-34.038311 -4.278917 13.154659 
-22.718826 8.820614 -3.001942 
-35.168766 -13.833393 11.977585 
20.380798 10.049504 9.993034 
28.003969 5.022651 5.752425 
22.889868 -5.952670 9.239786 
-27.075569 -17.782385 11.119380 
-12.783560 23.641588 8.037669 
20.398634 19.004848 -4.360921 
-25.333956 -11.008042 7.369198 
-8.858525 22.062256 1.191733 
17.148867 2.246341 -3.646583 
-17.915545 21.161982 -4.942434 
-27.385160 -11.956150 -0.228568 
33.982582 -3.511890 15.687816 
-12.271661 23.639877 6.095164 
22.627947 -5.207399 6.553746 
-32.874409 -6.816185 7.890686 
19.580050 1.672239 0.433158 
22.498993 4.811919 4.358943 
26.148245 4.678181 7.020730 
18.324730 13.787179 0.289504 
-5.122371 28.724003 7.946025 
-8.689997 32.949295 9.469015 
20.793499 1.999221 -1.366691 
-7.901103 19.655157 0.268219 
23.339190 -10.292265 5.641851 
-2.803420 27.656363 -1.050244 
-2.390469 29.020926 12.066771 
-4.298785 26.115475 8.765257 
-19.355648 14.495284 11.615735 
25.436283 -18.730114 5.739429 
20.498705 4.579511 -1.532897 
22.890888 4.132329 11.219713 
-23.079487 -17.007631 -0.833505 
18.202751 11.073533 6.813428 
2.624413 28.111418 -3.141379 
25.291584 4.262167 7.226647 
23.121243 -14.027984 0.885626 
-14.809209 16.425768 9.866468 
23.233856 -6.976357 10.133749 
-21.345032 21.378433 12.191800 
31.332642 -14.712049 2.001542 
-19.882839 7.735827 3.666289 
-15.222891 18.860703 9.165123 
-21.632967 -11.850579 2.881222 
-23.487234 2.382942 7.705739 
23.581711 14.976473 13.498816 
-20.772314 10.925245 5.843264 
24.282688 10.272184 1.793086 
-24.831224 -17.455265 4.178454 
-22.803970 12.398117 6.036117 
0.661277 34.732895 7.697426 
-18.277779 18.099903 12.920042 
-22.608349 -1.685152 4.823915 
10.746138 26.238983 0.238090 
19.478689 11.455138 3.925614 
-23.333212 4.871277 2.460198 
-33.465996 -13.420674 13.281320 
-9.742002 15.175742 -4.685006 
-11.707388 26.038857 -0.962615 
9.127960 29.439087 10.323737 
16.186438 23.506950 -3.694790 
-21.188536 5.327347 5.237647 
-28.996674 -16.650522 11.831468 
10.120646 18.254942 -0.837844 
11.657448 13.163900 -5.269710 
19.573751 18.774250 -8.001245 
18.517803 20.341255 -2.254871 
-21.945843 7.606481 12.019574 
-21.657173 -6.896461 4.761312 
-7.060817 29.341669 14.848667 
28.221905 -0.534518 4.969853 
-30.747633 -13.213049 13.848779 
-1.257982 22.860214 12.813318 
-19.269018 -2.157628 4.376210 
21.312317 14.053092 4.894969 
-30.148386 -8.700124 5.761571 
0.275581 33.382198 8.288819 
-27.706306 -10.180002 13.296638 
-3.294225 24.538378 -2.311169 
-27.783842 3.464530 -2.381737 
10.746891 22.660313 11.359498 
27.317423 0.541836 -1.609111 
-18.644648 11.646993 8.113742 
22.210178 -13.808701 -1.912549 
18.902264 15.829782 5.991111 
20.180252 11.586067 3.531951 
7.620815 17.350885 -4.231073 
21.842970 10.442119 10.066953 
-31.763330 2.196902 11.429132 
23.748045 5.415963 3.346656 
28.654078 -4.999396 4.175569 
21.327703 -1.329283 9.402105 
-22.967623 11.246598 0.553973 
-16.339624 3.839289 -4.461405 
-25.353592 9.189378 -1.102844 
18.912432 10.971775 3.368702 
-24.279310 -18.144039 -1.658031 
22.983681 -16.073229 2.731120 
28.325977 3.358880 -3.860095 
19.108292 7.089001 7.128956 
26.191671 -7.343179 4.815614 
19.544699 19.756926 -3.154655 
13.555059 16.445120 11.426318 
20.425070 10.463992 11.534543 
34.745193 -9.435947 13.070993 
-7.066716 27.620483 -2.235175 
-27.108004 -7.472064 7.310436 
30.451515 -4.900744 11.302678 
3.074381 25.684559 -9.481643 
-31.992615 -9.621928 6.702658 
-0.937050 30.660700 10.479971 
2.272291 24.376265 -1.938850 
2.758197 35.031021 7.752939 
34.437996 -5.850008 14.668685 
24.320910 11.533319 -5.230026 
-2.678410 24.518562 11.045698 
-28.611658 -6.579679 2.129961 
-16.238304 10.906857 15.952153 
21.466055 -3.263694 5.332877 
-16.479147 21.871195 6.059764 
25.370636 -7.107372 1.653810 
6.840302 26.363237 12.562695 
27.464827 -8.996650 10.196733 
12.258609 26.922146 16.747080 
-4.276852 28.938553 15.348487 
27.459223 4.624993 -2.037479 
13.508958 23.975214 11.934084 
6.810566 27.795181 6.540864 
2.253533 28.700596 1.992699 
22.125563 14.366634 13.707178 
-29.393631 -9.717596 3.320758 
-26.793283 -16.700743 14.811256 
22.729006 13.902183 0.256173 
-10.819720 17.892467 14.723776 
20.910091 -2.820279 13.029826 
16.496756 16.684113 10.941630 
23.486946 1.135907 3.968331 
21.682680 20.893208 5.765477 
-32.989506 -11.466903 0.318723 
1.724580 25.599695 10.639261 
21.771585 15.597049 4.128782 
22.596443 -11.582710 11.206998 
24.611910 6.957124 -1.235589 
6.087234 22.166946 12.600349 
-4.892900 28.869659 16.375278 
-33.064217 -15.911798 3.470620 
20.040850 0.486366 13.211106 
29.851553 4.398900 9.227831 
6.173212 20.711084 14.963566 
-27.410789 5.601990 4.150778 
-16.233002 20.416674 -0.018017 
-20.710146 -1.797948 -2.376791 
-10.394567 19.603842 -3.028720 
-0.906162 27.097359 -0.100909 
-6.001582 26.207413 6.950187 
17.551613 19.470490 13.325594 
-18.526165 20.419506 -4.786729 
-20.851536 8.762566 6.830923 
29.994379 -16.123549 7.710829 
24.076235 -12.283379 8.172391 
21.225119 -3.774896 14.575421 
-4.363342 19.619297 -2.120314 
20.675798 23.562033 9.052834 
-16.279757 21.328962 -2.377956 
19.012392 17.518431 -2.769284 
-24.555801 -8.265720 3.658056 
-26.943577 4.192404 5.183921 
19.187923 4.648813 -0.806819 
14.510294 14.299216 2.171070 
25.867989 -11.127844 13.521865 
4.719647 27.307392 0.834552 
6.333755 28.565527 16.776014 
6.902609 27.773884 4.319052 
-10.912133 18.304445 0.912811 
24.995333 -10.756974 5.607794 
-28.668612 -12.281396 7.318276 
-0.250691 28.513596 5.712705 
-13.150231 22.783558 -4.139157 
23.263586 -6.362627 7.759175 
22.153187 21.005955 14.747990 
-27.281282 14.413259 9.163155 
14.560392 14.489004 -0.499202 
-25.279339 16.356583 12.299992 
10.024954 27.558094 10.355349 
13.946761 28.255898 10.832221 
-0.424129 28.382109 4.357682 
-23.975855 3.262784 5.021008 
22.540039 20.161686 15.520822 
-8.116006 34.801491 6.975051 
15.124164 25.696928 6.239445 
21.185520 22.289202 5.507915 
4.531154 28.121572 1.705257 
21.578205 -2.614236 9.731066 
32.644726 -13.392973 7.643681 
25.853884 13.290255 10.751681 
-27.455063 13.670527 8.704272 
14.399067 24.405561 -2.835354 
10.687125 25.674408 13.635928 
25.720423 14.981717 14.804881 
-19.687283 9.538028 -2.104774 
-28.437023 -0.310651 4.035717 
-1.115406 28.598101 8.821691 
-22.695343 20.342390 9.776136 
-31.262178 -15.027122 1.990136 
-26.285175 6.359184 4.578233 
11.544098 19.828247 11.339748 
30.267996 -8.339626 7.820828 
20.023214 -7.247052 -0.932237 
-5.808443 26.543253 14.981270 
-22.439838 -10.155741 3.122555 
-20.575390 4.393234 8.360215 
15.197562 19.978476 -2.033119 
-19.268515 4.431935 2.559282 
29.955116 1.818243 12.225630 
-8.064119 24.150669 -0.137612 
33.987392 -8.772386 12.295465 
32.823051 2.009722 9.779205 
22.384544 0.523646 5.498916 
26.774168 -7.928844 12.983651 
24.419914 -11.759872 12.765227 
-21.569847 21.860556 14.173474 
-29.814587 0.880752 4.671062 
25.556353 -12.290721 10.372131 
6.916340 20.985096 13.848285 
-1.818815 28.068054 8.415814 
22.442860 -9.224943 4.618097 
16.475395 20.927858 1.730301 
-5.764925 21.394356 -0.698179 
-19.772169 18.603100 -7.120421 
-25.286465 -18.604349 1.514906 
4.273829 23.646975 0.697421 
-30.078106 -9.922254 13.598940 
-7.296882 22.290916 11.649179 
-3.799909 35.480633 5.500964 
-9.718278 26.888720 4.974915 
29.240536 6.157601 9.851145 
5.310582 27.923117 -1.632108 
-15.911683 25.343903 15.624212 
-28.675550 -3.789864 12.528077 
-21.198465 14.173506 9.976505 
-35.638466 -9.980635 15.021070 
1.570766 21.381161 0.248552 
-17.292723 9.473883 13.517028 
26.013220 -2.879113 1.373726 
-12.993705 25.295847 6.279738 
-23.744459 -4.294792 4.517719 
-35.234695 -8.832850 15.068295 
8.256531 29.269476 14.541613 
8.587806 32.280830 9.629600 
31.073856 -8.434221 1.754787 
-10.531257 26.475435 -2.744971 
32.561821 -11.129725 8.363200 
-24.573755 10.728540 -5.785462 
16.046717 17.183958 8.527163 
29.021877 -16.776993 1.641763 
14.453803 27.647776 11.085820 
23.935040 -10.232765 0.539230 
