-10.219421 25.811508 8.505512 
-20.746794 1.528199 6.316676 
-8.750311 23.335443 0.428479 
21.466696 -9.169458 11.933028 
-16.667679 4.353238 5.890618 
-32.229240 -2.309480 16.202101 
-15.879928 24.785328 15.060112 
-12.449881 16.135733 10.655810 
-21.368694 12.210253 14.522054 
-13.061971 10.816748 -0.888872 
24.254559 -7.655387 3.114576 
-28.559566 0.105910 9.985052 
29.444118 -10.352703 11.419552 
-12.308776 27.487366 9.214260 
-2.430953 27.658312 -1.095441 
29.355265 3.647918 18.665432 
32.009121 -5.030191 15.430096 
-14.976461 5.504040 3.011757 
-23.708220 -6.335049 -0.501164 
-27.684423 4.927701 -3.387574 
15.337786 24.693754 -0.187730 
-5.256634 27.717329 9.450562 
15.472161 20.049942 9.103159 
30.387508 -12.899655 16.151207 
-28.936037 1.004982 9.066681 
-16.551510 22.345858 -3.776292 
21.106243 1.525660 5.708585 
-20.633570 2.852320 2.008307 
-27.381197 -0.852986 9.334226 
-18.461401 20.224842 0.783773 
-27.809000 5.146319 -2.158129 
-0.940521 29.771580 9.219423 
25.904680 6.723526 -0.575619 
-0.930062 27.377369 1.861162 
29.251539 -0.226642 11.525032 
8.664409 28.813522 12.238722 
22.158054 13.176589 1.434591 
-27.729004 5.248757 -1.076197 
-27.918261 -1.288723 15.311662 
16.222702 17.188694 11.191294 
26.012724 9.716002 -1.183753 
1.756440 22.380829 -0.702917 
-30.395485 -1.657098 15.720889 
24.775126 -8.662089 10.792076 
25.065325 -11.559947 15.954824 
-24.260691 -12.110867 14.984355 
8.872528 29.659670 11.508881 
17.191257 1.968421 -2.287575 
19.155062 18.387064 11.886815 
24.693123 0.095064 15.346214 
30.632460 -13.633784 17.848909 
-28.910921 -4.940189 17.118853 
2.267549 31.373919 13.824971 
-17.636574 20.001560 -5.549465 
-11.352711 26.904982 13.426802 
26.180180 -6.419934 8.026928 
14.338593 19.376003 4.478499 
19.926752 0.813442 3.504060 
12.971524 20.469336 14.932620 
-22.172968 6.227056 6.914308 
-27.134855 4.273869 1.444784 
-21.692310 1.434977 6.542712 
-19.724028 19.588791 13.726240 
13.778161 19.851864 11.684153 
-11.043359 28.331470 13.149343 
-0.219616 30.337896 18.145422 
6.376100 29.170557 16.297153 
-17.008648 21.308699 9.417217 
-6.028278 29.144968 11.883583 
-2.023151 30.452265 18.120737 
-19.593842 15.655212 1.969443 
30.249357 1.640356 17.004498 
-24.632862 -6.994902 6.600132 
15.865209 18.957623 5.241181 
-18.117506 7.308135 4.734423 
27.249519 1.255298 13.265211 
17.509113 1.755579 15.488722 
20.100395 11.057983 12.901367 
28.338581 -2.842224 10.878190 
-8.454151 28.891161 12.446022 
-24.823839 -6.588993 16.270395 
15.704390 5.585779 0.274955 
-24.574280 6.281784 3.586648 
14.599863 15.680259 11.341314 
16.872303 4.636870 16.833572 
-15.373042 7.369012 -1.073222 
-22.155720 12.141362 14.479259 
20.730854 -5.273155 11.716759 
25.470522 2.354021 3.566115 
-0.630498 26.787779 6.836987 
-28.232996 -11.439290 14.926713 
-12.306591 11.983337 -3.301372 
-8.467183 30.142315 14.885500 
-15.405440 24.880640 -2.394144 
0.520849 24.391092 5.188181 
19.220671 16.610739 12.100850 
1.717953 27.592943 12.357325 
24.083569 -12.581537 14.994896 
-7.751494 27.978699 -1.469925 
14.572611 24.754381 -2.587627 
7.516950 30.128754 14.975804 
28.379963 6.180342 15.652483 
17.734783 0.318089 13.919424 
-16.116531 10.827628 5.244248 
3.017242 26.268042 14.546772 
13.030375 20.770472 -3.754365 
23.989164 -1.742564 11.316412 
-10.478230 22.758057 -2.261920 
-26.936852 -0.570986 14.481148 
-29.529587 -1.138377 15.392308 
-22.414101 3.697355 2.173944 
-22.357798 17.200937 13.067789 
-23.887894 11.953228 -3.275871 
9.524653 23.286755 14.440956 
8.672317 23.691446 -3.098294 
26.432304 6.274722 10.554281 
-15.194980 18.338310 6.576177 
30.299324 -3.133963 14.281327 
0.260322 25.433378 1.559059 
19.714767 19.421179 -5.724921 
8.866370 25.547501 -2.823672 
13.436265 11.928157 -1.346203 
-28.703350 -7.505494 17.377871 
-28.421980 -12.850197 16.276384 
15.530271 16.472586 -2.513032 
9.048466 28.363077 17.482937 
18.628288 22.727638 12.927452 
-26.194685 -0.817278 13.073709 
28.639275 4.799007 12.802505 
-0.627968 25.232754 2.240534 
-4.829742 24.227007 0.464259 
16.784830 3.024397 -2.510267 
5.180931 23.079836 15.443285 
18.609432 7.618442 13.302943 
25.348587 6.200032 4.319016 
14.674053 11.776675 14.635852 
29.150099 3.342017 11.517844 
-21.282633 18.984013 13.101468 
13.880824 17.132816 5.048580 
23.220287 -6.659987 3.771616 
-3.141397 25.827526 11.171167 
17.715174 11.569684 8.429176 
-10.761427 23.744200 -1.533067 
-24.144672 6.819562 7.334646 
-14.875902 5.935114 0.386175 
-6.472052 32.037361 10.829125 
-3.775204 31.143293 16.840851 
28.785152 2.325444 0.907676 
21.265285 10.627914 7.505949 
11.254450 21.886497 -3.531344 
25.584324 1.418710 15.373687 
-13.690251 25.676790 -2.335087 
-24.587799 -2.768047 10.032994 
32.371239 -5.725632 12.048820 
-10.952355 15.842209 1.060133 
24.859478 -2.280628 15.010020 
-27.371550 -3.911294 16.600433 
-4.004295 28.053501 4.256859 
6.451422 23.040304 0.007283 
-14.152180 26.851303 17.015654 
-17.943340 24.048649 14.442186 
-19.501299 4.836733 7.768489 
-29.787283 -0.722443 3.954507 
-26.624321 4.787889 12.579831 
12.155548 22.303198 -3.746085 
24.484064 -10.622125 15.880326 
-28.950592 -3.101099 6.768240 
18.181131 18.354254 9.483872 
-12.127900 17.862621 12.206465 
27.643568 -6.521265 2.088611 
-19.885059 20.081661 9.069486 
12.009911 28.635502 8.631976 
22.382227 2.111414 6.485206 
-21.835649 15.266231 -2.314989 
-28.350451 -10.446793 14.450549 
-19.557922 -2.351821 15.381667 
28.352449 -4.923402 7.522627 
22.100327 4.074293 -2.059094 
-23.744814 -6.125297 7.732258 
16.801405 20.957827 7.509223 
10.048350 29.530062 8.984357 
-0.678459 27.127131 -4.248382 
-15.949468 21.082979 1.929766 
4.834044 26.391150 -5.405497 
-18.389814 0.805661 14.991746 
-12.991680 25.775120 -2.564288 
-24.432613 -1.037966 8.297523 
29.172419 0.316966 3.833189 
19.167706 -5.074600 18.569510 
-12.159930 25.428444 -0.632059 
-22.109970 6.470853 -2.113486 
16.012177 23.578341 6.868884 
28.260847 4.178999 -1.077025 
-24.199993 -2.232209 14.326535 
-18.699135 9.614573 14.355714 
-21.388809 -2.618060 5.195043 
-1.810169 23.500311 1.084144 
13.105912 14.154294 12.630236 
-19.452862 10.902874 14.559880 
-22.610996 13.971494 -1.141613 
-23.246819 13.267894 -1.307323 
-13.924666 8.470531 -0.991624 
-12.453536 11.879506 -4.457243 
-15.483336 18.679543 11.118707 
11.193492 16.541325 18.362335 
-12.358885 26.820263 7.707691 
-30.683634 -4.385660 9.717416 
18.509394 14.539431 -2.198527 
21.996037 5.843915 6.761414 
-28.267324 -5.753252 10.020371 
10.589397 28.364567 15.745358 
-3.744039 32.859604 12.282473 
-6.673881 27.900417 8.340081 
20.556913 -3.604793 0.690907 
-16.847191 11.324637 7.856341 
-10.043830 26.058716 7.535184 
-19.198727 -3.554132 -0.509540 
1.167095 23.691090 18.194860 
7.291646 19.443964 -2.219475 
23.412119 -7.449183 2.593909 
15.973980 13.776070 15.096791 
15.196112 18.167593 11.571990 
-15.679961 27.423199 11.110701 
5.182209 33.081299 6.960059 
10.465077 23.399736 4.040636 
-14.188348 9.722254 1.297144 
28.007681 4.185676 7.803841 
7.803710 25.988899 10.213656 
8.798735 22.997438 -2.729623 
17.371298 14.212646 7.553381 
17.371252 1.918916 -3.278657 
-16.382648 7.758118 13.740742 
24.242582 -6.637316 -0.423067 
14.114809 25.234701 -1.137968 
-4.376906 20.335505 -4.204085 
-20.420862 12.989708 10.933629 
-11.639033 24.177305 8.790009 
-13.983721 14.542662 1.649809 
15.643843 22.678679 7.283542 
-22.711021 13.658159 0.187702 
3.234047 20.809149 -2.468214 
-15.542889 5.092907 5.174933 
27.897078 -3.685250 8.732481 
-5.163092 33.380314 6.839357 
22.858770 13.092131 2.817646 
-16.997944 10.627069 10.625094 
1.286554 30.023703 10.748085 
-11.183916 29.026039 11.943756 
15.423141 20.693068 15.782284 
22.021946 5.049612 6.562051 
21.803780 -6.997222 13.576085 
-26.045906 -2.198261 -0.929189 
-13.744776 23.653278 6.799167 
19.013124 -4.195998 14.370382 
-19.912340 5.100585 13.217139 
16.968498 2.974951 -3.422528 
-7.959767 22.121758 1.058386 
32.439148 -5.461310 17.251287 
20.447960 17.273228 9.758679 
-1.899877 26.869417 10.701607 
26.151421 -8.430634 5.618203 
-30.292032 -3.955789 14.300643 
-10.303075 29.182695 13.535674 
-20.480230 7.677221 12.793356 
-5.504441 25.052767 1.122666 
25.777170 11.341578 8.047975 
-21.320520 3.806580 6.223650 
-24.675117 9.715626 9.244184 
24.360109 -3.648971 14.171257 
-15.193114 22.483963 4.814472 
20.818317 15.459571 2.844707 
22.431906 -5.921124 -0.225580 
-8.809427 25.346947 -6.352185 
-32.802303 -6.344794 13.685105 
-9.852180 22.686357 -0.322843 
23.296391 -10.308624 10.446622 
8.221648 21.268808 0.595004 
22.307087 -11.612549 15.133143 
-29.741062 -5.980921 10.252415 
-12.280159 14.779132 12.511091 
-9.092324 20.316923 16.757776 
-11.141892 23.222092 -3.144435 
-26.628014 -11.739596 14.247101 
-20.723932 10.724362 14.650923 
-4.213235 24.177034 -1.953226 
2.684958 25.594490 13.258066 
-17.399652 22.120501 12.657781 
-24.264107 1.698953 -0.028585 
-17.095968 26.117546 7.835377 
18.125772 10.869701 10.962512 
13.443089 25.405371 1.135729 
18.406553 12.351439 14.474259 
19.137766 19.193333 -0.901562 
18.292171 5.252807 -2.830741 
-15.067034 21.129686 8.583368 
-25.801777 -6.840906 16.724350 
-18.881624 2.640756 2.014632 
17.765148 12.550228 2.765600 
29.330627 -2.795284 11.112169 
27.832256 -5.029507 8.214556 
1.911164 29.675961 11.233287 
-23.271446 8.717580 10.133718 
29.403612 -6.603171 -0.551208 
17.890518 14.385126 6.789791 
-25.263643 6.247876 2.183671 
18.517626 5.825738 5.385923 
18.729576 18.331135 0.303426 
16.308493 23.938047 15.917791 
-14.153393 27.333899 15.259610 
-11.337443 13.711905 -1.881256 
-12.423020 16.804985 9.769854 
19.652678 6.007467 10.645099 
13.229813 26.767435 14.795702 
-25.106821 -1.725318 11.240996 
15.128410 17.691261 9.924077 
25.316885 8.060833 13.646256 
-3.992646 25.835321 10.994511 
15.340120 17.141424 13.004295 
-16.434086 7.439516 5.172413 
12.511626 13.745971 15.227522 
29.282921 -6.697594 0.855073 
28.760353 1.929591 14.600799 
15.431694 10.060063 2.531706 
30.863232 -10.907431 11.445439 
-18.236401 13.037317 10.287021 
4.404449 22.093786 0.114248 
27.606489 0.684129 15.283663 
-1.916245 27.201668 6.619831 
12.125368 15.715865 14.641449 
-32.634880 -5.378858 11.623971 
4.896170 27.508760 15.970402 
-10.209514 21.339005 1.959959 
14.076777 24.548491 -4.790823 
15.839018 20.376234 4.361924 
-21.865570 -8.325218 18.035089 
-31.933311 -6.671623 16.546968 
-17.258410 10.724582 11.442736 
27.261206 -5.069041 0.316072 
-24.249105 -9.894540 15.611619 
-23.126741 4.631383 14.540105 
-13.219277 14.759545 -0.297985 
24.742905 10.630134 3.497220 
23.527411 5.283204 7.793941 
22.738361 15.539201 -1.968215 
-20.466394 -4.327435 18.035263 
4.063204 26.832430 1.884053 
9.144933 25.697666 -1.911402 
-16.602697 11.412153 10.280602 
19.173201 21.551182 16.680773 
-5.841651 31.517298 13.282955 
-29.199032 -9.989060 11.301750 
14.052522 26.499550 7.910842 
-20.769001 -6.343208 14.376430 
-17.044748 20.201708 3.884532 
24.743250 5.448907 5.376242 
23.213682 9.423188 -1.915055 
-2.538356 24.876236 3.052027 
22.305490 6.715610 10.580762 
-19.330753 -3.361109 4.699209 
23.071651 8.054388 -2.173032 
-28.483643 7.688737 17.872093 
26.221800 -9.672807 9.365484 
19.581490 -2.086807 5.796692 
7.331892 21.692966 15.261618 
-0.748410 25.149916 4.873783 
23.447491 13.596821 12.248434 
15.202629 16.824076 10.991829 
-18.064976 20.838346 11.857584 
22.127205 -6.317478 10.986174 
-22.905626 -5.629817 -0.989511 
14.317649 10.858803 10.232171 
-23.369932 2.934839 14.825800 
13.694085 21.893669 7.023722 
24.129236 3.413937 14.883938 
25.758621 -4.199591 9.235377 
-26.547873 -13.149790 14.208685 
12.331619 25.793388 15.442438 
-12.708450 14.025533 14.281748 
-19.769045 2.598827 2.203204 
-15.630146 18.335882 -1.208532 
-25.724691 -8.086071 16.664572 
10.587841 29.083878 6.773179 
23.653027 14.274657 13.780581 
-14.507590 24.087608 12.928293 
-23.989279 9.722840 12.715657 
-10.443360 24.356794 0.250513 
25.964005 -3.890141 10.888367 
27.708694 5.637735 8.791613 
-20.766987 13.887940 3.960936 
-15.726211 16.660568 6.188786 
-13.684942 9.007355 4.762425 
-30.646671 -8.030670 17.343679 
-16.140930 18.097939 6.775589 
21.496965 -7.571595 6.401402 
-22.892208 -9.337477 13.516530 
26.278799 10.635704 16.734612 
22.207508 -11.533556 18.640215 
8.109625 18.071001 -4.021158 
-7.956872 24.864441 12.286166 
16.235710 23.221905 -0.115746 
23.365379 5.855626 13.706880 
16.170588 18.129314 7.882419 
22.170675 2.927543 14.486679 
20.278549 18.058973 5.071799 
-18.171457 15.518628 7.992258 
-16.713907 22.697796 -2.051175 
20.044708 18.755667 12.393332 
-28.949867 -6.008495 10.220284 
12.909050 12.537111 -2.487541 
-30.507416 -1.125553 11.048671 
-15.139719 24.328999 -3.580505 
-26.766056 -4.333308 8.488470 
-12.956755 27.994751 15.191109 
-16.733141 23.398100 6.471656 
15.230224 16.781925 13.761437 
-25.711117 -4.066341 16.126867 
27.142832 -0.246431 3.288144 
-12.656765 20.370302 4.885261 
10.104748 28.755438 12.688959 
18.662714 20.038830 2.927429 
-27.423172 -4.083255 9.290026 
31.321131 -11.394612 12.011548 
14.764373 25.189253 -0.166657 
-19.908546 5.529467 8.175653 
17.886919 -0.648701 15.137873 
30.317522 -4.159956 10.162670 
-0.085864 26.779512 0.888092 
-28.207188 -4.035476 4.392111 
-14.001830 20.230568 11.378040 
-25.753067 12.690939 13.495038 
5.857501 22.625843 0.142576 
-21.659800 10.949188 6.445473 
0.469635 31.874500 13.269976 
31.110250 -3.705805 10.649048 
17.459314 15.691217 14.915539 
23.836149 -3.895657 -1.244684 
-12.847135 23.797726 8.363940 
7.918025 18.720922 -2.882037 
15.877851 10.801414 8.246181 
-4.091116 27.677216 -3.017253 
0.305780 25.437742 0.303076 
-13.685562 25.045834 -3.674061 
-23.240610 -2.243319 7.708352 
-9.460703 16.401793 -5.105680 
-4.288708 23.004656 -0.995500 
-13.723445 13.060505 16.683207 
-27.679573 -5.286657 6.882424 
21.338593 -4.005313 12.102044 
-18.127075 20.933199 9.664049 
5.570798 23.838305 -0.867969 
-17.847231 24.198658 11.675809 
-6.542933 28.892324 8.068640 
13.971807 25.907898 7.454082 
-8.160903 23.611492 2.002667 
20.483301 -0.117224 1.548429 
13.052381 23.307671 -3.713563 
-28.552753 0.190907 9.149740 
20.399916 17.312073 13.258051 
-21.572704 19.163261 14.338017 
14.690514 13.978916 0.149110 
31.134165 -3.375875 12.042530 
-32.314148 -7.188969 15.335732 
7.943827 21.654308 14.187051 
24.430511 12.738166 9.556963 
26.452902 -13.955914 12.430109 
-24.200798 -8.410055 3.217078 
5.263547 33.277519 7.727450 
10.310884 25.826700 2.441231 
9.805699 23.848640 4.546396 
29.339830 -14.794537 17.698441 
-21.952427 18.506962 13.946918 
17.908201 8.739558 9.686133 
26.107224 8.206704 -4.211605 
15.937139 25.578726 12.328528 
20.758904 -8.295862 13.356831 
-15.079554 22.489796 14.557797 
24.118111 2.656231 4.118671 
-24.302620 14.833475 13.577827 
-22.460060 -8.387582 12.075106 
15.829317 22.531240 16.070539 
30.082293 1.402046 15.092181 
-29.003349 3.303758 9.346389 
-19.329128 6.375901 -2.744045 
-19.480425 10.674415 -2.387527 
1.736836 25.259489 7.010666 
-18.577286 13.890167 3.748593 
-16.518377 26.756609 7.919330 
25.523550 -8.291231 8.629062 
-4.689913 21.681671 -0.925517 
-16.007170 19.501009 13.684718 
15.401004 16.203745 8.459743 
7.248092 31.319670 14.003972 
-19.190079 0.788724 3.034865 
-14.837255 11.158087 13.999895 
-4.569713 19.839769 -5.616573 
8.424745 31.356112 7.067811 
0.242910 24.822998 2.741547 
13.972175 18.471916 14.141905 
29.019936 4.026319 12.041586 
-27.209457 6.266306 -1.224745 
-23.118502 10.790002 6.616245 
-18.762270 -2.750895 -1.640405 
2.219838 24.227617 3.567673 
-2.822580 27.928425 -1.722716 
-2.442279 32.062843 7.436841 
-30.638990 -6.392364 10.330798 
16.126680 11.267193 3.345345 
1.468485 30.298897 7.666727 
-14.137034 18.777229 11.927625 
-15.665773 4.067288 4.575270 
15.136242 17.586340 10.713439 
9.827946 22.596527 1.468275 
26.658314 6.326394 9.342512 
-21.492170 -5.179219 0.398927 
17.787794 14.817530 -2.473421 
20.959112 11.581299 6.935589 
6.831663 24.545740 4.992276 
-11.249205 16.660130 2.549595 
27.544661 -13.720487 12.936697 
23.005621 12.404408 4.395813 
-32.260864 -3.329971 14.701997 
-22.743895 2.951883 6.022519 
-20.077007 -5.200033 3.213747 
-28.656242 2.295638 13.260017 
-6.070018 22.985718 15.403775 
12.986125 23.072634 9.642691 
-19.472853 13.614292 11.413362 
-16.205095 4.428459 1.476754 
24.103838 6.805502 10.992625 
-6.674965 32.633511 8.325644 
-19.616079 8.749825 7.096704 
-19.681486 1.446751 3.045637 
20.165127 10.241830 10.706224 
25.050396 2.029147 15.282701 
20.235744 19.367044 1.062983 
28.579456 -2.081057 9.612379 
-19.055353 -0.169695 16.818026 
18.868244 10.803199 10.255916 
14.318685 14.240759 14.802374 
-22.776331 3.819181 5.960156 
21.136667 14.940429 8.318348 
-10.600064 22.714096 11.538147 
-22.377871 5.685417 -1.881488 
-7.925791 20.337830 -0.686400 
28.666174 -13.004287 13.825541 
-24.989380 -0.317727 -1.339750 
0.048552 33.695049 8.602304 
-16.206644 5.132780 -0.141691 
0.011455 33.406467 9.648642 
-7.485674 24.656080 11.554049 
14.021755 19.115742 -2.925780 
-20.770073 16.998312 12.396517 
20.919624 -2.272404 0.025441 
8.166687 26.972727 0.265654 
30.469538 -8.671273 11.093845 
-23.004089 2.089445 1.001662 
-22.135433 -5.659319 0.194234 
16.417948 16.472437 7.312535 
13.520126 22.849445 12.064437 
-29.643747 3.237961 12.895667 
2.111649 27.102245 -4.041691 
22.895685 5.701326 6.957551 
-32.956764 -8.656886 17.888100 
24.807930 -11.252166 10.247467 
26.431883 -5.369974 9.305125 
18.140594 15.404194 5.760362 
-24.674452 -3.740932 8.239426 
9.427575 26.324648 4.611086 
-20.084139 6.949112 5.352993 
-13.744663 25.464344 -1.536276 
-8.434555 28.154531 14.002006 
-9.487302 30.854815 8.275463 
11.924446 20.336500 11.346527 
32.751434 -7.946440 17.393328 
29.940044 -7.067469 10.905716 
-27.002172 -13.254500 16.066580 
14.730675 14.848559 -1.652773 
-23.136589 -10.780126 14.167108 
-20.526327 4.682805 6.308237 
-9.877186 25.661770 4.844064 
16.206680 16.401917 14.682533 
27.175575 -15.456310 15.018445 
1.538326 27.156141 1.019725 
4.871905 24.658682 3.816453 
-11.944752 19.208555 -1.563856 
29.043196 -3.220048 6.987392 
-27.537363 0.585723 -0.049595 
5.525879 24.389103 0.690398 
-5.632674 26.539370 -5.328098 
-9.394200 23.953772 3.305599 
22.278271 -2.541887 10.557728 
8.296718 20.673780 0.165798 
-0.345009 21.884527 -1.317238 
-19.066513 14.230666 10.809183 
10.392937 20.828827 -2.390039 
-20.309399 16.361847 12.978555 
-12.661436 18.668589 1.964105 
-6.082537 23.473886 -0.572232 
32.414837 -7.607812 14.357918 
19.559874 7.084617 4.636515 
-18.069307 22.507246 8.837668 
19.071476 -3.284380 12.024020 
-19.340292 -0.110724 18.030762 
14.438172 25.112337 -1.884699 
-11.469316 24.992834 -0.612869 
-28.265303 6.652866 11.519369 
-30.491249 -7.234234 15.289580 
-16.058329 8.446470 15.794678 
27.153046 1.534358 6.511189 
20.981108 11.351287 13.486689 
-16.802467 13.871002 14.060543 
13.316892 11.571178 14.723482 
23.574509 -9.472065 9.473867 
-13.387383 25.440830 4.784989 
16.339859 21.581877 -2.230515 
-7.221247 30.515202 15.496279 
-19.243801 -2.915050 2.293834 
-18.282753 23.524721 17.039465 
28.065828 6.864498 16.351036 
-23.186792 12.339509 12.273971 
31.945436 -4.836707 14.045695 
-23.219591 -7.903469 0.393000 
29.968811 -0.377560 2.420330 
31.561735 -10.944998 13.990129 
21.767689 15.389718 0.992936 
6.238232 30.381449 16.091288 
16.551216 24.275690 17.117188 
-32.446217 -4.484639 12.007768 
23.865648 -1.017474 8.208595 
4.073503 30.744850 16.143078 
16.963842 14.341626 -2.434559 
-17.392502 20.846729 11.507913 
1.487221 31.753752 6.790227 
-13.241646 24.750481 7.949397 
-27.623631 4.316045 0.780138 
-20.426434 16.820324 0.821360 
-17.790743 21.001709 8.737912 
24.092125 10.503634 12.645245 
17.532177 24.701694 8.406125 
17.965027 8.084111 10.305831 
-28.008606 -3.559250 8.012836 
21.034239 0.227970 11.097054 
-17.127079 11.728604 8.487876 
-13.028770 22.472223 8.748369 
-17.918278 23.417318 11.958396 
-18.680807 -2.145556 0.389207 
5.787085 24.051655 3.482540 
-24.399071 8.255057 5.840666 
-14.354822 25.631945 1.044102 
-20.964251 -4.121882 0.067000 
13.900510 15.107929 13.877574 
17.305590 20.066523 3.908556 
-22.988005 6.287976 -1.722943 
20.217798 19.743549 18.468319 
-14.294581 24.067055 -1.246795 
27.762949 1.890329 8.755846 
20.763880 17.435368 11.986566 
20.557026 0.494478 5.790097 
-30.754536 -2.013313 9.388570 
-23.643572 10.331134 11.382949 
1.724614 22.493221 0.171123 
-16.019032 23.320951 0.978659 
-13.342776 24.747940 -0.734071 
-4.138168 27.787167 6.596560 
-5.019635 32.518177 11.977965 
-24.311390 2.295845 7.499317 
-8.743021 24.719709 0.852416 
-26.650452 -5.157807 16.786037 
-28.237310 -7.605699 10.284938 
16.531866 15.748516 14.914818 
-24.312208 -6.623030 11.489600 
-20.521294 -2.955809 0.047105 
14.269213 25.757860 12.574641 
30.566612 -0.648948 15.322200 
25.916292 -9.265918 16.761507 
7.349459 23.655270 -0.741209 
-12.163358 28.832092 6.055953 
26.476709 -15.324780 18.714993 
-27.258566 -6.360267 4.706702 
-9.601040 26.185385 -1.858314 
-5.298275 27.408466 6.003432 
11.972014 26.541553 15.654568 
-27.777927 -3.583095 0.271198 
-11.856483 16.919943 13.384737 
6.513047 26.985516 0.891685 
18.069042 21.756247 -3.015404 
-1.105965 27.725351 10.326283 
1.195068 22.779306 -0.997440 
-7.705850 23.970747 11.045067 
8.994737 26.724890 -2.783188 
-24.211918 -11.939153 13.473259 
7.702475 29.889927 15.775470 
-1.724568 31.663946 16.131330 
-1.913335 33.696625 9.074898 
-3.412707 30.069868 9.055878 
-2.749747 28.015774 1.813057 
23.833216 11.073955 6.913697 
-12.323891 14.837593 15.326091 
24.088631 12.643888 7.355746 
25.245392 11.852303 12.189039 
20.682501 4.012703 -2.385998 
-21.394150 8.413242 10.401724 
-4.356545 23.110437 0.975763 
-24.774393 4.135088 7.978486 
-26.668423 7.215373 -2.541630 
13.906293 26.570915 9.662339 
23.215429 2.167922 7.964498 
13.735946 12.008415 17.347160 
-21.846678 5.727331 2.092275 
-6.958424 31.317621 10.915132 
-24.474962 -7.469897 4.666110 
-5.674537 24.547823 12.034986 
2.651217 31.194521 7.234545 
-15.447743 20.494131 4.258173 
32.623074 -9.271945 12.839194 
-14.393403 12.340621 13.093281 
15.769208 25.462080 7.764690 
9.394261 27.720200 13.795246 
23.177513 14.043151 -0.509483 
15.397111 12.796721 14.955503 
-23.199438 -10.626832 12.814021 
3.876666 26.904306 0.670202 
-15.254117 10.610866 13.202623 
-15.172527 23.162832 12.766654 
20.027998 -5.430609 -0.845872 
-20.350920 5.839554 7.657296 
-22.975220 6.157149 7.439326 
13.582314 24.964647 9.572124 
24.108292 -3.020115 7.721401 
-16.138367 3.502911 0.597262 
15.644617 8.625610 16.914885 
0.740698 26.514036 -0.964098 
-25.542604 2.180883 7.545186 
-23.706722 4.020577 8.057899 
2.983655 23.425873 -0.037571 
-21.886574 -5.439670 12.449869 
-15.293117 18.667171 1.763329 
-19.034374 15.838586 7.207795 
23.299940 -13.196124 16.232357 
-28.627775 2.767228 -3.081125 
11.184890 27.991016 5.729943 
3.579666 26.070507 6.488270 
21.427050 8.362638 6.917495 
-3.912551 25.512575 3.771251 
-16.209852 15.297795 -2.028601 
0.985789 27.278606 -3.543099 
-23.215519 2.522403 1.625365 
-17.832191 21.131624 -1.246765 
26.584177 2.305716 15.242159 
-16.670376 6.987098 14.391120 
12.228822 27.850773 6.078963 
16.748194 12.120374 8.495667 
24.571600 -3.687124 -1.090505 
7.657057 27.719534 10.169314 
0.930354 26.456522 5.269387 
-26.410025 -4.357969 -0.303718 
11.603876 18.944780 -0.849876 
18.095455 7.580839 9.414528 
14.561655 24.763964 13.936413 
20.069393 3.904919 10.159094 
6.914646 21.384956 -0.790068 
-19.521194 2.268285 6.928830 
28.828928 3.947545 8.594095 
-16.720812 20.207008 7.026473 
20.079432 -1.106673 9.432228 
13.016176 11.834273 10.031814 
13.555336 24.855415 -1.975070 
28.193426 -0.992237 7.423281 
29.823990 -13.803736 16.428461 
27.793762 -5.505094 12.981699 
27.283422 4.054905 1.781194 
-29.849720 -0.738772 -2.585938 
-22.118610 14.062511 12.492315 
-7.391411 27.672686 6.825471 
20.600292 -0.560694 7.751534 
15.319470 13.401074 -0.090789 
30.430016 -4.271383 -1.196553 
4.352549 27.162663 -1.933560 
-2.684038 33.445877 10.408112 
6.198791 25.145798 -0.180240 
17.649836 22.662558 6.404230 
11.674097 22.958807 -3.502478 
-24.229671 9.472260 5.638148 
29.329514 0.059963 10.391128 
28.558874 -12.214243 14.767776 
-2.719833 27.893711 -0.162328 
-25.157122 7.266549 2.627079 
-15.276241 27.042906 13.009423 
17.530035 0.971043 -1.116544 
-18.287464 15.665156 2.041662 
20.374290 17.736883 11.235687 
-17.184967 18.272013 12.148959 
24.638638 -9.115140 -0.293129 
-17.366508 15.972672 -1.741294 
-20.304298 6.057870 -2.558782 
-4.892251 26.868198 0.531888 
-20.426918 18.808870 7.286471 
-24.971451 6.971164 13.908331 
-20.556187 19.435989 9.345555 
-4.958727 25.050583 11.889788 
-32.016342 -8.983762 13.167747 
7.970307 27.251287 7.853434 
15.534071 23.350670 3.505415 
-2.552947 27.116524 7.021648 
-32.591129 -3.537620 16.916483 
17.157440 19.919003 2.859946 
26.991112 7.322959 -0.211973 
21.319937 15.119608 11.985468 
30.050732 -5.490045 -0.866323 
14.714806 7.996822 4.206896 
4.974820 33.182400 9.370526 
-26.351650 12.141641 15.043343 
30.210007 -2.075390 3.393789 
-13.866918 9.789082 4.965525 
-12.748755 26.891163 12.627000 
-10.111595 15.578355 -4.986883 
-28.317379 6.441823 13.205902 
26.255007 9.894651 11.975849 
-19.788548 2.813426 5.132613 
-23.456474 -2.050394 -1.736126 
-26.496630 -11.483451 10.593718 
11.554653 16.834248 14.777444 
-14.439443 24.093782 7.575354 
-27.575535 -0.494899 13.874020 
-1.609411 28.385406 9.983155 
-11.616427 17.351074 14.071153 
-28.967928 3.535415 11.130371 
27.503912 -13.524107 10.751130 
2.629099 26.607685 4.857631 
-12.907546 13.523564 4.385114 
15.710540 5.367452 -1.022520 
2.967094 26.678814 -2.649535 
-18.080196 14.507092 4.708425 
28.676208 -6.955163 10.730290 
24.508686 4.260143 8.035959 
-30.443899 -1.742994 0.348425 
-24.705626 3.670224 14.895793 
-17.985607 22.535152 9.885022 
-13.146209 27.772343 7.964004 
20.905529 15.830362 1.674631 
-24.717873 -2.194049 7.805425 
-29.708197 -2.937582 5.257448 
21.591581 -5.856337 11.304083 
-27.065073 -1.708713 8.590132 
15.791530 18.283234 8.840633 
-16.564384 17.299171 8.189602 
-10.319845 24.829252 2.125866 
-20.867325 -5.751064 6.794110 
-30.370054 2.748224 15.388222 
-4.988888 24.478186 1.966453 
19.609936 -4.457192 -2.408677 
-28.231480 4.029842 8.142430 
27.333067 6.250802 -0.585868 
6.332416 27.695965 12.507453 
-20.738371 16.920872 -0.324337 
16.617487 19.919439 3.499406 
21.584730 -7.166269 3.590156 
-5.813970 30.376272 17.331982 
26.502542 1.460321 15.355236 
-25.526297 12.481297 12.714765 
9.070093 31.120657 8.827415 
22.069008 -7.936609 -0.854903 
-27.128780 7.958592 8.351298 
18.807171 16.240128 -2.495085 
24.496521 -6.040395 10.629075 
13.854438 12.417297 0.668230 
-15.355762 26.711042 15.352092 
-15.749361 24.010164 14.980426 
-13.719453 15.215816 4.644829 
-16.742554 11.572710 -1.280891 
-17.028862 11.465670 9.224357 
0.347644 24.976521 -2.094526 
16.472666 17.497534 5.206360 
-2.202128 22.737705 0.308402 
-27.468437 4.749815 14.502404 
-12.611392 26.207083 1.551258 
-3.659032 28.109436 3.227490 
-21.223045 8.964602 7.947486 
19.965794 19.556541 2.529014 
-14.460719 7.231555 -2.808882 
9.345238 21.745827 1.259716 
9.597124 21.433111 12.625103 
-7.840449 27.415649 -3.636772 
-22.904121 -5.557854 10.261001 
17.108923 10.527348 10.193862 
25.336861 5.466835 -0.824181 
-15.633806 25.727964 15.058995 
-25.143827 -5.925604 16.352777 
1.680615 26.982168 2.600155 
24.771662 11.342235 1.767333 
-30.875034 -5.173460 9.992566 
-21.551697 2.483456 2.926643 
-22.627064 9.878332 1.501128 
21.722609 8.181887 1.322930 
-23.263405 13.428655 0.842819 
-1.820656 26.041529 -2.471454 
-26.651478 -0.153727 8.567078 
-25.744112 -11.776236 12.044729 
-7.797255 27.710728 7.595115 
25.199995 0.207756 -0.629265 
20.233633 14.385354 4.452260 
27.003771 6.308695 12.238132 
-30.360109 -0.282876 13.810280 
-0.691912 32.464760 6.610680 
17.276667 8.476406 10.574848 
-24.644377 8.923184 5.097890 
13.839693 10.960174 14.213271 
3.568139 32.777519 10.884302 
-21.537241 2.382865 5.330581 
-27.021591 -7.731262 2.132582 
26.962681 -1.621117 9.172578 
25.769810 6.551495 9.484508 
12.391952 19.095112 -3.091491 
-12.799304 16.144091 0.020268 
-2.441407 28.552755 15.770821 
18.630518 21.076361 13.778810 
18.276829 13.372372 14.793527 
21.614552 12.985762 4.471833 
-3.549635 25.893728 -0.255632 
15.504363 17.453074 8.240428 
22.652205 -11.449249 12.630741 
-15.597155 11.010919 0.248860 
-16.748198 17.882656 14.787026 
23.460825 1.290394 3.521301 
9.793546 19.098457 15.866737 
-12.795659 17.798681 9.563171 
-18.808414 7.861414 7.385759 
12.708032 16.185299 12.921891 
15.991315 24.547403 7.294733 
-19.486177 13.437209 0.068385 
-6.069347 28.532642 2.705631 
-8.862809 27.876757 6.743836 
-17.890383 12.139687 -1.914364 
19.343597 2.180226 13.081751 
27.778376 -2.521385 9.404933 
-19.914461 7.574075 12.313821 
25.807817 8.631593 3.557818 
22.020943 17.312405 15.633065 
21.773048 -7.973426 0.918478 
-29.086391 2.878286 11.953940 
-20.294239 21.227783 15.979331 
11.166061 21.908649 11.139438 
24.675922 -1.563563 -1.090652 
-10.223642 27.582582 5.277270 
10.110721 24.301815 5.492012 
-17.023668 25.906664 12.173127 
-26.689083 7.298825 -1.527207 
0.492274 30.098557 8.410131 
25.730007 -13.753229 11.606788 
18.848112 20.324030 11.705262 
21.808868 13.969590 1.735133 
20.803205 13.940207 7.173363 
9.165414 23.980659 -2.235163 
7.103509 32.276569 11.396315 
32.486492 -6.436908 12.212468 
-13.041940 16.969755 0.020040 
18.460665 -2.253483 -0.840986 
15.722871 6.365642 1.465847 
11.833056 22.210695 11.237676 
-7.500906 28.968624 12.456469 
14.765126 16.181141 1.912333 
-4.344965 24.711147 12.810982 
-23.034801 3.826206 3.572612 
-13.292547 18.406557 10.142950 
31.497744 -9.331873 10.959445 
-26.197851 6.993632 0.803065 
12.627692 12.738045 10.467993 
-14.688703 13.565578 5.109865 
-29.571917 -4.620479 3.036456 
15.920471 23.642906 0.435308 
21.586672 10.039906 -2.304444 
18.894695 3.845389 5.721969 
11.458226 24.057722 8.792296 
-29.100294 1.581891 9.525234 
30.357925 -11.820987 15.013808 
-31.617451 -0.269388 17.867083 
-26.431639 -2.343863 15.580525 
29.465725 -4.597246 14.091408 
13.318525 25.074215 -3.825429 
-21.544195 -1.818786 -1.199551 
-6.747372 28.267153 0.361769 
12.965565 22.505358 -3.848320 
23.965239 -12.567460 11.830758 
25.779131 3.394862 8.305814 
-12.421610 15.885001 7.660395 
-27.175449 10.765148 16.664749 
-18.652599 3.342466 8.775879 
-24.402250 2.097451 0.581722 
1.974207 26.567732 14.189902 
-25.942047 -4.704013 16.430216 
-1.537947 25.123569 0.482447 
-21.549477 10.642554 -1.974722 
-22.376482 -3.720754 6.430726 
22.537928 9.969731 15.029468 
-21.235699 17.844446 9.538809 
-12.657705 20.175138 12.202308 
20.152334 -5.846961 4.342361 
24.295561 3.328391 8.203665 
2.668501 32.632275 11.428395 
25.076862 -7.659422 3.590603 
-14.592435 6.704669 2.913843 
-18.848505 15.758841 -0.826233 
2.885594 26.694155 11.278419 
-3.887754 32.315304 13.787251 
-22.486740 -2.208781 7.400659 
28.901915 -4.828255 1.404308 
24.720926 10.286783 14.672112 
-6.487128 30.957569 13.501528 
12.678264 14.496664 12.016949 
18.706791 1.940556 3.008676 
24.726765 -7.941360 8.356383 
23.679592 4.381738 7.740313 
19.301931 -2.784533 5.463711 
-14.184267 27.117825 16.107670 
-20.197065 0.412326 13.651099 
-32.642582 -7.757569 13.859497 
17.432657 2.506305 15.265588 
-14.216191 24.855684 14.975141 
-24.106239 5.901134 0.180043 
20.282269 14.773786 14.152135 
-17.603577 13.305417 2.172745 
16.338825 10.486933 9.816268 
8.474206 31.518187 11.684376 
-15.212775 9.706789 5.405073 
16.638245 3.391954 5.395408 
-5.915477 28.896498 5.861998 
29.234879 -4.798251 16.658068 
11.228580 20.705568 -3.471129 
-18.232891 4.355901 5.826622 
-12.852858 11.107047 -4.347249 
27.560900 -7.915825 4.730154 
-25.292801 2.994015 6.944624 
18.421322 14.017890 11.626826 
-18.187853 23.333691 17.937319 
-21.796726 11.555371 1.559474 
-4.450283 27.895151 5.039641 
17.340120 18.179382 12.679314 
25.019745 4.796949 2.102569 
5.573277 25.373116 1.083151 
-17.418690 12.221464 -1.011424 
24.066561 7.315291 7.088794 
18.637779 6.707599 9.390487 
-12.654572 11.508114 -1.136703 
-4.253991 27.320398 -1.153657 
-21.807472 8.042085 12.886918 
-22.557234 -2.544590 11.792482 
-8.865850 23.802860 1.841874 
27.709879 1.610113 4.899602 
13.067425 24.996609 -0.553208 
29.943819 -5.559394 1.523274 
-5.731276 28.933899 5.055304 
-12.869694 27.479820 10.838767 
2.308145 24.267307 -0.470341 
-8.953668 26.620401 -0.788008 
7.376038 23.930300 11.677702 
-20.325256 16.707886 6.150035 
16.253775 4.161856 -1.983723 
-24.068741 12.969116 13.902528 
-25.947088 0.836466 14.801423 
3.731626 26.601362 5.126933 
-23.507322 1.957833 7.562958 
-20.397587 17.632387 -2.219928 
-6.582154 24.181139 11.690030 
10.057274 20.050062 13.690964 
20.407255 12.384040 9.417273 
-26.773891 0.459117 14.645248 
23.538933 -7.919038 6.884881 
9.409871 28.889446 11.858067 
15.237825 22.865480 5.048063 
-19.690222 3.829714 6.701863 
21.003479 4.394201 1.880697 
-14.703520 17.780287 -1.172846 
20.258873 -6.248786 5.223248 
-12.430096 12.563767 0.584133 
-3.512182 24.720314 -2.449688 
-21.553177 -7.003973 4.287424 
22.874523 7.112846 14.551719 
19.287531 20.356493 -4.723121 
3.326507 21.151960 -1.647112 
5.687764 22.976473 -1.008004 
24.936447 -7.501218 7.126796 
-24.886740 -0.475828 8.622270 
-26.584864 1.852417 0.214549 
4.379203 31.493605 7.672268 
12.637334 25.314211 6.833285 
25.934643 4.304395 8.317677 
13.686100 18.820620 -0.806663 
4.321023 26.048515 0.659258 
25.679415 -13.823533 12.514265 
22.498472 6.204042 14.092468 
15.714377 16.170006 5.227026 
5.962116 21.321135 -0.266280 
13.010900 18.764982 -2.177269 
-27.413967 1.166711 14.658503 
25.017076 11.175496 -3.518434 
-27.471649 -10.645055 16.320620 
-3.379598 30.533182 14.811614 
15.376486 19.335421 2.995178 
-11.293844 19.436485 1.287052 
-22.823076 13.786613 -2.145687 
-15.964879 13.863034 10.915797 
-15.728452 20.911171 13.532099 
19.367630 6.251707 11.531571 
14.931465 9.234299 3.021034 
25.444323 -2.483599 -0.890424 
15.534836 11.186929 13.489020 
20.857607 18.375416 13.048788 
-15.984203 21.708551 -0.370629 
31.747442 -4.320895 14.553894 
-22.556795 9.264666 14.070104 
18.136120 21.689764 -3.943831 
20.892515 16.732944 13.087399 
6.678520 27.097408 11.346612 
25.480642 5.454446 2.007235 
-3.716057 32.005589 14.498969 
-14.912355 19.788708 1.675108 
21.625273 13.264600 2.108236 
-23.751778 4.468815 5.118729 
-25.814028 11.618762 12.559900 
-21.472649 13.495052 6.837493 
-21.548662 10.533365 7.612167 
-3.587774 25.991434 13.567064 
-27.862280 2.580933 3.342260 
21.172121 13.455536 8.445789 
20.083702 0.008176 2.176501 
14.451610 15.855164 14.020145 
-16.310406 3.501760 -3.267550 
14.321957 23.566355 12.943727 
4.020239 24.855354 5.632561 
2.202903 23.296362 -0.253237 
-6.988467 30.333731 8.550190 
-7.427646 26.601288 5.139656 
-0.152049 31.054819 12.969584 
1.125094 24.869715 -2.816350 
21.881071 17.109430 13.581644 
-31.995647 -2.760567 11.633896 
11.536455 23.690443 9.656297 
-8.445843 22.036549 13.655899 
4.752427 31.728294 6.963396 
-21.204323 2.822377 6.009815 
-17.697187 11.209388 12.231399 
-3.914948 23.418175 18.128067 
19.552977 1.806159 3.795561 
-18.256161 2.574008 10.122246 
19.488333 11.236863 8.208014 
-5.767765 24.450323 -0.174744 
22.375147 16.246778 -3.240240 
-21.573269 13.422601 -0.055897 
-28.027615 7.934962 13.307536 
-1.262900 26.426584 11.671819 
16.282015 11.496212 10.928739 
-14.097420 8.881962 1.440888 
-27.321819 0.390141 13.791782 
-13.784476 9.682041 -0.022700 
-3.207422 21.764973 -0.868591 
24.600138 -6.982595 7.746630 
19.617083 4.039882 5.762357 
8.447466 29.773216 14.673508 
-17.894119 6.768372 11.246243 
-23.778257 4.626118 3.413804 
-1.629236 27.809027 11.341367 
-22.286663 1.281989 14.545378 
-29.258053 -5.726617 17.286276 
-26.282047 -5.337006 0.006264 
7.728797 26.748926 10.917192 
-16.656584 6.958160 15.445988 
27.212097 -4.507870 12.310743 
28.157312 -7.812375 2.301295 
8.140423 25.157511 14.670554 
19.711796 8.258671 14.640683 
1.002410 30.559380 11.462745 
22.806801 6.338964 7.530532 
19.911121 -5.353419 0.314630 
-15.353662 13.632078 -0.920680 
8.848721 26.608389 14.666344 
20.391169 -8.506508 15.571546 
32.253807 -7.938008 15.067943 
19.908587 20.224270 14.499973 
19.008154 3.840890 -2.035672 
-24.289164 -2.776486 8.794302 
16.203495 5.194971 1.475356 
19.860725 1.820897 7.661438 
24.997498 -1.658287 9.246865 
-16.341337 20.905939 10.389561 
-30.244217 -0.146196 1.077582 
28.478062 -13.209633 11.959455 
-2.854004 24.759747 -0.315627 
-17.769136 2.740910 13.595384 
-22.749334 -2.378730 5.459868 
10.026444 23.963779 11.491095 
19.016792 21.769606 10.706096 
23.600687 3.298619 1.381044 
-13.714287 12.869835 14.406275 
-28.169985 6.852083 9.267426 
-20.515484 13.615400 0.209137 
-22.614990 -0.424198 14.279272 
-6.951338 29.703838 12.055956 
-12.805498 15.163487 18.047342 
15.824711 12.368613 8.158319 
19.427036 0.184195 5.246447 
5.138039 21.582073 -0.286011 
23.845667 4.209296 3.498230 
17.370670 8.191329 1.161705 
0.568933 26.378345 2.541809 
-17.048220 7.104195 1.168599 
-20.655954 7.540660 12.008650 
20.685001 5.404158 -2.704176 
-15.999766 15.249116 14.637206 
-22.435867 12.861404 -0.730052 
21.363735 11.464933 -1.873592 
17.935810 0.064225 -0.140741 
-16.008224 26.606262 13.062341 
-6.357852 18.954954 -5.481458 
24.758316 7.384738 7.738531 
-6.313368 28.142698 -0.361059 
-3.624733 33.741161 7.551127 
-14.302946 19.950438 1.195393 
-19.118259 19.771299 6.493391 
24.168671 -9.276594 3.033008 
-20.937359 16.756763 7.140373 
-19.210100 17.009350 4.002006 
-23.674402 9.439601 6.451720 
20.176010 6.813606 -2.917867 
-15.505785 7.793757 -1.789006 
27.201035 -1.376997 15.186235 
30.486319 -9.054348 15.638023 
16.296120 22.402355 2.181455 
-29.625128 0.652431 -1.789454 
23.952866 -9.045349 4.813733 
-20.773874 9.269307 -2.480197 
-10.712485 19.476652 13.468529 
24.995800 4.353597 14.685389 
14.922742 20.851936 0.372242 
3.266648 27.157108 1.597398 
16.744764 16.981892 5.670995 
-22.149998 4.331953 14.368329 
-20.022333 17.033094 -5.120938 
21.527029 -10.536090 14.833847 
-29.055191 -11.517502 15.067595 
24.868446 -14.544119 18.689831 
20.432983 18.974667 13.278509 
-22.676888 9.132438 7.504259 
-29.788582 -8.265718 17.370497 
5.933772 25.433928 12.647500 
22.991570 -4.868994 9.311004 
19.749880 0.702626 4.718167 
-17.819960 3.639698 13.274277 
-21.296503 19.787794 17.912155 
18.809099 2.630461 0.719079 
23.836960 -2.003711 8.558427 
27.950748 6.899168 15.363891 
20.639269 1.176213 2.767692 
4.281014 21.635550 -0.526764 
-18.995443 -2.162219 2.402539 
-26.152237 8.351144 -1.835420 
24.868837 -7.952593 5.099906 
5.921124 26.625736 -4.407233 
19.320322 16.925474 -2.358064 
22.514782 -4.302260 12.630404 
-23.366856 0.634055 7.764463 
17.729109 5.279384 5.148603 
-23.961050 9.707181 -1.140550 
30.402460 -11.394232 16.271950 
-22.318596 9.665847 11.133192 
-25.549519 7.571218 1.941085 
11.518460 21.555777 12.008997 
-3.513722 33.284603 10.710807 
-17.690910 2.539724 3.673928 
-1.467536 24.460615 -0.499100 
-6.914061 28.787859 5.131706 
19.745405 20.092020 -2.873131 
-19.091093 12.878280 12.707049 
-13.671459 9.032146 3.875876 
-16.599846 13.518109 12.965929 
-24.144329 0.660196 8.076286 
12.693729 19.981424 1.066897 
-32.717804 -6.285551 16.231903 
-24.813719 11.990278 7.507709 
-24.979954 10.603742 -1.700488 
18.560608 10.520237 -2.495378 
-18.632217 14.885693 14.110992 
28.435389 6.038650 17.549662 
-25.875111 -12.895878 16.924088 
15.282270 24.668869 7.925125 
21.062540 9.868399 1.246645 
26.045658 7.005815 0.242679 
-15.072616 18.217176 7.995238 
-20.690977 15.598742 9.480592 
21.325592 -7.540807 5.438673 
-7.233354 29.920908 10.401699 
-12.309466 26.065292 7.849952 
24.898245 -13.101154 15.254178 
-25.920116 -4.468870 8.547852 
-14.675075 21.798315 11.384555 
-17.962561 1.803272 13.900317 
-10.790856 30.151911 9.486768 
18.772196 20.915997 9.761745 
-4.198850 31.196980 7.774530 
-4.581957 25.553835 3.326630 
25.164692 -8.939384 5.151349 
4.305380 24.379307 3.078680 
-1.728473 27.901804 2.638828 
-28.115242 -10.056365 10.499418 
14.351877 20.689882 6.320415 
19.319712 -1.445678 11.473718 
-12.523032 17.954807 1.411322 
-0.001390 25.443760 13.116359 
18.722866 4.092942 11.395761 
-18.275084 1.679204 15.717896 
17.663437 1.219253 13.586903 
17.950684 8.579958 7.976343 
19.535444 1.989031 1.711626 
24.879818 0.169158 8.560463 
17.119596 2.009502 -1.414533 
20.678684 12.445362 -0.543968 
22.179268 12.602736 -0.663592 
30.415321 -3.010682 -1.517759 
-8.235307 26.525379 8.109900 
-13.486358 18.695261 8.593751 
23.286135 3.182158 0.414271 
-18.707373 -1.703705 4.879498 
2.442375 22.279757 -1.013388 
19.539715 2.471642 8.714401 
26.676750 9.858151 16.589146 
-18.955906 19.955875 -1.534164 
-14.142786 19.217932 10.964586 
-5.279136 28.599449 6.122163 
27.333344 8.306792 17.398775 
18.146315 24.232176 12.820823 
4.151624 25.746624 11.634037 
9.976040 17.771429 -1.634601 
14.882388 13.144628 2.221245 
-21.192663 13.556710 4.517097 
21.953903 -5.066548 6.549222 
-5.531347 32.667080 10.449812 
-25.914217 8.033360 -3.830931 
-15.380440 4.960683 2.629958 
20.210949 8.915887 14.813205 
22.992987 -3.755178 7.871537 
23.991177 6.753564 13.456927 
14.435906 25.328453 11.753242 
-30.015249 -4.303944 -2.089777 
-21.824982 8.978396 14.141090 
19.373756 3.839911 12.631879 
27.267372 3.818657 7.870598 
13.092279 22.279497 7.292141 
-23.612803 16.491692 15.504734 
28.726374 -12.224072 16.432116 
9.067966 28.867603 6.152084 
-20.664783 -5.825860 3.006830 
-6.872043 31.919300 10.052099 
11.588615 28.950428 10.271276 
-10.102621 23.665064 10.347736 
-17.917810 24.219486 15.300959 
-28.200796 3.860602 -3.235867 
27.625275 -3.619735 15.753199 
18.343906 23.593019 9.528240 
-20.033859 7.848053 13.517118 
12.716403 22.133196 11.326505 
-11.447964 13.479446 -3.650169 
-13.020414 25.137150 -2.054127 
20.847143 12.265888 10.211796 
26.081877 -8.910622 -0.218121 
12.812714 13.980133 11.381632 
15.547135 13.761413 8.301314 
-30.171434 -0.040592 2.008044 
-26.118845 7.481820 13.640374 
17.859650 17.988413 13.756261 
-16.346157 25.161543 5.851288 
-13.525950 18.737522 1.190661 
-10.604928 26.510624 13.635411 
-6.137750 27.486837 11.796559 
22.984438 12.882361 7.536238 
13.746472 14.396141 3.814245 
-3.590260 26.153015 5.709236 
16.094822 12.191483 2.209729 
-15.195620 8.116339 -0.923313 
12.366554 18.737675 -1.306461 
-19.158403 12.323944 14.266280 
-4.275193 26.557978 10.542657 
-10.477997 18.617498 16.603140 
-2.469714 26.760534 14.620592 
-17.489008 14.881563 -1.399086 
-22.466211 4.004860 1.129938 
10.445572 26.068186 -3.818518 
16.088696 20.771135 -1.398044 
23.057302 15.408154 14.012459 
17.963200 20.126934 14.194688 
-29.728502 -2.077256 5.165996 
26.183819 9.254660 9.500062 
13.745422 16.114466 10.329491 
0.191474 23.840555 18.181101 
-24.491888 -2.647494 -1.432734 
31.996696 -8.980175 15.644595 
19.730692 -4.660130 5.033626 
-15.194713 22.872910 -5.114067 
4.586962 25.597862 1.522094 
17.328829 2.432300 16.761215 
-3.901177 28.198158 12.360817 
29.311478 -5.254047 2.699222 
-11.773027 18.852654 12.107280 
30.325947 -1.555848 -0.929333 
-22.966274 8.298344 -1.832356 
-17.702122 9.007806 12.861896 
-3.250106 32.625717 13.409913 
-26.021524 3.280239 3.759533 
-15.650028 26.565481 13.921563 
-12.407108 17.311779 9.004137 
-16.367174 10.491797 -2.341866 
3.716882 30.137249 9.234502 
20.543221 -8.427298 14.369697 
0.191019 28.807770 10.135846 
-13.590857 19.336916 5.351622 
16.078894 22.859121 6.520071 
-8.629615 25.056545 -2.644297 
-12.458788 18.179249 11.487810 
-25.500668 -12.295370 12.555259 
-4.251983 25.910179 13.202276 
-14.579908 18.612022 5.972775 
22.882318 2.719709 1.856942 
-32.123772 -2.115419 15.299903 
-24.242559 -2.422292 11.728146 
-18.035849 12.814610 8.852424 
29.430965 1.275805 0.752422 
-20.709930 0.603901 5.191216 
-26.386639 -7.655145 -1.649335 
-29.978077 -6.362812 17.359095 
-26.709200 -0.913744 12.312379 
-2.829229 22.292461 -0.175680 
11.740183 19.244324 13.289000 
13.033067 12.338821 8.031276 
12.092585 26.766285 17.650686 
-11.536852 24.219761 13.804945 
20.067284 12.458537 7.753152 
17.717661 24.125525 7.690374 
11.413395 17.137957 0.119105 
13.738978 21.398674 -3.842329 
25.129808 -10.739329 9.654866 
-0.746547 20.563761 -5.743308 
7.121048 19.080420 -3.162376 
-28.546661 -6.504615 -0.350197 
-6.353760 22.096216 0.265121 
24.176765 8.015672 7.643008 
22.866177 12.496622 -0.906444 
-19.207550 6.744269 10.286376 
-21.967180 -2.866682 9.437148 
28.017000 -5.370261 0.897994 
-15.507916 9.835596 -1.110417 
-19.216881 18.658089 -4.269015 
18.245123 7.620973 11.495514 
22.413597 16.649942 14.582435 
-23.888004 -2.572184 8.188011 
29.047369 -6.293530 17.167763 
29.142553 -0.921825 11.959681 
22.114618 11.345479 -1.717482 
-7.126712 31.216423 9.988935 
-19.705101 -3.371435 1.546873 
-1.214639 20.775892 -4.499278 
29.137102 -6.784327 2.043864 
6.121146 26.550835 5.822983 
19.008163 3.183191 -0.769130 
-26.067097 8.240777 -2.776600 
27.248058 -4.510597 16.155117 
-13.746611 15.305421 -1.467358 
22.172146 2.311165 2.016620 
1.073486 31.698090 9.734968 
-9.887590 18.613148 0.211991 
-14.793901 26.709978 16.306448 
-6.337986 29.815866 12.541816 
12.521267 25.079060 1.441147 
-19.873034 18.370354 -2.532630 
17.699280 0.262307 14.863171 
17.401405 23.506287 15.634554 
7.481348 32.111736 6.523585 
26.324018 -13.387162 14.895419 
-23.526360 11.138379 4.703005 
30.942560 -3.499783 14.293269 
-20.715574 -5.388232 18.036852 
-19.073273 1.695704 2.266159 
-16.066946 6.424805 -2.059243 
11.868052 13.729175 -4.880794 
-14.307821 7.941902 -3.897794 
9.398031 22.408632 11.576523 
25.072382 11.653930 -1.747511 
-25.854502 -0.170030 11.684473 
25.445541 -1.568412 15.210146 
-16.873846 6.966705 18.030922 
-17.258408 21.664989 8.539803 
-2.696147 24.290611 14.820325 
1.285524 32.058231 10.378577 
-17.964102 2.807801 11.576842 
-11.140061 26.373184 -3.218886 
19.367800 -1.873598 2.540244 
17.184952 4.717759 14.166404 
-17.274580 17.521551 6.530334 
-25.249241 11.726431 11.317978 
15.909597 17.989052 5.368140 
-22.134062 -3.860020 -1.650879 
23.820080 -6.047424 9.970022 
-29.292551 1.495253 2.292244 
1.588952 26.139709 -6.533541 
1.135817 31.495363 7.681861 
7.061030 26.229918 12.797112 
-31.864580 -2.500004 10.853128 
15.125681 24.282608 13.681659 
-11.081449 21.487143 10.802690 
-9.880761 28.161375 6.881674 
-30.845444 -9.763815 12.015759 
-7.140910 27.023787 5.792059 
-25.394972 8.875369 2.003510 
26.316431 -11.488356 10.131893 
-23.995605 -1.304203 14.207889 
-30.160357 -1.960459 -2.414177 
17.670956 20.698639 13.166220 
-28.181995 -2.723228 8.093049 
-11.370714 24.457098 -6.211071 
-18.728258 20.877943 11.273802 
-17.676035 12.434821 9.942090 
-27.975494 6.563871 7.806974 
15.194926 14.496965 8.436459 
-30.880995 1.864950 16.945042 
10.558371 29.330664 8.235980 
26.720301 1.588354 1.260419 
23.158846 1.787930 1.829094 
19.704775 8.005667 10.516890 
-4.068388 27.388416 -3.760736 
27.724768 4.157629 0.952068 
-6.186146 23.272057 14.271138 
18.464739 12.436099 1.541102 
13.089516 15.684470 4.765354 
-17.553131 13.672091 4.229817 
24.594679 -8.331634 16.126949 
22.842724 16.173132 16.178209 
-0.368553 28.859512 9.567260 
-8.149239 25.454037 13.052683 
23.721731 9.357509 7.373772 
6.868017 24.923439 -0.944395 
-18.039291 24.266981 10.352282 
-7.202509 21.157869 -0.306111 
10.515760 27.602861 6.231465 
-28.368937 7.832538 14.455425 
-30.024237 -11.361589 15.700856 
28.872458 4.405782 11.169541 
10.445689 26.172903 -3.000092 
-12.282952 25.778070 5.352118 
15.992418 5.153322 -2.935274 
14.418741 10.883173 17.067110 
25.940676 -10.506162 9.373553 
-13.814588 28.116734 9.587776 
-24.404182 6.081383 4.650306 
-20.553926 6.907135 5.970358 
-20.639736 -6.211022 4.261317 
-3.067589 31.059235 16.056271 
23.790195 -5.115726 11.014434 
-13.033437 16.407305 1.697181 
-10.038898 21.739540 -1.691075 
24.884150 12.780991 13.989620 
15.527745 23.669163 -5.015630 
22.757702 -9.142220 14.815935 
2.752711 25.291889 -3.039305 
17.583900 6.278571 11.427963 
-11.117459 27.580326 13.695066 
-29.662024 5.065843 16.233919 
