27.328396 1.313116 -7.018693 
9.981333 25.600708 8.512575 
-23.378752 -18.487036 6.549273 
-16.361519 21.420786 -8.971613 
22.746819 -0.790766 5.205091 
15.885134 20.256348 2.895174 
19.257160 5.264028 9.539101 
-23.077988 -2.806043 10.488745 
7.040167 27.238998 12.097125 
-25.311852 9.748805 10.657201 
-12.169369 20.117907 10.132521 
-12.623796 26.596439 -2.177067 
7.017672 24.067430 11.463713 
-5.923711 21.438038 -7.353718 
-20.739515 -19.734764 4.832690 
-26.338875 12.832949 6.633427 
-32.709724 -18.419630 8.075480 
19.042822 -10.356624 2.375085 
-18.829012 22.749371 2.632920 
17.271315 14.940244 -6.691213 
24.681467 -23.285892 6.540328 
16.757341 20.373474 8.042431 
-13.996072 25.680038 -4.211556 
-8.632616 30.972824 7.425805 
16.226261 25.060688 3.663801 
20.282286 12.495405 9.291119 
7.596340 22.040855 -8.214849 
1.337262 28.899723 12.933164 
15.734300 16.073853 1.739245 
-21.097000 -6.597593 5.873077 
19.623343 11.700683 -3.027252 
-31.564198 -18.884230 17.083935 
-19.289671 -3.128490 3.630189 
13.446898 16.074335 10.566481 
7.152669 29.078867 5.619779 
16.265749 18.646593 9.286197 
-15.840513 19.841286 -12.428558 
-1.805772 27.940573 8.612023 
27.889341 2.897843 4.649976 
-7.638490 25.648981 -8.593787 
-28.545660 -15.033686 11.356886 
16.979971 13.286595 8.277723 
-27.762947 -23.523561 6.617858 
23.455647 -12.678534 11.064401 
27.030052 -11.805640 8.178370 
-17.312859 2.199743 7.153793 
-21.878857 -13.365986 2.357467 
-20.245533 12.358488 10.341467 
17.238886 6.879839 -2.525424 
31.122396 -15.385845 5.585907 
11.703300 23.886082 0.128298 
3.823246 23.024151 -6.542352 
20.588673 -7.461759 5.127379 
19.665133 -2.252491 3.509736 
-25.435072 -5.472327 6.948301 
23.954460 -17.998135 9.628112 
22.345911 -2.557174 2.922182 
-24.112646 17.158367 15.196926 
-22.125959 8.661525 0.510231 
8.223705 22.032684 -2.730519 
-18.903923 12.212254 6.017610 
-23.680712 -16.354124 12.714194 
2.790381 30.158932 15.447734 
19.714901 16.776087 -4.818795 
-19.997332 -11.175812 16.786028 
31.502129 -20.826048 1.930057 
-25.402037 -18.025728 7.087461 
-30.447605 -5.419892 9.618990 
-24.531330 -4.616047 15.023235 
28.358585 -2.093173 -5.635295 
22.905409 8.808868 3.471175 
5.224661 24.897924 -1.037037 
24.246441 -3.146059 9.062404 
23.630653 -2.360341 1.529466 
-20.223036 -4.869603 10.060621 
29.688015 -0.158957 17.236895 
13.465169 17.792231 -6.339656 
-12.577611 16.503923 -5.841194 
-26.282734 -19.986286 11.092700 
19.421350 2.205856 13.741587 
26.759611 -3.551368 4.512335 
1.107346 26.990412 12.247393 
9.819505 21.787209 -6.924090 
20.774252 -3.633949 5.354644 
-6.530100 25.828026 -0.553833 
13.346517 20.595945 9.064724 
11.193283 18.845819 9.054776 
-2.551462 31.291523 12.722936 
21.197832 -13.806430 2.875179 
-24.083426 11.194337 -1.524277 
14.055989 21.778702 -11.913922 
-18.841791 7.924639 9.142772 
20.813889 18.653584 6.493329 
27.918354 0.480887 -5.278724 
22.399782 -18.557648 9.720508 
9.424666 24.187634 -4.242496 
-22.865568 -21.550137 5.206714 
-30.526608 -24.599514 5.891922 
-29.930838 -14.672994 10.217674 
3.072685 28.065134 0.340791 
31.231125 -19.503908 7.583699 
13.650519 24.078985 -8.551669 
24.808586 10.591543 3.230932 
-11.864433 29.830784 2.446176 
-30.003992 -21.628365 12.178726 
4.763206 26.735367 -1.706575 
23.809727 9.782543 -9.486393 
15.420616 6.458541 16.730024 
20.811724 -18.506487 -1.468087 
8.149598 29.290295 9.430684 
13.342742 19.068909 -8.208270 
-15.433679 16.918476 10.179597 
8.986245 22.431580 -5.196926 
-21.650274 6.813107 10.585602 
-11.312780 18.897377 -4.753487 
24.480093 -18.846703 13.028710 
-31.232080 -16.031374 16.866657 
-15.058515 23.974495 4.739542 
27.841324 2.102153 -3.860528 
16.952232 -0.335432 14.771175 
4.309520 32.954945 5.045458 
-19.703352 26.870167 5.773895 
-26.046707 -17.888475 11.567018 
17.750259 6.996357 -1.543231 
12.055748 20.798252 -1.884578 
23.910837 12.186508 -5.553188 
14.097869 9.772396 -8.602478 
11.951001 13.970597 -7.019770 
-26.180298 -8.013250 13.150392 
-24.356880 13.999552 4.324739 
-24.403183 12.344501 3.637410 
-24.469107 -15.002947 10.016096 
27.830257 -10.949706 6.523199 
-1.088863 31.368017 12.203621 
12.050037 20.440685 -2.677902 
17.297764 -2.734118 15.475204 
20.901909 2.143658 14.178386 
24.256723 10.487339 -3.855757 
-15.381065 6.449802 -7.191857 
-23.037558 -14.957674 5.591022 
4.393280 30.155499 3.656900 
17.063095 18.286854 -12.954177 
-19.497940 21.021557 0.624938 
9.292934 17.889389 -6.204051 
-18.855911 17.054676 -11.556489 
14.034883 24.529348 11.614385 
22.384012 -11.130505 -1.013147 
-30.125212 -10.444868 13.842073 
-29.535503 -12.378147 12.128595 
-9.582806 24.077436 7.992966 
-16.343052 0.348168 2.537855 
-23.292597 -11.522986 12.319108 
7.285111 21.160318 -7.594745 
-0.178987 28.969687 3.726155 
-16.383745 11.054575 9.812741 
17.941837 11.233297 -5.681047 
22.284567 -3.734233 8.207191 
7.667258 27.913485 -3.437090 
23.131168 -21.053759 3.431610 
-15.154016 21.315119 -1.476185 
24.718643 -15.382829 7.032462 
18.437414 16.049675 1.300633 
20.162941 19.684546 1.518365 
-19.684898 0.265789 4.691442 
22.754513 -24.018925 6.884904 
17.333759 -4.316051 15.622648 
-20.110027 24.764519 9.596360 
-14.006551 15.068034 9.581840 
24.121117 -13.202177 6.773827 
2.499650 24.885513 -1.332687 
-20.867556 17.021139 -1.621271 
-28.423853 1.969625 6.879635 
-26.032072 4.407715 13.574304 
-24.322737 -12.445379 8.912341 
-28.882710 -3.991424 -0.719322 
18.631687 -4.138651 -6.692137 
3.068572 32.605736 8.244695 
6.270882 19.060017 -5.059380 
-8.500868 27.614756 1.544847 
-24.852486 -2.617670 9.202490 
-22.665489 14.256422 5.712261 
24.636427 8.265880 -8.808165 
19.663670 -10.937935 11.585174 
15.010606 24.103951 17.478621 
-13.776880 28.192806 9.730309 
28.135899 -8.498024 14.097267 
20.737186 -3.712544 6.241759 
18.013472 4.343114 6.106078 
20.563147 -16.322651 1.154404 
23.240170 -10.877683 14.656864 
-17.289227 28.579515 5.557273 
24.580177 -11.997380 13.011179 
-27.253510 -16.847343 11.441715 
18.925352 -7.194514 2.523360 
-18.508316 19.178192 10.335222 
28.470324 1.438149 5.784161 
-28.709454 -26.175879 0.891926 
-28.311138 -1.679586 -6.010150 
-26.014002 -0.886958 11.695682 
-17.172623 1.731216 11.901425 
19.623873 12.608891 7.250360 
-27.740587 -21.888142 18.285267 
29.781853 -12.205536 3.760520 
21.109779 13.942918 -4.007020 
22.043650 -21.377213 5.423904 
-31.602226 -23.731512 4.118857 
-17.768105 11.225625 -4.574404 
-22.143797 -17.370089 19.719631 
14.370223 13.401078 13.186478 
17.857382 14.224524 -5.675185 
8.421628 19.960032 11.800798 
27.005156 -5.785716 14.421098 
-5.747417 21.081175 -6.533994 
24.956146 12.321055 6.239310 
-26.012270 -13.353875 7.508181 
15.906025 25.443512 8.184796 
-18.176378 -1.104343 17.252504 
25.320089 -18.571705 2.459728 
-24.707684 -11.637747 14.075479 
0.589450 25.812609 7.197417 
-19.186459 -6.079965 17.787287 
2.404339 26.168394 -0.840079 
15.267839 16.180578 -7.087586 
27.206158 4.497766 1.114298 
9.740566 19.494366 -7.736063 
-30.089470 -14.234124 5.829490 
-19.711569 7.436529 6.091646 
-24.321075 -2.873932 0.838807 
1.822746 23.814596 -14.063067 
20.734930 -8.495525 -0.876540 
-17.460306 -2.620167 -3.768318 
-29.199144 -3.685670 -4.015070 
20.009903 -9.930114 -2.002285 
-31.814966 -14.176138 2.511160 
21.444593 14.332492 3.639290 
-30.334620 -14.972350 8.340560 
-27.122599 -23.637091 11.553146 
-22.028170 8.447617 2.684575 
-14.943027 26.228386 -0.432722 
23.160311 8.119036 4.060726 
-25.989508 -20.844564 8.516515 
-15.171092 20.341061 -12.588726 
-12.704925 25.397936 -2.300261 
24.686926 8.760918 -4.999780 
-12.255121 25.230562 -4.037591 
15.570538 15.944063 -2.523462 
12.218112 17.492653 8.495857 
-25.091036 -15.455380 9.456427 
17.622667 18.781818 10.860980 
-28.337727 -10.425542 3.076571 
-23.403204 -14.885291 10.534124 
17.278667 0.477854 10.668827 
29.466648 -19.979977 7.154375 
18.201393 21.464466 9.926398 
-22.335224 -13.725820 3.788109 
-17.206968 -2.272455 -2.057001 
31.634115 -19.542595 1.241043 
-21.556849 -21.110826 -0.742100 
-24.322762 -14.359419 5.826239 
-7.965361 25.419746 7.454775 
20.891239 1.028402 3.437779 
-32.312275 -17.025896 7.703936 
11.291440 23.012009 -5.613714 
21.583174 -2.123870 -0.739827 
-0.773896 30.818541 4.033910 
-28.162750 3.772041 5.812616 
6.232814 31.989456 6.962138 
-26.125147 -24.754187 10.240377 
-11.700721 29.923731 3.957649 
-31.101528 -12.179084 2.999451 
-24.322638 0.808601 14.131272 
30.392984 -12.895039 -4.573273 
-28.966652 -17.790312 4.726954 
-29.038408 -4.261144 14.081850 
16.222170 4.912240 2.545057 
14.851480 10.101422 9.643322 
-19.447052 -6.333696 11.156987 
-20.595104 7.736972 7.726372 
-16.143656 3.899390 -6.321327 
12.366927 13.877293 -6.127282 
5.006500 23.189243 -4.027358 
24.564432 -10.138468 8.657319 
10.738802 16.808771 -5.938825 
-15.204482 18.413801 -6.689200 
-24.670958 5.201622 4.510364 
-19.283718 -9.535686 14.670140 
-28.177956 4.787542 6.417253 
23.225424 10.775602 -5.499410 
5.540523 30.580767 2.140374 
29.008749 -3.896343 -3.442830 
-5.099589 27.279375 12.866707 
-16.901772 -1.196863 3.318566 
4.399637 22.652672 15.490649 
3.796700 26.128954 6.400932 
4.535177 23.322680 11.900200 
22.974218 -15.843822 6.536448 
12.782293 14.869194 7.028884 
13.517806 17.646339 -0.992300 
-20.125786 -8.340921 6.347809 
-19.942793 -14.042777 2.161150 
26.801418 4.995340 -0.911020 
-30.722160 -7.017079 18.116362 
21.195499 1.853205 -4.497140 
19.122190 16.122095 -0.164774 
20.062008 11.379039 -6.666182 
22.178528 -14.909785 5.665616 
28.760513 -10.646046 8.410925 
16.079374 8.258419 -4.275917 
25.179714 -21.550770 8.312389 
-16.427896 13.176860 3.119410 
-19.688635 -13.322578 0.543289 
6.098950 29.970810 2.446445 
19.886196 -10.957294 12.513386 
-1.868786 32.212177 7.472926 
17.789515 12.879399 -3.131792 
-22.207640 -13.580195 6.148189 
-26.389683 -10.729024 12.818396 
22.488918 -10.540971 0.361546 
-26.587334 0.349516 13.178957 
-13.444728 26.261583 3.691358 
-15.614892 11.369433 1.514774 
-22.888924 17.643591 2.411975 
-10.171108 29.334684 -0.134889 
21.108971 -16.664829 2.770892 
20.393095 5.119350 -4.732976 
21.080908 -19.652971 -1.220267 
-25.364206 -18.232943 4.008798 
20.931343 -9.194777 14.321628 
-24.479328 16.533911 13.690282 
-1.105463 20.576626 -5.324847 
-15.689397 13.317696 -4.184469 
23.872784 -3.696620 10.108158 
-24.097618 -22.425547 5.469175 
-25.685703 -21.701668 15.930008 
0.646062 33.288750 5.302704 
-27.652670 -23.959429 10.487894 
13.544700 12.637721 5.624804 
4.999541 23.453938 -7.020085 
-17.950176 14.609723 -1.177964 
-17.952478 26.759949 1.950975 
-10.777869 20.138926 14.061813 
-29.928894 -16.526363 15.310419 
28.652859 -25.063231 -1.099632 
15.892017 14.583963 13.882883 
-24.055540 -8.617579 12.868150 
-30.894581 -11.592892 19.395576 
17.137909 21.219803 8.120636 
-25.553429 -7.542802 2.207065 
-21.896759 -17.575064 18.572014 
-23.758087 17.210615 8.211517 
18.236334 12.602768 -4.180861 
-20.619070 -3.068859 5.859147 
24.099417 -7.244161 -1.832326 
-17.679052 3.952402 6.480685 
13.562979 16.156681 11.913608 
16.636765 21.393126 -6.309344 
4.068191 28.908844 1.430689 
-27.667582 8.067313 15.004887 
-21.011534 -19.184866 -1.299799 
19.784098 -11.988790 15.390766 
-22.580248 14.573887 6.551503 
0.426264 27.623850 12.173305 
24.702755 -24.879440 8.099871 
13.771319 16.692907 -0.690951 
-19.675327 -8.320040 13.647243 
13.286190 19.282244 0.751057 
-13.710803 24.372486 7.298432 
12.831856 28.726439 -2.693496 
-19.730017 8.792463 -4.669425 
28.590242 1.828553 8.696505 
10.561462 15.392184 -8.000646 
-23.522516 16.201427 8.260227 
-20.468910 -3.327382 9.331050 
-26.298388 5.220639 -5.476384 
17.411739 10.401397 4.354387 
27.162470 -13.275193 1.969086 
-22.568840 -1.468714 5.675527 
26.183058 6.071511 -5.477377 
27.338861 3.069216 1.574790 
-12.459639 29.908670 3.050511 
-21.970869 15.027753 10.185495 
-10.143052 20.102848 17.676403 
-28.363125 2.900444 7.317072 
5.109288 25.361242 -4.477422 
29.063986 -9.135612 5.239843 
17.512737 22.136650 2.296962 
-0.329969 28.026039 8.526068 
-16.315231 3.908607 -3.740175 
15.118209 25.051840 1.495458 
-19.283094 -0.113642 13.271201 
25.542326 4.122899 -3.575917 
0.949062 33.393764 2.964002 
11.812071 22.536646 -12.520859 
-20.583891 21.896988 6.075939 
-25.599463 6.449632 -6.934187 
-16.988495 21.090651 -7.534318 
13.747290 11.257147 -6.996936 
26.580582 2.580678 -2.904218 
12.563461 26.908754 10.862959 
-21.321541 -20.244722 8.479361 
-6.003047 29.259621 10.999167 
-12.670356 19.061630 -8.960132 
-18.746672 13.154704 7.868366 
28.033783 -0.977679 -6.097111 
-25.050104 -1.223185 10.698782 
-17.975552 -1.269614 15.886523 
15.683286 20.250029 -4.862468 
22.266006 15.443967 4.895382 
24.514296 -16.060089 2.494193 
24.073410 -8.317264 8.064933 
4.188828 32.936337 1.223521 
-19.647253 21.910370 3.420588 
-28.157518 4.847796 10.226277 
26.311089 -25.546524 -0.895162 
-29.358080 -19.412689 5.157114 
-19.396471 3.326681 3.476384 
-21.458046 -11.091975 -0.219490 
-11.977820 23.389791 -11.158463 
17.526922 16.025461 9.444609 
27.686193 -2.194888 -0.522032 
-26.827457 -16.088274 10.935627 
23.680607 -15.996268 2.682872 
-16.976814 5.585635 13.211228 
17.146267 10.362783 9.639431 
-25.726692 -14.795822 4.943162 
-30.016237 -5.534677 7.657042 
-25.410303 -13.571493 12.767659 
-27.685345 5.533856 5.154600 
-28.424702 -13.578595 16.509254 
20.500841 -2.575171 3.500339 
-15.411758 12.919879 9.836287 
-10.270847 25.165710 12.871413 
-26.469559 -23.230677 9.541633 
-24.815134 -15.144953 4.528004 
26.498226 -10.471409 14.275664 
15.583772 18.308231 8.898432 
9.087632 23.830889 9.029908 
-19.065857 14.629205 -2.473405 
-30.964733 -8.295614 17.173725 
23.142292 -1.399148 0.459214 
-19.475121 19.077610 -4.393268 
18.401600 -6.167525 12.187496 
16.190569 5.963799 0.967415 
26.636206 5.736094 11.943336 
-1.450691 32.736858 5.565917 
-29.689289 -3.794027 11.985129 
7.327476 29.269503 4.771914 
-21.506611 -19.873192 7.095729 
17.089569 1.554092 18.716101 
26.590691 -14.074758 10.261575 
-1.396125 22.987682 -3.191761 
9.028611 24.356884 -11.333549 
-11.422820 28.437746 16.288557 
24.318499 11.047865 -5.956872 
27.697777 -9.063005 -0.110590 
17.929747 22.121107 10.571964 
20.111059 7.889786 9.004413 
-23.127064 15.841670 9.028767 
-3.989777 25.721794 -5.672148 
-3.129815 20.844217 -4.208660 
-6.424734 31.096748 0.432424 
27.155905 -24.361124 8.645456 
-15.854216 23.960993 -6.300842 
-25.412697 -18.031525 17.218311 
-19.775337 17.872747 -8.547275 
-22.702559 -18.761456 19.795399 
17.986425 18.164162 13.486902 
-24.029039 8.395500 -2.526118 
13.386069 18.732229 -0.834117 
17.659037 -7.624381 14.930984 
-25.744137 -14.844475 9.882344 
-7.388784 27.712547 -4.989283 
-3.537477 23.522459 17.494652 
16.418089 7.901029 9.675720 
-4.335677 28.475861 4.916790 
15.840505 11.391063 7.202139 
20.305174 14.491561 -11.981494 
-19.756775 -10.471411 3.969293 
21.001287 13.468122 5.450939 
23.079184 10.208123 -3.469208 
-27.841919 -16.955662 4.320047 
-24.461359 -12.915018 5.509471 
-22.760929 0.732563 -3.842645 
-12.487283 22.190149 7.687708 
-14.089287 20.542631 -6.615634 
-21.150955 -12.670384 2.619757 
14.498431 19.009459 -7.913233 
21.226391 6.996613 11.047246 
20.182287 13.371696 -4.803218 
-19.186796 20.647726 2.489287 
13.731900 15.165926 2.877742 
-6.279290 27.809843 12.871770 
25.910913 6.747626 3.992203 
-23.703955 11.597370 -6.780291 
29.052128 -6.317949 2.892486 
28.473845 -4.903334 7.601530 
-27.702341 -13.492556 7.798668 
25.099548 8.021412 -7.151711 
-15.162011 19.525173 10.586973 
13.395984 24.793118 11.075452 
-21.224998 -2.226924 12.179802 
28.313959 -1.444683 -2.827876 
18.979858 13.293395 4.739080 
-25.417513 1.604920 14.071093 
-27.965416 -16.913900 12.187263 
24.418835 2.816704 5.388792 
-25.002739 -4.125335 11.717480 
-26.536251 11.490187 15.605895 
-31.870111 -17.574221 8.248639 
18.884735 -10.792819 3.303397 
20.436674 16.440077 -3.035371 
22.125410 -10.225172 14.568366 
9.348366 22.651764 7.909050 
22.659405 -9.317197 14.772106 
-16.319494 1.622453 0.782531 
-11.068377 29.902473 5.535058 
14.703632 26.134993 3.145338 
-20.212914 9.227653 11.592450 
-25.858028 -12.849640 5.394324 
15.389967 17.340902 13.501945 
-27.999741 -21.923244 9.349355 
-31.587479 -23.956001 2.434368 
-13.601990 14.967154 11.744875 
8.213512 23.227068 -7.626299 
-11.609344 14.275066 -7.545294 
18.278177 -7.799532 11.928778 
-28.769966 1.923267 9.060715 
30.001335 -4.443297 15.578979 
-23.253376 4.207330 4.571167 
-11.706012 20.619287 -4.661282 
-13.856312 27.843655 2.986348 
19.317904 -11.509672 4.669217 
-23.494143 -10.429296 15.523595 
-18.485590 -2.092552 11.669981 
16.439966 22.343395 11.082441 
-5.748672 31.732767 9.896104 
24.833281 -13.759653 1.724723 
22.668339 -3.205628 1.715240 
-0.192770 27.587593 -2.908103 
-23.831652 -21.094666 11.829362 
-15.232773 20.722773 11.633961 
-13.076311 26.725140 12.935177 
-6.914109 28.992634 2.694216 
8.922394 20.204561 -6.242750 
20.984568 -18.608595 1.841757 
-27.810707 7.185413 16.639671 
-20.776182 8.256261 1.628431 
10.641917 22.405798 -1.313854 
11.074001 26.194225 3.721600 
-9.014401 29.286097 0.618686 
-19.142832 14.472382 8.626368 
-30.367607 -9.472981 1.410654 
27.181776 4.172452 12.979608 
22.284321 -9.249096 -1.705974 
-27.624908 -12.233884 10.510132 
7.405168 24.508751 -11.668939 
-27.934610 -0.321084 9.008031 
3.742741 25.356014 -1.296623 
-3.367332 30.981981 1.804266 
11.650588 24.856091 -0.152184 
-24.798376 -23.849812 7.621739 
10.002421 23.867414 -5.632227 
-14.186438 25.543339 8.786065 
26.410357 2.725110 4.677406 
15.420739 20.912062 -5.518694 
-31.650742 -12.949961 -1.148663 
22.314854 14.993931 7.001370 
-24.463360 -17.867641 16.845051 
-15.041210 14.625202 9.168684 
-23.426710 11.323373 2.336381 
-23.013418 -13.152789 13.812403 
16.613462 1.402683 12.632827 
-20.601120 9.491268 -4.915808 
-3.990695 33.011780 6.144690 
-29.043167 -5.658595 5.338872 
-12.041167 28.151358 -0.098032 
29.229111 1.770894 14.991537 
18.830101 -10.700469 15.570398 
25.444965 9.613085 10.868217 
20.988180 -2.487652 9.191329 
21.153082 -3.464977 11.995098 
-24.447561 1.069999 -3.482034 
-20.135389 -12.501307 4.150620 
-31.617821 -13.726006 16.553648 
18.673725 20.151386 17.698343 
28.570337 -6.180474 1.036237 
-19.918177 -7.954712 19.205580 
18.929955 22.031818 -1.634644 
20.616829 16.514643 0.916251 
-19.296392 19.216778 11.216260 
-2.930237 19.602390 -6.019766 
-29.829330 -14.250016 16.674305 
-2.618704 31.041674 13.711263 
-21.126146 -19.058874 7.513260 
0.652002 26.168880 -5.910680 
15.993787 20.781462 -7.929547 
-22.490194 -1.410250 13.639193 
-26.548584 4.313731 -0.646822 
12.945893 26.095985 16.051102 
-6.158576 24.251612 -4.964165 
12.062066 28.894514 -1.857914 
18.642443 -8.964495 9.225024 
-20.434879 7.054260 6.613281 
-24.147156 1.137728 10.878496 
26.510294 8.363638 18.350986 
-29.122810 2.783142 16.118706 
21.851831 -1.620826 -3.190960 
28.203209 1.443591 9.836450 
-18.987307 1.900861 -4.120661 
29.678759 -15.596574 9.234353 
19.591118 8.877892 2.504667 
4.842448 29.508829 -0.501414 
25.613787 -0.172370 10.702155 
9.879153 25.251875 -3.964839 
29.857597 -6.908768 16.382505 
-29.071901 -14.902400 6.597845 
-11.785203 17.155455 -5.587784 
-27.616201 -12.519496 1.315383 
-30.629494 -8.336899 -1.958865 
-26.645901 4.081167 4.248979 
9.102008 26.913725 10.516704 
26.441847 0.356925 12.941917 
27.214331 -8.280318 14.808906 
-22.083187 9.392559 -1.697395 
-28.487101 -12.838667 10.992250 
-23.269514 -10.941696 -0.450768 
-25.713493 -6.353791 15.692740 
19.896343 -6.277833 6.643774 
-4.349464 26.281378 6.043511 
26.406881 -12.352181 14.465916 
-28.971458 -12.912387 3.734379 
-11.471585 18.977228 -8.490398 
23.206127 -14.529963 3.525917 
18.819252 -4.362576 -3.246572 
24.360857 -3.760873 6.639085 
-23.751371 6.911905 11.570580 
16.453955 7.851940 7.883022 
-19.402306 18.440485 2.759413 
3.884439 18.234619 -8.835589 
25.058556 9.041331 4.407699 
7.391140 23.742599 10.661356 
-30.602486 -19.974413 16.944523 
-20.268753 3.206729 3.423571 
-25.207512 7.002997 4.292006 
-20.255342 6.192898 6.466076 
27.649967 -16.586983 12.002757 
-23.888771 -11.561432 14.264444 
27.714056 -15.741078 11.240412 
-0.753611 31.096542 3.128183 
26.224379 -8.373894 14.944996 
-15.084475 25.955811 0.568354 
-23.260077 -17.024424 6.185956 
-23.832685 -2.009773 -2.654663 
-14.541949 19.207832 -2.418748 
15.366315 22.674965 -9.168137 
14.151382 16.980812 7.311844 
-28.769608 -23.749016 7.233435 
-11.283959 25.438887 7.211370 
-22.629812 14.491822 -0.665036 
-6.818389 26.523851 5.772887 
14.581486 11.865898 8.605772 
-18.205276 11.619831 7.693147 
26.051355 -25.078205 7.449848 
31.022282 -14.385962 1.908876 
25.422192 -15.544985 2.715439 
26.708038 5.660471 -4.553795 
20.901190 -13.096824 1.726477 
-18.972437 1.418553 -0.885869 
20.124861 10.319145 -6.450051 
15.625916 12.584992 8.153526 
-31.521336 -23.436785 6.639345 
-14.398482 11.634721 -3.888263 
-28.636150 -9.292263 7.970924 
-21.442162 -15.550036 19.620493 
17.501114 -4.978180 17.414253 
25.406164 -2.992786 10.132821 
18.989199 4.494895 -4.246855 
-18.458841 8.492298 10.321560 
-16.733084 -0.631132 4.242126 
-17.900091 -1.582282 5.340414 
-32.173752 -16.177492 13.396454 
-18.714500 -6.488412 -4.938329 
-22.544716 -19.871735 11.852449 
-25.712875 -6.368561 -1.168936 
29.337162 -5.159084 0.008803 
-20.943638 17.684446 -2.484052 
21.211685 -20.174923 10.305026 
18.981401 -5.733797 -3.986568 
-27.378416 -18.986959 11.990920 
-6.853928 32.440147 1.212382 
-20.591448 23.109022 4.312541 
29.197933 -6.457464 3.859903 
29.759888 -11.189790 3.797900 
-17.545120 23.144360 13.023520 
-28.294245 -13.219715 2.203115 
31.490616 -20.050615 -0.511779 
23.782871 -15.020067 3.112438 
5.292417 20.285946 -6.053450 
20.016506 2.628752 -4.657902 
-23.726803 17.034353 4.645636 
15.217036 11.139532 -4.208521 
15.651051 24.100821 -6.076958 
-18.725760 26.533905 9.571877 
14.494544 23.272959 -9.049696 
10.893608 28.215393 10.493487 
-29.516689 0.308086 17.206919 
-23.399143 -5.018839 6.382719 
-21.048248 -2.895737 -2.412292 
19.372698 -0.476192 -2.675122 
-27.653324 -19.002750 4.439297 
19.409939 -9.701142 6.058458 
20.207369 -12.413577 -1.180394 
-14.764222 22.293715 5.253530 
-9.174036 24.973385 -7.208535 
23.487152 5.110345 14.024550 
27.447815 5.926917 9.568098 
13.729216 24.103165 12.348158 
16.847157 0.484505 13.069993 
10.628169 27.864664 14.794316 
-23.136320 -20.307537 18.702034 
-12.913454 21.569607 10.778577 
16.500301 13.924417 -4.525854 
13.358851 26.934017 5.248333 
24.318632 7.688905 -10.185458 
23.653992 10.868310 1.951957 
23.198545 15.183985 -1.635378 
-16.444887 2.514572 -4.849616 
22.674837 7.918588 10.716165 
15.573307 18.911751 -7.316663 
2.612537 24.088869 9.040285 
19.598804 -8.257783 6.311505 
-26.692629 4.367516 -5.422915 
-10.593337 24.824612 -6.398873 
-22.555504 -15.742243 15.285795 
12.934426 13.333521 10.212993 
-31.097155 -15.921620 7.980728 
29.610189 -17.402117 10.407485 
0.930239 24.605427 -4.285676 
10.096088 17.344898 12.817973 
-20.873405 10.065352 -2.238457 
-21.956833 7.658432 0.070216 
3.769887 26.671768 12.309221 
-25.336620 5.764403 -1.823116 
19.499241 -9.711096 1.344111 
-21.256069 -20.890409 0.529612 
24.784283 -1.365449 13.080831 
-12.256064 23.971493 7.306158 
20.170454 -9.334521 6.221871 
-16.124857 28.514893 5.758860 
-22.389404 13.702212 -7.629528 
-22.902702 -22.429848 6.503712 
28.874273 -9.029237 12.300780 
-17.787870 6.633046 0.739387 
-29.694874 -6.915761 14.841967 
-6.349432 21.329124 -5.033805 
-20.520666 -10.727581 9.100053 
17.412212 3.049837 9.258986 
19.777525 16.274960 -11.085233 
15.086252 20.799259 0.782880 
29.940323 -5.511722 14.428339 
21.682367 -12.350385 -0.016736 
-16.178669 26.635275 13.757034 
31.078527 -15.038857 3.327802 
-21.307480 6.788229 5.212199 
-21.898680 -9.844149 2.610088 
-18.687065 11.196649 10.341037 
-30.479349 -6.299610 9.312952 
6.934325 27.790777 10.286755 
-20.943165 -15.896293 17.123705 
-5.138430 26.544207 5.873979 
30.159584 -15.489445 7.661125 
-7.827116 28.328560 10.469355 
-18.424446 4.072598 -3.421932 
18.708427 -0.261581 13.348003 
3.768499 33.160397 2.945263 
21.280706 -3.232726 4.425664 
-7.669623 22.934423 12.297176 
27.860634 -15.908772 3.062840 
-23.081175 -3.443676 1.628726 
5.167950 24.328480 -3.285697 
20.879032 -18.967346 5.562584 
-17.877354 0.481569 4.984398 
-14.672780 22.307072 -10.136891 
-17.742710 6.182920 3.459943 
-19.119425 -2.200439 -2.039784 
25.560553 4.897868 3.237791 
-21.507059 -4.896900 5.113407 
-24.287985 4.630415 -1.141035 
-23.408190 7.376968 6.553368 
-27.437939 -24.001923 9.526587 
13.683093 22.592037 -7.407691 
-8.397455 26.707687 0.567548 
18.447887 -6.307073 8.963894 
-28.445562 -8.371992 8.000432 
-17.750544 23.899208 11.653671 
-17.067579 19.830698 9.620438 
-27.506737 -4.571369 12.583055 
-23.804375 7.875761 7.591643 
-20.796909 12.315363 11.431733 
18.362316 8.295196 0.598774 
24.181122 13.021116 15.349436 
13.514319 27.443289 0.897882 
7.969040 22.896208 -13.984595 
-22.280581 1.708124 14.006716 
26.799067 -7.198957 6.527721 
25.908482 -8.668276 8.260026 
11.344127 26.394915 0.466782 
25.549276 10.229078 5.908473 
-24.334663 -17.988068 10.057050 
26.680552 6.849590 7.072759 
28.093241 -1.940376 11.809841 
2.458396 24.636211 10.803099 
-28.965910 2.818698 17.295124 
-15.462705 27.493752 7.382426 
11.411756 26.770983 11.189693 
29.554722 -9.514078 2.933571 
3.163403 21.857683 -3.687544 
25.231321 -20.487104 7.235091 
22.234940 2.322631 -4.454422 
-1.257156 30.694292 7.193592 
20.638336 16.523947 10.462625 
-28.177801 -19.357595 12.532622 
-25.010197 -12.377530 12.161038 
-29.275154 -20.319118 15.482877 
-24.136072 -20.811859 13.674813 
-21.020517 -3.634103 1.508462 
-26.884306 10.172946 5.582535 
25.286295 -4.913060 14.250800 
19.992620 -11.450405 5.857951 
4.203080 28.865219 4.935699 
-20.582001 19.866747 -0.635919 
-31.990345 -19.146631 9.050078 
-24.850033 2.935964 -1.034650 
26.345274 2.863228 -8.887376 
-17.398298 1.879760 16.163506 
-16.582443 19.721533 10.702875 
1.290576 33.283428 4.695220 
-26.617561 5.102653 -3.771209 
-20.301176 6.292385 9.129967 
-17.854521 -3.091413 -0.040198 
-23.668892 18.383680 11.566805 
-9.137442 22.547400 11.309964 
-27.450323 -4.865312 15.261353 
3.049734 33.179813 4.209710 
8.746680 21.804628 9.056282 
-27.023384 11.187053 5.748717 
-11.281418 24.426325 -3.755878 
7.042845 28.981329 15.998000 
5.979895 23.169775 -4.853691 
-19.852156 -11.211653 6.753021 
9.216332 25.409407 -9.232498 
25.915775 -4.615368 2.314009 
22.450287 5.661153 9.132667 
-24.347919 9.523450 3.991329 
-11.191036 24.177347 -1.843552 
-11.909154 17.045969 -6.528255 
-7.273447 28.149134 2.614758 
-9.050860 29.024717 2.983733 
-19.864283 7.051334 7.524013 
19.365253 -1.565137 4.292733 
-26.869110 11.202660 8.487304 
25.940544 -13.137818 8.327112 
0.606099 25.900743 8.287855 
-22.335077 -13.232145 7.230167 
20.736094 -12.830833 12.048264 
-21.788363 15.059975 -7.107047 
18.994383 -6.007658 3.518819 
20.489708 17.865152 -5.935793 
19.889439 -1.458977 -1.293482 
21.941597 16.710657 12.600636 
-30.375484 -9.622428 2.561332 
28.977371 -4.384969 -4.962077 
11.199021 15.347677 16.020735 
22.563904 -7.297440 11.944201 
23.700590 -24.892540 0.960402 
-31.669214 -13.259861 2.036583 
29.601074 -5.267033 12.835075 
3.502581 29.800325 16.197542 
17.071712 -1.230560 14.522839 
25.740967 -12.347284 10.963776 
-20.804379 22.889748 6.128585 
29.923357 -4.360127 14.648922 
28.776457 -4.684984 1.334112 
28.033390 -0.295799 -2.463773 
-23.454439 -1.826692 5.774647 
-17.907816 18.283184 3.703552 
-16.679403 23.223999 10.516106 
16.801430 13.832358 -0.622702 
22.899199 -12.792182 2.592348 
-4.298522 30.167355 16.142775 
-21.669592 -22.451996 6.043026 
-10.683268 24.489731 8.140875 
21.664999 2.670180 14.298697 
-17.642197 18.293375 12.450960 
8.125303 25.424917 5.868981 
5.628335 28.886126 -0.802755 
22.126818 15.536398 3.903976 
21.735405 -6.884393 5.787908 
11.383406 25.915703 -5.086565 
-30.064331 -12.600428 13.710402 
-31.084009 -16.946041 10.543434 
-25.440401 -1.482897 4.579463 
-27.893721 -25.959946 7.266273 
-26.817595 -0.389731 -0.218626 
-0.474765 27.311764 -1.260196 
26.591515 -19.811787 3.722768 
-9.273619 22.047663 12.323282 
26.737705 6.049160 1.828663 
20.505711 -8.223278 5.487968 
-13.265253 17.150883 0.139964 
18.323290 6.872970 12.595636 
-1.204457 18.077103 -10.353784 
-15.058228 21.536777 -8.725579 
-26.369648 -17.017286 11.520658 
4.040562 30.684853 11.031593 
23.672602 -2.859993 11.465086 
-23.032652 2.535577 5.641191 
-15.586449 18.342661 4.258071 
0.950978 27.419252 -6.760307 
16.226532 7.306960 -4.598470 
-20.969036 3.637975 -4.289453 
25.793728 8.926181 11.354407 
-23.622755 13.690958 -0.327057 
17.567329 -0.765522 18.843618 
-24.452801 -5.320897 6.984900 
-25.139856 -4.029809 14.850036 
-29.120413 -5.721684 6.745876 
24.881214 9.099179 6.962499 
23.057571 -10.617215 8.027020 
-19.177225 -3.579000 11.987585 
22.280575 -23.664240 3.945727 
-21.739056 -16.404490 19.667063 
-21.777691 5.952543 4.328624 
-21.150614 5.773977 -3.109896 
-24.415283 6.576866 4.467040 
26.692146 0.188506 1.068977 
16.826672 19.021992 8.639571 
14.895418 13.143756 -2.457427 
17.830940 12.899567 7.633988 
20.427837 13.342052 2.521694 
20.423847 12.841050 -5.897927 
-18.481131 18.272440 -10.589486 
-12.195787 18.265028 13.996930 
13.380128 18.457069 1.031637 
-26.445860 -26.079756 7.256552 
-17.462173 -0.308106 -1.475685 
22.607065 -12.747321 9.981205 
-28.701277 -2.894819 -5.656909 
-10.584989 19.961632 15.758252 
-23.162895 -19.930716 15.482669 
-22.290598 -16.018070 5.349559 
-30.686132 -10.003573 14.841886 
21.053473 5.969448 -4.617652 
5.036273 16.845457 -12.196795 
-21.695450 -20.690683 7.387722 
24.475096 -1.912351 1.290779 
0.417256 30.280657 15.942863 
25.576632 -14.068616 10.249885 
24.347231 7.784743 5.084469 
23.798046 1.210233 14.524008 
22.369297 -7.007621 -2.070852 
29.336090 -8.277091 9.559015 
-24.598360 -19.757389 11.483576 
-14.658987 20.626139 -1.629829 
11.447116 18.958368 -4.859820 
23.868631 -4.058740 5.978891 
-32.009895 -16.592684 -1.707096 
-2.977184 31.761923 0.419059 
24.627169 -4.253073 13.929980 
23.527084 -18.553364 4.140877 
-21.429798 -5.806336 0.439735 
13.132267 13.172462 12.186070 
2.557162 24.805923 -5.015093 
-21.476559 13.963004 3.378609 
21.858000 -5.855758 -0.169194 
-29.014223 -17.779644 17.579355 
-16.899279 19.804184 8.749448 
-14.744929 12.675047 14.179427 
-19.254593 5.464123 -2.450101 
-15.613209 13.764993 4.780500 
5.461180 28.443117 -1.659771 
3.943617 27.106941 5.587600 
23.365841 14.714892 12.928106 
24.168209 -7.179397 14.866901 
-17.912205 20.169073 -3.562078 
-17.802307 1.544138 9.502707 
6.778007 27.489803 5.823484 
22.746376 14.134942 -3.339914 
-22.956648 13.144164 9.964797 
17.291904 9.996861 -2.341975 
-23.040426 -13.720850 8.353579 
-23.616802 -15.720151 10.306022 
5.166769 25.567219 7.719799 
28.252241 -15.114677 4.088965 
25.154514 -15.323685 10.385005 
-31.701681 -17.664038 19.727579 
-21.233477 -2.547497 5.293349 
30.247112 -8.103659 -0.657368 
28.900486 -20.589952 11.307674 
-5.442283 25.599903 -4.164984 
27.521845 -7.401220 2.936612 
-31.260773 -10.448874 -0.312730 
21.354393 11.927928 11.843594 
-15.866700 4.499795 1.463470 
9.164282 19.632969 -7.099351 
-0.829053 31.731047 4.170398 
-13.462718 15.994383 -3.192513 
6.960704 29.167711 -1.294960 
-15.870299 12.048390 10.204919 
-19.431307 -9.320360 16.159035 
13.740151 12.607148 4.576043 
-16.413073 15.911792 8.742117 
23.215536 -20.338675 2.912674 
-3.439825 31.536966 10.057576 
-23.254992 18.994776 8.275040 
24.928675 -25.086033 6.955124 
-22.538647 -18.712223 10.936461 
-22.960333 9.298769 -3.607685 
-30.351706 -22.669418 10.519925 
-18.004944 18.144232 -4.823459 
3.160923 25.236774 7.478134 
22.837440 -24.181168 0.437730 
-20.056143 -9.725945 7.675663 
18.197943 14.957036 -6.389808 
-17.528273 -1.890360 3.494875 
27.117990 3.362056 -2.668926 
13.423538 15.572847 3.722543 
13.668733 21.292231 12.196727 
-16.078993 17.233809 -6.870083 
-19.351454 8.144686 4.292391 
-22.301939 -5.527737 14.809423 
27.999365 -14.017927 9.465102 
-29.126951 -3.357145 -2.880931 
19.819565 -3.413947 2.380623 
-19.687904 -8.941899 12.851553 
-14.268932 20.875961 -0.802375 
6.806975 23.354288 -0.973329 
-18.504025 18.367916 12.635790 
-19.596212 3.249422 13.197591 
13.983140 15.476324 -3.601306 
-18.503578 6.567829 3.470397 
18.338497 -8.097286 11.045112 
-2.991375 20.036474 -5.276125 
-19.427868 -6.622270 12.059531 
22.108980 -8.449631 5.281439 
-7.976433 27.389318 8.467348 
15.474313 24.294003 1.138163 
-29.428173 -7.418640 0.787162 
8.266111 28.112871 17.253180 
26.377335 8.245000 12.434935 
23.711809 -18.156538 10.546573 
5.725775 24.733082 -4.953896 
-1.150262 28.788195 6.024632 
-14.311862 16.442259 -5.045027 
18.562328 13.192368 10.029635 
7.784191 28.719990 11.324830 
22.045170 -1.097430 9.967443 
9.966425 23.865114 11.568566 
24.768463 9.774457 8.662066 
24.851643 -13.131745 13.605968 
1.587843 32.339123 8.745160 
6.883793 30.609047 7.400722 
-23.419781 14.882038 4.163265 
-24.891289 -3.759231 7.008602 
-20.879459 22.351370 14.819678 
17.013908 23.520430 12.720271 
-11.699353 22.531351 -0.572228 
15.933178 12.882445 -1.869807 
21.665726 -21.825861 0.213732 
-20.463396 -2.253090 -3.012140 
27.645597 -23.193773 10.863054 
-3.344219 24.642689 -5.441498 
-5.083970 24.051575 -3.618171 
28.371052 0.168708 6.792615 
-2.713127 30.341572 15.930347 
-14.785188 7.809313 -9.075036 
19.586226 -10.175194 19.360981 
-6.069804 25.946852 -9.481730 
-17.445581 -1.738102 -5.209903 
-22.009428 -21.571913 7.781432 
-17.475901 7.652541 9.005275 
15.421237 14.521914 2.187911 
-32.414822 -21.983469 7.253001 
16.439774 2.200385 13.105775 
-21.296314 -12.364296 7.405988 
-22.109709 4.518522 13.498352 
11.687316 27.696552 9.595922 
25.732304 -18.813662 12.899049 
29.097174 -19.225477 5.665121 
-20.630882 24.150295 4.757178 
-2.726125 29.940945 3.372825 
-28.594856 3.039850 10.453369 
17.000130 9.621782 4.299496 
14.343438 14.669952 13.504528 
22.250002 -23.185503 -0.108185 
-17.800631 3.053371 3.992226 
21.327091 11.505397 2.975288 
27.131149 0.782083 11.857061 
20.692381 15.129944 -10.561208 
1.829002 24.330240 8.590525 
21.640896 -21.205589 6.394154 
11.094511 25.657856 4.760636 
2.969320 23.021494 17.527658 
-7.399596 18.789177 -6.117433 
14.223176 26.737959 0.273789 
-27.919420 -18.291576 14.980535 
-14.291695 23.214325 -8.370661 
25.267057 7.662334 -5.732476 
29.832344 -2.275586 18.936838 
-23.557499 -3.074509 -0.154171 
21.241089 17.330170 2.990108 
-24.087198 11.376418 -4.955496 
-24.875807 7.069629 0.035064 
-22.839333 -15.864165 10.667399 
24.127586 -12.290218 9.107439 
23.890274 0.807170 10.690752 
-19.725521 -5.691708 13.102915 
-17.226154 20.063671 -4.234583 
-26.947405 8.860539 18.278124 
-8.779294 25.073587 -1.533719 
-10.732592 23.184875 -4.262835 
-24.534992 8.999527 10.637411 
30.385977 -11.188852 2.511783 
-27.742020 -22.734098 6.022490 
21.648466 -17.374584 3.885279 
15.625445 17.747301 12.546238 
-2.143658 31.714264 8.464225 
-28.749075 -18.824865 17.438541 
-23.065165 -6.481782 2.069266 
2.935435 29.525234 -2.181227 
14.488153 13.946059 -2.464758 
-25.425470 5.995605 -8.253504 
11.141236 18.395092 -4.277102 
-18.487886 11.247295 9.448179 
-13.738892 25.769129 -3.407630 
5.929527 24.253073 -8.001148 
13.625335 19.889870 -1.447096 
-15.968453 20.334961 -11.603354 
22.944872 -12.794243 17.811939 
-21.752977 14.384088 7.847126 
-0.567202 26.774309 -8.627544 
-12.915340 25.057241 -5.505597 
-21.584356 -13.053448 1.615804 
-26.690273 4.745406 -4.540978 
23.645733 10.630275 0.259866 
26.453827 5.443260 2.520803 
-10.143843 18.976202 -7.290290 
-25.616501 12.648852 3.635663 
29.601812 -6.800417 19.184597 
-22.124861 6.795593 -0.661105 
-25.252871 -0.275848 0.296440 
29.229013 -12.999114 4.414826 
24.339651 -23.363285 8.663184 
-11.772701 27.581188 11.436770 
-11.733464 13.350901 -8.847822 
-14.180481 13.687863 13.305572 
-15.228365 8.180861 -4.461945 
1.720003 30.410786 -0.358748 
-22.090321 -23.178305 2.552918 
-26.867544 1.807282 -2.529529 
-7.048237 20.183048 -6.326142 
-27.491493 -1.563620 11.697508 
16.771366 19.320644 -6.038474 
-5.847508 25.856379 -2.292337 
-18.714716 17.510132 -4.820487 
-21.912937 -22.997637 3.627594 
27.954651 -0.953863 5.219267 
-31.480148 -13.416909 -2.615892 
-27.044104 -3.647327 6.801000 
-21.481260 -5.346689 14.445693 
30.613266 -10.822455 -1.577686 
-32.152973 -16.161835 16.323055 
-5.295824 28.157885 13.134577 
-21.548969 13.123477 9.170004 
0.986558 32.365002 0.414074 
16.068665 18.768436 3.719048 
26.416691 6.750534 8.085999 
30.288757 -8.670402 2.527634 
22.707066 14.619026 -2.591030 
5.755301 30.050795 9.917256 
28.264168 0.744764 9.219190 
-13.902893 15.000148 -2.706686 
31.252510 -20.608484 -2.428755 
28.980371 2.948439 15.165786 
-24.700691 2.290285 14.071481 
-27.264029 2.083321 2.385439 
-29.346466 -18.553396 4.978795 
18.718187 1.120558 -3.460261 
-19.029371 2.089067 3.179150 
-28.201721 -10.397789 14.521463 
28.873602 -4.304161 9.466702 
25.904934 9.980968 15.114986 
-16.580273 5.162592 4.399494 
-7.818664 15.711019 -11.501521 
-23.525906 -7.979193 2.156085 
10.138524 28.926916 0.575416 
27.842731 -0.598450 8.076746 
-18.619410 -7.704091 -1.082451 
0.845819 19.516190 -6.593566 
26.969521 -12.234630 9.838655 
19.186369 -5.953456 1.758391 
10.807379 29.127342 8.457341 
16.505810 8.768438 -3.205784 
29.650864 -15.237842 5.783741 
15.848646 25.553635 4.657239 
-12.683892 17.426228 13.818726 
15.673583 18.894083 6.153094 
-27.338905 -13.736853 4.478901 
-12.891123 20.711775 8.214028 
3.465077 29.769211 -1.515280 
20.419817 12.036397 10.948360 
-24.154316 9.576212 -8.163464 
-20.872292 -20.424946 2.642354 
21.222626 -3.582479 10.715469 
-12.765869 11.285841 -10.112020 
-16.873142 15.509122 -7.275481 
8.083519 23.485117 12.980632 
22.933756 9.229758 2.655074 
9.758702 28.833038 2.322921 
24.539026 10.270344 9.493230 
-21.195406 7.950556 -3.811631 
-25.963772 -17.302267 13.595374 
-21.142708 21.626886 16.155359 
-13.468703 27.594353 16.237904 
20.243900 8.103060 -1.366315 
-19.351145 -7.187495 10.790849 
27.009182 3.959056 -1.746433 
-5.817701 29.958347 16.166084 
26.602615 5.103987 -2.039199 
1.775668 19.031019 -7.274260 
6.226461 32.464867 5.284798 
-21.147842 -4.548534 13.980616 
-18.910070 12.794276 -3.545165 
13.313031 18.118954 0.065336 
18.749287 -0.988208 -2.263194 
-22.703775 3.537646 -4.117771 
-16.839825 8.857029 1.800723 
28.818527 -10.219501 5.147421 
13.578571 17.219738 0.125895 
-20.423161 -11.111656 10.091262 
-16.307114 9.382510 0.144448 
-24.701626 -9.607683 -0.856557 
16.345572 19.914717 -11.831345 
21.016993 -6.596204 14.079050 
7.455421 22.173244 -5.074529 
-29.227205 -16.595911 4.827628 
-29.027889 1.203795 12.517991 
-21.015209 22.386799 13.548826 
0.449635 22.805851 -7.251532 
-29.509432 -8.200710 7.075459 
22.877327 10.929186 13.224780 
-28.396528 -14.197087 11.128349 
-3.050430 25.651918 11.573681 
-15.705150 4.622931 2.846735 
-21.390232 0.360406 4.529824 
-25.349810 8.198885 4.362900 
9.757481 24.821955 6.632604 
-26.269213 12.684357 8.151242 
16.495008 24.518927 2.805304 
27.062172 1.754351 -2.443978 
-12.504896 13.431740 -6.443190 
23.046606 -14.879379 6.291841 
21.486301 -21.199841 9.707054 
-0.496889 24.511965 10.377749 
17.777536 16.682503 -7.476848 
18.051062 17.337124 -12.715943 
17.071774 10.698313 6.726162 
-18.124416 3.993666 12.429240 
16.850224 24.252762 3.633700 
-18.460564 18.287886 -6.076831 
-5.472380 29.929413 12.865385 
24.580568 12.401381 14.517322 
-6.260492 32.482254 7.983108 
-6.080607 25.559898 -10.415025 
18.416265 17.968958 -11.462901 
23.441818 13.407349 4.127656 
-12.575151 29.882318 4.408321 
-15.338922 27.228659 10.619229 
-25.869629 -2.928654 1.436090 
28.805435 1.201512 12.559343 
-21.564646 8.808825 -4.351023 
26.868761 2.012344 3.320309 
-10.119742 23.466955 -3.108159 
-6.138457 27.584940 -2.923430 
20.109785 -11.397432 9.985469 
-25.250069 9.174255 3.570398 
-29.061275 -9.436857 0.541191 
-18.413612 -3.239182 15.877567 
-9.729009 24.776077 11.367809 
-27.060402 3.811332 -4.544865 
-28.349640 -1.885109 -1.391400 
30.417160 -13.824852 3.855351 
-26.508005 -24.289530 7.808647 
22.980804 5.041804 -1.770555 
-30.903439 -12.978602 3.939124 
-12.094176 24.346220 12.642563 
22.936840 12.891844 -7.823369 
-26.923714 0.658179 3.425698 
21.684965 -3.908045 8.868899 
30.771961 -16.930103 7.346170 
-18.691019 15.044583 -0.460343 
11.628987 28.625351 6.550773 
25.244427 -19.341526 2.809132 
13.984647 27.737926 -3.431459 
-29.258621 -6.869691 15.575088 
23.708324 -11.696737 -0.564562 
-21.459433 -20.848648 10.285778 
20.059256 18.197893 -7.763998 
-23.421768 -24.866390 0.368855 
-25.546520 -24.082691 10.320889 
-28.580246 5.845710 12.496005 
-30.943743 -9.379656 -1.020030 
2.866140 30.428061 3.429554 
22.626787 -12.438098 8.675407 
26.094868 -21.837347 5.250942 
-19.886463 3.544289 -4.279380 
-16.102482 9.342690 18.260960 
14.476023 21.253767 2.885587 
-9.330066 25.897617 -6.640214 
14.985201 18.097509 4.735430 
-18.800545 16.897709 4.404499 
27.995092 -10.938255 16.719896 
-19.465878 25.745527 9.709167 
-13.080230 23.979841 8.651215 
13.509964 16.215668 5.937243 
-26.805363 1.371170 13.893406 
-20.841515 18.315521 -3.063125 
30.552364 -13.960212 -4.278320 
11.095637 15.846848 12.517560 
30.498198 -9.470379 -0.955025 
24.225420 -22.368572 11.170341 
18.355743 -7.162830 19.194857 
23.028126 12.491038 9.628685 
24.108604 -14.117523 6.075738 
-22.459749 -23.131147 8.350471 
16.255417 4.439118 18.557291 
4.942095 29.552145 16.033873 
26.865234 -2.248619 10.597067 
-7.969463 27.769077 9.455382 
21.818668 -22.647301 2.840481 
-16.330414 8.321706 12.695587 
24.069162 13.022920 6.238567 
-25.704943 -12.032540 12.798815 
21.105545 7.471773 -1.428274 
-20.204477 22.916216 10.286997 
-29.591705 -11.297412 13.477588 
29.739262 -7.142577 2.702977 
26.437878 4.626091 2.755502 
-27.517441 6.269623 7.162417 
16.892467 22.437328 10.183304 
-26.176054 -7.288066 -1.020748 
-12.521772 21.291246 9.671381 
-25.339771 -10.312120 -0.532628 
-14.100426 9.741034 -7.760111 
-27.161322 0.017194 0.538015 
-26.678680 3.457305 3.084570 
-15.995087 17.045115 -3.713339 
-10.014317 26.038626 7.283956 
-27.552126 -1.006755 8.366614 
-15.117545 15.923752 10.494943 
-24.689850 11.195564 12.060199 
-26.037632 11.467961 18.136017 
-22.001186 -22.128042 -0.442970 
24.755949 -16.770412 11.961309 
19.313499 8.569335 -3.642893 
16.706606 3.294242 -0.485764 
-8.075323 27.695660 3.645990 
-26.067389 -18.622099 14.041629 
-16.373487 3.026669 -6.111179 
-17.974266 0.849999 -3.788453 
26.415047 -15.606149 2.795424 
-23.437281 -5.839252 12.352062 
18.318111 7.098540 2.764133 
1.542320 26.933210 -6.035519 
8.963713 20.643745 9.247672 
29.431108 -8.236691 18.105392 
20.160799 14.172722 7.405818 
-16.112789 21.108681 4.572281 
-5.556097 22.227631 -4.145895 
15.494933 11.534686 -3.497735 
-4.165797 23.448463 12.781169 
-21.030142 -20.660236 1.655587 
23.064295 -3.930785 13.558111 
-27.185223 2.378878 0.008550 
-23.755180 -7.408814 -1.343609 
-10.467533 24.842749 -2.547484 
-26.573883 9.420829 4.964669 
28.759245 -6.304542 7.399722 
-28.676197 4.947406 11.210065 
12.782585 14.335714 10.276429 
3.228135 33.049412 1.415263 
25.920191 7.341325 5.003711 
-29.076809 -11.312332 11.453593 
13.340199 26.784216 3.630225 
19.172064 -2.703903 -0.425798 
23.512600 9.278890 -10.609109 
12.674075 25.056671 9.917255 
-12.637642 22.912352 0.329869 
-1.118551 19.910156 -6.252640 
11.956917 27.987709 -3.556492 
-28.005718 -24.242392 8.539470 
-20.365046 25.422848 4.021068 
-16.846060 6.541492 2.914780 
-24.368912 -22.195751 12.338913 
23.886972 -8.095183 -1.771219 
-7.580399 32.350143 4.123897 
2.273052 30.458893 11.543967 
-27.346151 0.939522 0.660107 
3.425373 25.930988 11.910376 
21.646555 15.874825 7.298706 
-16.920393 13.209478 7.079628 
7.628777 26.600321 0.542285 
-17.989094 9.647509 -1.573982 
6.530108 16.964336 -10.209676 
25.984913 -9.864831 7.955588 
13.779746 10.966738 18.197474 
-20.845371 -15.925515 13.955638 
-16.405447 22.183289 12.649632 
-10.313285 29.184938 -1.075711 
30.671909 -10.483325 -0.244862 
-24.574936 5.873141 -2.424224 
13.504190 22.812138 -10.962389 
27.898722 -4.397915 7.093495 
-23.808411 16.622211 6.373914 
-20.294844 18.590618 2.501467 
-24.304508 17.075510 13.028342 
-20.644327 11.158090 9.062422 
-25.007252 -2.003215 -2.245107 
-19.995279 -10.022643 18.043013 
-15.120942 24.876949 -5.605546 
-23.410065 7.866632 1.008329 
-17.540257 16.731150 12.762804 
8.651792 18.918499 14.954092 
6.412347 16.368177 -12.102811 
-20.509331 -11.343538 11.422228 
-21.743694 -19.075378 5.229836 
13.639509 23.595068 -9.597479 
22.855574 -9.778837 7.389491 
27.875109 4.364046 10.486542 
-25.716667 -19.381401 7.913230 
10.778102 24.647806 7.098841 
-27.795366 -0.757365 -0.680990 
20.422417 0.672093 -2.360509 
-23.708559 13.247168 -1.191430 
-16.081575 19.526392 -5.477721 
21.117453 9.089041 -2.856627 
-27.534208 -13.220412 1.799050 
0.389383 23.621201 15.589923 
20.067268 20.942261 -0.161611 
-1.208502 32.715172 3.029855 
22.313551 11.037124 9.857775 
9.757118 20.905890 -3.487815 
-16.031580 4.360217 -8.068386 
-20.573021 -3.268446 -0.092300 
-16.260529 21.994081 -1.329924 
3.376253 31.659704 0.698132 
21.206499 16.470116 2.540051 
-15.658625 25.604713 4.363449 
-20.872253 5.951962 8.363442 
20.658535 5.899472 10.079442 
16.784542 20.244753 -4.674165 
24.977028 8.435852 -5.996882 
2.065204 18.287321 -9.282570 
18.498058 20.971256 16.018288 
-0.135685 28.656870 4.509132 
-32.280891 -19.903669 -0.767837 
-24.855196 -25.243814 9.426735 
9.698233 23.992682 -1.447307 
1.616207 24.059196 -4.471086 
18.595304 -8.057704 8.181861 
-28.832262 4.669142 14.844619 
-20.346451 -16.689709 3.465584 
-15.815602 13.988736 9.728363 
4.900360 27.037746 5.525730 
17.892260 0.930969 5.976446 
-22.953856 -13.783759 6.496744 
14.243946 23.949833 -7.354304 
0.025783 26.984125 -3.671528 
-22.755180 7.775039 0.485047 
17.021616 3.524478 10.170782 
13.712638 27.812153 -0.183091 
28.721764 3.642154 8.714289 
-8.951334 23.100866 10.487504 
20.941559 -3.547021 8.493217 
-14.515727 16.335135 2.072034 
-11.450065 26.298855 2.759742 
-2.644637 25.743582 9.951943 
-14.627754 20.066383 1.662390 
14.330013 18.114771 -4.654701 
20.141426 -6.665762 13.741505 
-23.548882 -24.533361 8.619870 
17.571198 2.153982 9.385034 
-23.371174 -3.332514 6.606060 
-27.889706 -9.128205 15.907023 
-26.672939 3.827595 13.624052 
-27.512360 7.133387 18.372288 
10.309237 26.572489 3.286389 
-7.330900 17.340919 -8.700659 
4.137728 29.319235 17.183548 
22.204363 -13.473040 2.828497 
-19.925774 19.291273 1.863467 
-17.981821 -4.500825 -1.739991 
10.442699 27.054787 -3.235243 
14.790103 12.303567 -3.299702 
22.876993 10.116653 -1.012061 
-14.665906 14.374364 -6.364179 
-18.514753 15.430231 3.979259 
25.993841 -10.848382 8.225795 
13.389926 18.787453 6.199651 
-17.162237 20.705290 4.377038 
28.691055 2.733766 8.639129 
14.188939 14.586427 2.253511 
16.004274 23.771210 -3.203769 
20.342648 -7.500089 -0.346412 
-8.392655 22.446825 -2.524434 
-15.791357 12.821587 0.427166 
22.189903 3.807198 14.220441 
13.604820 22.761566 2.981343 
15.811231 18.042671 7.721220 
-27.014330 10.478522 13.171415 
28.938723 -9.572898 18.040371 
-19.230062 -5.856368 3.405419 
-11.530265 21.857000 -5.503020 
16.828785 2.680739 10.106392 
-28.130789 0.588243 5.414461 
26.784113 -22.878418 10.502851 
16.990105 10.511627 8.017065 
-25.854445 -11.312531 -0.001011 
15.225560 17.668255 11.594625 
22.357239 -22.120588 6.374086 
15.690753 7.038468 10.603605 
-23.735620 -20.139137 12.573548 
-22.780855 19.931595 13.172671 
16.956270 18.263269 -4.546795 
-26.474716 0.187659 3.974425 
23.968235 14.365604 1.766249 
23.567652 14.135442 14.762201 
30.520540 -9.181687 0.131068 
17.371735 -1.742862 17.164999 
-16.995708 0.287686 -5.763975 
24.113865 -16.028088 7.761900 
9.519790 29.921951 3.413905 
0.451889 21.063141 -4.606337 
-23.478312 9.820822 -2.465543 
-11.833972 25.042725 5.384157 
21.135256 11.188995 13.522327 
16.387682 23.287189 16.360252 
19.579008 8.728596 -1.754473 
-21.023695 -3.728874 7.281363 
