22.832781 -14.442744 -1.459427 
26.477795 -1.464073 3.220373 
18.087187 17.455235 5.255954 
23.187458 12.565140 -5.123856 
-16.312590 -1.052877 -4.216189 
-18.642115 18.319736 -3.913189 
21.045374 -5.937234 1.240574 
8.093589 26.736446 -4.432923 
-20.022276 10.265524 -2.368523 
5.316722 25.360556 3.343593 
-12.950233 24.500175 -1.633323 
-26.850840 -7.957360 5.143458 
7.182297 25.765968 7.096903 
2.378149 27.696171 -4.405087 
8.408815 27.339100 -1.466317 
25.594938 -15.341250 -1.958436 
-16.691414 16.815544 4.353566 
-9.741852 22.669708 6.833423 
8.233176 26.423590 6.707534 
16.333595 1.769442 2.390949 
-6.880798 18.090513 -6.032586 
-27.254498 -9.836749 5.696627 
22.780254 -6.343515 4.964183 
11.079311 25.737350 5.686968 
10.961518 27.378952 3.531853 
-25.939318 -7.188709 5.309373 
-17.428730 11.445215 5.055098 
25.243717 -14.911994 1.116658 
-18.285393 20.500418 -2.084548 
-15.967457 17.190378 -4.795142 
-14.002751 22.127853 -0.261232 
-16.519762 21.564697 3.098006 
16.686365 14.288298 2.360895 
-9.358201 24.717194 -0.551677 
-17.357586 5.306153 -1.566822 
-23.168196 9.307983 0.906065 
-23.286625 12.194444 2.867891 
15.772829 21.334957 -1.727823 
24.458471 -3.513003 5.699729 
26.200024 3.838571 3.724974 
27.134211 -6.361831 7.052772 
-9.604013 25.511574 0.235661 
-24.018995 5.239032 3.265168 
-6.092062 27.314423 -4.205144 
-28.085814 -10.546546 4.602425 
23.619965 3.625832 -2.060210 
-18.199297 -8.969327 -3.284761 
23.579493 0.034381 6.817073 
15.536325 11.427908 0.783286 
-11.678474 20.178135 -2.645070 
-24.290846 -8.667790 -1.700992 
-25.519238 -6.700872 5.481551 
-22.909964 -11.164307 -1.704824 
-20.069878 15.919052 -0.908299 
16.378424 2.440013 -0.893221 
16.016203 15.833296 4.510005 
7.069781 23.531300 2.336916 
10.717647 22.083822 3.397612 
23.373205 8.971035 0.940454 
19.235798 21.083336 2.312715 
-27.375523 -6.094847 0.405629 
-16.248079 -0.116725 4.853357 
4.410944 28.541298 5.028646 
23.068451 11.215371 2.868215 
-24.722805 5.580951 -3.134533 
24.707676 -3.798651 3.386499 
-7.877402 17.322256 -6.006225 
19.626471 21.085365 3.850730 
-24.126511 -10.257006 -1.632323 
28.966549 -7.774089 5.531316 
1.884929 24.624434 3.983724 
-26.784544 -6.880492 4.640810 
-18.309044 20.636387 2.246752 
-17.097822 21.516205 -2.603734 
9.399684 27.216446 -0.622860 
15.803112 20.268509 0.813081 
-17.276518 13.799044 4.802622 
18.972383 14.762342 2.090188 
-28.567083 -5.640203 0.471606 
23.303988 -14.826223 3.066862 
6.968067 26.430456 -2.733289 
25.364470 -8.415892 6.976415 
19.895308 -8.520865 2.020658 
-23.324947 11.272434 -3.455035 
-18.650410 -0.900123 -2.520861 
-25.841055 -11.768804 -0.602502 
-21.100443 -4.153061 0.139342 
3.391977 23.041519 1.312364 
-19.564966 3.196512 6.029964 
-22.715174 12.664566 4.976760 
-20.042494 0.671200 6.002849 
29.251637 -7.025175 4.864225 
-27.237112 -4.481550 1.499780 
15.680291 8.750777 0.671501 
14.942466 20.017464 2.148241 
-14.268712 15.831800 -4.228562 
-19.314743 19.120794 2.559470 
5.450259 26.977673 -5.072742 
0.255909 26.046574 0.880384 
-24.860321 -5.167617 -0.751026 
-28.953707 -6.935788 1.072352 
10.827545 23.468296 1.320150 
-15.941793 6.427883 1.481663 
22.684437 5.432986 6.930948 
31.190725 -10.588750 0.897141 
16.261894 1.761654 2.947168 
-8.553601 26.216675 4.191231 
-2.979169 25.612846 0.156225 
-8.556332 25.651829 5.811599 
-24.577192 -12.117685 -1.022918 
-9.866791 19.555344 -0.320359 
15.575830 20.835917 5.487764 
-18.185379 14.881930 1.672424 
-23.334543 -0.938978 5.573753 
-11.139441 23.595060 5.987908 
25.154272 -9.375150 5.879820 
-22.277016 -4.123088 6.222010 
-26.753359 -4.083337 2.530588 
-22.289721 6.312453 5.063414 
-21.581125 1.394284 7.346975 
-23.069138 12.481603 -1.296361 
24.342583 -6.682634 5.756310 
13.585468 21.325655 7.414001 
-20.248430 9.087998 -1.940020 
-19.778988 14.210174 -0.105599 
10.083104 23.248583 1.373417 
24.534489 -2.463236 6.175586 
23.673122 -1.550410 1.320495 
-24.447428 1.484525 4.972896 
20.339777 4.491685 0.647735 
23.941313 -1.005383 6.270198 
-14.512941 5.502402 4.504836 
26.610304 -10.080819 6.811150 
-25.220652 -13.452503 1.457729 
17.860960 6.880308 2.849256 
22.913843 -4.024070 5.296818 
10.117701 17.576630 -2.724468 
15.907804 9.057274 -0.830126 
-18.997416 -8.325418 4.691598 
24.710821 -12.639491 7.275231 
-22.732235 -6.492110 5.383857 
-19.059692 -9.950648 -0.511619 
3.106121 21.275087 -1.904553 
-2.915545 28.202917 3.234761 
-16.447882 18.344238 -4.744403 
-26.180840 -4.594159 4.696903 
16.810833 13.035282 0.878174 
4.332468 23.761066 -2.029522 
-15.768032 19.086796 -4.570695 
-11.747708 21.108965 5.897213 
26.372501 -7.905630 -1.623980 
7.541322 27.598667 2.292127 
-4.454843 26.275948 2.975042 
17.591032 21.424984 3.054159 
-13.092833 10.028724 -5.673967 
-23.074629 -12.781676 4.874098 
-20.434807 -3.979941 1.915279 
18.837887 0.540465 -2.471614 
18.531305 13.439564 5.002544 
-18.668953 12.023643 5.365458 
16.515692 15.304696 4.538534 
26.015017 -0.327599 5.441629 
27.270258 -5.467219 -0.552660 
17.448002 20.783592 1.649781 
11.530927 24.889818 2.451982 
-15.764305 11.496282 1.121571 
-14.163946 23.619125 -2.735750 
-5.872618 19.252102 -3.195593 
-23.671352 4.766730 4.021308 
-19.150465 3.034740 -2.607469 
0.376114 22.484158 -0.027743 
2.553735 21.592110 -1.521689 
-22.413250 12.817868 -1.308319 
18.196424 13.299331 1.863750 
26.159788 -10.468859 6.877851 
-27.207382 -4.231454 -5.100001 
23.699457 -11.935530 5.049507 
-14.474150 12.532596 1.406450 
-21.351875 10.731706 -2.230423 
1.758936 25.337383 0.229078 
-15.632383 20.692440 -3.483729 
-22.420588 -4.384953 1.874913 
-19.378942 13.920831 5.947024 
-16.984888 -3.610701 3.241826 
-15.572788 14.064715 1.163492 
-18.439005 -6.292170 0.806870 
-21.194857 -4.305982 -0.634948 
11.651586 18.413280 -0.059529 
-10.561587 24.163965 -1.111838 
-18.896883 15.406670 2.223031 
10.265512 25.724588 5.945001 
20.521677 2.090219 4.413152 
12.088369 23.830463 -2.316178 
-15.588996 15.663127 -4.380037 
-13.943954 20.030216 -0.018589 
27.854038 -5.385928 0.287853 
-21.491169 -3.054898 1.957517 
21.173830 18.733227 -0.897964 
-28.941721 -10.175545 2.107539 
0.985842 27.590614 -5.170897 
21.585768 3.798947 -2.393981 
17.404087 -1.182969 -1.620844 
10.537258 23.097105 -0.791067 
-10.839289 25.569773 1.872203 
1.071350 22.526117 0.027276 
20.241360 7.201906 -1.044350 
-7.301257 23.252512 0.259676 
-18.850193 8.747871 1.979863 
28.875921 -13.448371 4.195188 
11.651785 24.071589 -1.093684 
-28.298950 -5.966570 -2.390756 
-23.265926 0.749956 6.639464 
-15.899660 20.850348 5.922880 
-13.263741 15.156371 1.435967 
-2.477972 27.522270 -5.491967 
23.181915 -5.207012 0.630612 
25.236235 5.642535 4.661269 
-28.775452 -8.149481 1.929188 
21.023844 10.033560 6.256512 
-7.521035 17.743946 -4.385177 
6.444969 27.663145 -0.748487 
16.863668 22.472759 -1.407190 
-27.464663 -10.500681 0.104376 
-2.645238 27.026840 -1.209486 
-17.978149 3.124968 4.704570 
-23.528973 -14.175754 1.928333 
-20.616446 3.647822 6.753963 
15.107037 16.426424 1.843750 
-25.258850 0.557610 2.878649 
8.961851 27.580769 1.714632 
23.057440 -11.595945 0.532206 
9.055143 25.984213 6.398386 
18.741232 2.384028 0.355181 
20.688307 -10.357062 -2.610013 
11.500687 24.665569 1.479694 
-23.738308 10.341861 -0.644891 
-7.052866 23.815350 3.253882 
19.275570 21.105062 4.243233 
16.768234 -0.459600 3.161912 
-15.074669 15.258701 -4.152077 
-13.554023 10.561731 -2.074345 
28.620665 -13.864359 3.041567 
20.908619 14.206298 3.029134 
10.874918 23.707602 -0.198546 
23.226347 -13.759683 5.544898 
25.882229 -1.632076 -0.515033 
-24.246403 5.356574 1.500675 
-15.295597 19.178864 -4.464514 
-25.046591 5.262345 -0.084941 
-8.584002 19.760303 1.061909 
11.150060 21.841942 3.627856 
18.990082 13.573312 0.291878 
-14.084762 16.211836 0.325419 
-19.843538 -4.346986 4.809656 
6.508412 24.113888 3.424556 
-15.862366 21.750092 2.857700 
29.737034 -12.504890 2.732265 
14.566667 17.068718 -0.869517 
-19.033974 20.132071 0.382833 
18.328896 21.486725 2.739330 
11.569082 20.114170 2.596741 
13.123227 19.774399 4.407104 
3.858629 25.302805 3.897399 
24.470676 5.842956 -1.194966 
-20.335712 -3.727896 4.589934 
21.533241 -5.602170 4.839756 
6.445814 27.116709 1.336573 
22.949759 12.228335 0.039082 
-19.536831 5.894335 6.888675 
26.150030 5.618096 2.636160 
17.995499 7.709610 1.683315 
-16.513853 -2.248441 -3.220715 
-12.549093 20.840380 4.337720 
15.152161 8.745477 -4.013429 
11.551078 21.717144 4.063566 
-18.204355 9.190127 -2.024718 
30.677683 -9.825991 1.425807 
7.059261 27.045198 -4.121331 
-10.218475 20.150702 -2.951765 
-16.663515 14.450791 2.507690 
22.907259 -3.880221 1.741842 
19.342205 -1.508254 5.447813 
22.950699 -3.420829 0.386730 
6.068379 24.976566 5.804889 
3.252179 25.959295 6.043348 
-24.152294 -6.538616 1.726563 
-3.473603 28.025904 -2.207315 
16.913490 11.225671 -1.941107 
-22.454729 -13.132192 4.476099 
18.495005 21.088114 4.658208 
22.127396 -11.992556 4.614383 
-28.136732 -10.985095 3.126741 
18.193392 -3.272256 -1.615254 
17.400522 21.915943 -2.731784 
-3.974658 25.971006 5.147041 
14.206763 20.184000 -2.264478 
26.713772 0.648696 4.585490 
13.808736 21.266176 -2.654814 
20.854038 -9.556699 4.135199 
-15.374899 0.261898 4.572659 
-15.564708 4.526230 -0.115986 
-16.846399 14.041684 4.687202 
0.204928 24.985666 5.858541 
-25.155066 4.245611 1.007164 
-16.367764 18.008425 -1.434269 
15.847054 19.001638 0.146794 
-19.724571 7.453253 -0.354015 
25.902311 4.007614 -1.111938 
20.265203 20.258043 4.026332 
21.045887 -12.870567 2.062326 
6.514409 23.568254 1.722535 
-1.173123 25.363588 -3.508391 
28.635746 0.385789 -1.557648 
11.019798 26.086117 1.784709 
27.039164 -13.226144 -0.701717 
2.127000 21.362226 -2.439113 
-2.071595 25.233955 6.023601 
-20.119692 1.101616 6.282688 
-14.941154 0.408633 1.715986 
-13.841223 18.991899 3.629424 
16.758255 0.670789 3.787138 
20.245653 20.593836 2.080855 
-21.058657 7.105337 5.539164 
-17.050306 -7.525483 3.993803 
22.775743 -0.189338 6.087355 
-14.762715 22.622459 -1.534668 
1.474755 27.144983 -6.408737 
24.061537 11.544623 -1.978449 
24.598997 -0.814468 6.270860 
24.922646 -2.641493 0.331337 
24.667168 -16.135180 1.755868 
-20.572506 15.753488 -6.158278 
24.934978 -10.706896 5.431654 
15.483369 7.725936 -3.876797 
-14.506971 3.008086 0.953100 
-20.834360 16.111921 -3.282075 
-18.733780 16.511347 1.334267 
-17.055563 -7.137576 3.686414 
14.023740 18.931479 -1.140841 
6.442618 26.243458 0.326795 
21.532011 -2.868765 -1.339221 
19.401033 15.142722 4.664962 
16.848629 20.899059 4.690682 
-24.140217 -10.464954 5.840577 
-2.642037 26.776779 -1.706050 
17.162191 21.920609 -0.186460 
-2.413714 28.026278 1.869260 
-17.074772 7.554976 -0.315923 
-9.007501 21.643972 3.787845 
25.140112 -2.484262 5.608992 
-23.303391 -3.420622 1.255742 
2.221854 24.695850 -2.578444 
16.970732 10.402245 0.918509 
-21.415991 -4.332206 -1.101401 
0.338859 25.887718 6.568120 
-25.719454 -10.858738 -0.911735 
8.273078 25.077248 5.448858 
15.859211 22.263794 3.228647 
-20.421913 7.508863 5.543017 
22.590733 8.130184 0.933649 
-19.543232 1.879463 5.657644 
-8.447403 24.138937 -1.209072 
26.096216 -3.067616 2.401846 
24.027508 -6.150818 5.534437 
28.818102 -8.065842 -0.251046 
-15.724999 21.705093 3.378689 
11.894290 15.184821 -5.497479 
19.473738 20.510105 -1.469685 
15.969450 3.635593 3.444891 
-21.357109 8.143417 5.085819 
-17.937605 7.320594 2.634132 
-12.390656 16.366230 0.072776 
17.655930 5.529703 0.795905 
-12.770964 15.518055 0.569317 
-0.901648 26.676048 -0.576622 
-22.012505 -12.118027 0.890097 
16.633310 1.242148 -1.159506 
16.063225 5.075677 -1.503617 
-8.642401 16.616476 -5.979100 
-13.106486 23.751913 -0.845125 
3.061107 22.703135 -1.552347 
-24.538784 -3.834517 5.828602 
24.385023 -2.591696 -0.558782 
21.147610 -12.740768 1.231493 
-18.499876 4.104686 -2.513856 
10.976620 26.687288 -1.488723 
21.731892 -4.760191 4.573003 
-14.958131 21.742344 3.564332 
25.367371 -2.014505 4.707958 
-14.648101 17.498167 -4.611916 
25.321945 -8.769011 6.632448 
-22.170307 -0.163794 6.712343 
-24.033373 1.614656 5.801305 
-20.500940 -9.747604 -1.990386 
-21.706078 13.404469 -6.040719 
9.705219 26.555332 -1.162665 
22.918764 2.156349 6.513570 
-13.292983 9.573705 -5.650820 
-23.298166 5.905418 4.099257 
21.676580 2.676387 5.608945 
0.525271 25.625565 -2.832486 
-0.010733 26.716267 -2.436781 
-17.332621 -7.439475 2.056902 
6.071856 24.423985 3.366503 
-19.073633 7.832911 4.826437 
-2.839650 24.334023 -0.420452 
-23.716240 -15.074445 1.322825 
17.020851 8.551536 4.285978 
-22.558790 -10.079593 -1.952204 
15.945044 21.787323 2.655743 
22.128744 13.229664 2.518717 
-17.493526 20.099092 -4.050254 
20.803654 12.658974 6.070264 
22.144596 13.317795 1.239091 
-22.893715 -1.772266 2.145820 
27.489876 -8.988126 -1.195234 
14.552771 19.074959 4.664427 
-15.576638 21.806656 0.900911 
27.240631 4.308913 -0.365646 
0.249444 24.794374 4.624234 
25.577251 4.963791 4.687281 
21.163984 3.952673 5.472594 
25.548405 -15.347530 3.324341 
8.906752 27.615067 3.919529 
15.535341 23.077053 1.719156 
26.850107 3.627791 2.291153 
22.809082 -14.356450 4.021988 
-18.734322 11.514766 5.415227 
21.447857 15.649540 2.472623 
-25.483257 -3.618417 0.380420 
-17.518404 1.570708 -2.805932 
13.753421 25.006037 2.674475 
-22.176889 14.028111 -2.840711 
-12.472839 24.244261 0.430903 
13.382586 21.774515 -2.752333 
16.915758 19.736208 1.875589 
21.592510 -11.187491 4.407120 
-0.028393 26.001438 0.380538 
14.836664 12.021729 0.603841 
-19.641518 0.338650 -2.558872 
19.647589 -6.908349 3.829520 
20.609652 9.185661 -1.976374 
22.581753 12.784247 2.200014 
5.718816 27.210234 3.130243 
-16.931337 12.946669 4.706059 
-7.319954 20.149372 -2.290801 
18.508707 3.979481 0.664838 
-18.836634 -10.203856 0.313425 
26.269867 -12.553327 3.540061 
-14.843177 21.125372 -1.698259 
-9.396489 25.804903 4.676659 
-20.696663 14.942382 5.427396 
8.262478 25.167488 -0.452552 
18.298573 17.973898 5.219828 
-13.863121 4.305779 2.392524 
4.433007 22.398779 -0.441508 
22.939857 -9.552041 4.601319 
-21.599630 14.599558 2.754402 
-26.755569 -10.502394 5.833095 
15.359159 20.434101 -1.957930 
-24.851604 -9.697323 -1.469324 
14.175752 24.505394 4.249924 
5.257364 27.447857 2.333281 
21.429426 12.172038 0.639473 
-10.004914 19.649979 -2.676257 
-14.958203 11.681750 1.491009 
20.747299 -12.192301 2.062587 
-26.538235 -4.483186 3.909477 
-23.838465 7.235193 0.410399 
6.876152 26.844002 6.605680 
5.915765 26.677959 3.729619 
21.703266 -6.308198 0.155795 
-25.963749 -8.136658 -0.983285 
-10.359170 22.629442 -1.088397 
10.101664 22.157177 -1.274866 
-3.917615 24.037579 -0.653561 
2.108340 27.554165 7.207239 
23.844646 -11.068711 -2.258683 
18.002071 6.974189 -0.172266 
21.729961 13.640161 1.240336 
18.822445 -2.216564 -0.534607 
-16.067976 21.883224 0.010645 
30.365471 -11.239463 2.548573 
-11.114787 25.038355 3.226322 
11.799835 17.884747 0.721865 
16.972740 -0.223767 1.785139 
27.499491 -15.361609 4.560598 
-24.126667 -14.062398 -2.843091 
-23.541246 3.898734 -0.849767 
-20.787079 -2.591653 6.393898 
2.075160 22.345526 -0.401686 
16.874769 -0.281935 2.323292 
28.618252 -13.187414 0.286589 
19.521151 20.366087 -2.014498 
-17.107580 0.657801 4.421585 
-14.273402 20.399893 -2.190285 
28.612671 -0.926591 -0.370427 
22.097427 2.308566 5.732994 
12.335385 24.246157 -6.026894 
27.399023 4.100487 -1.126543 
20.783419 -10.311815 -3.184219 
-27.546320 -3.750964 -0.163507 
17.858160 -0.079177 -4.476144 
10.733165 26.002714 -4.008895 
19.695301 13.373187 6.057752 
6.904661 26.120525 -6.243051 
27.238686 -11.348997 -1.145123 
16.812307 5.504020 2.497420 
18.582804 15.070699 4.736432 
11.544881 20.840462 -2.434037 
-23.376379 6.576828 2.493961 
24.258585 5.160986 6.229042 
-27.207150 -12.070543 1.669496 
-2.673023 25.493389 5.409605 
-15.407678 -1.345560 1.787418 
-17.565641 0.345271 4.425649 
-15.258133 5.533771 -0.037756 
26.531628 4.837405 2.710744 
20.391754 -9.888875 1.138346 
-18.857588 3.568287 5.880364 
5.975086 24.697790 -2.056562 
-20.892834 16.068167 -4.197397 
-15.281109 14.107512 2.453363 
14.557064 22.511703 7.105315 
1.601991 25.576954 7.288454 
22.680405 -14.595045 -0.695162 
16.394131 22.936111 -2.571089 
15.034323 8.750741 -3.088357 
-12.202214 21.997726 4.889357 
0.344645 26.903160 4.136244 
-20.626293 -5.427348 5.529460 
22.448919 9.031323 4.062572 
18.398304 14.336227 3.144701 
-12.791274 12.486305 -1.737676 
19.743380 19.761637 -1.378632 
14.071793 12.045079 -3.745948 
28.342840 -4.780193 2.016922 
18.340481 17.698887 -2.564747 
-22.397921 5.370050 -1.062420 
-12.630264 13.491836 -0.822535 
-23.601068 -4.475745 -0.864511 
18.318438 3.402032 -2.314524 
16.446903 18.981165 4.446769 
-15.781993 -2.433918 4.757937 
18.058001 6.844212 2.239806 
-22.894182 9.237340 4.122991 
25.447285 -11.159636 6.861019 
16.059439 11.928025 3.814283 
-13.799285 21.549532 1.640008 
-11.999010 21.145720 -0.393605 
10.311795 27.128731 1.417431 
10.822604 24.637922 3.088964 
-11.012691 19.119547 1.774800 
17.920420 18.668381 5.194693 
16.645372 21.939552 -4.816792 
-20.697550 15.353342 3.487228 
18.699957 8.417871 5.156317 
-23.357916 2.715256 -1.169929 
10.007938 22.809076 1.607542 
-14.946372 4.367561 -0.077816 
22.931696 -2.611375 -1.688636 
-15.296127 18.035313 -4.731006 
15.764151 14.670486 1.528850 
-21.592733 -13.706812 3.215277 
19.601068 -2.255802 5.471951 
-15.373061 16.211519 -4.582868 
0.302244 26.439178 -1.853180 
-17.768036 16.416737 4.739619 
29.309719 -13.193767 0.868433 
24.260403 -6.972741 -2.076416 
3.273328 28.030325 -1.162748 
21.822044 7.385366 2.041695 
21.846870 8.692000 5.143630 
28.265545 -11.098105 -0.587755 
20.247313 -4.987722 3.161719 
18.443998 19.163620 5.155457 
14.032317 20.723650 -2.492165 
20.488079 13.806347 0.693293 
-13.723315 14.287945 -2.485986 
18.352665 -3.456074 0.384310 
-1.783952 26.084349 7.993876 
-22.244181 13.499757 -0.203543 
-22.176296 9.653770 -1.592804 
-3.671059 19.879700 -6.076811 
-18.882441 4.116746 6.030255 
30.744829 -7.897073 -2.547553 
-24.832766 -10.946813 -1.272065 
12.598385 24.935402 0.030771 
18.383638 20.805731 -3.679029 
-17.287895 6.614213 5.383732 
-18.642431 19.775408 -3.208865 
26.374874 1.399960 5.314964 
-14.348713 19.993710 4.775454 
-25.491051 -4.617177 5.596336 
-23.644205 -15.124579 1.874680 
18.667366 -4.297262 0.358922 
18.426018 -2.123726 -4.343801 
2.991144 25.725498 -0.527677 
25.116394 -4.243107 4.981556 
21.079765 14.092243 2.213807 
9.432530 18.903826 -1.158852 
25.010521 -15.903111 0.296927 
-20.373064 5.141263 6.974010 
-15.556091 13.888928 -2.534950 
24.987133 -12.514452 -1.720374 
14.600483 10.519439 -0.818670 
23.820856 9.039311 1.297066 
-28.217806 -8.421739 -4.870757 
17.799213 3.187263 -2.242705 
26.286856 -15.996257 0.671228 
-0.036247 27.081944 4.660098 
15.383245 22.268940 -2.321646 
-20.888113 0.485778 6.949653 
-13.705808 23.918480 -4.823940 
-18.169554 -8.955818 -2.725639 
23.203833 -4.687681 1.783131 
-20.919527 7.884524 1.828438 
-19.291803 7.126137 6.374672 
-7.474810 17.696642 -5.163820 
15.432538 10.342863 3.685638 
16.794239 22.195143 -3.883466 
21.625315 18.827225 0.844546 
-14.169536 4.439575 1.927768 
-20.423967 16.816378 -3.394960 
10.515162 21.497688 2.504089 
-16.886509 21.406378 3.470507 
26.531403 2.573203 -1.001179 
20.885323 -12.522191 2.487318 
9.855270 27.669489 2.702113 
21.072222 -12.762785 3.050607 
-0.424633 26.935011 -2.747836 
-8.945675 25.261215 0.277372 
16.395247 4.307109 2.046215 
22.025593 -9.381632 4.517724 
-12.197539 17.929520 0.105804 
-15.042304 5.959080 -0.761509 
-10.978745 25.160131 -1.526230 
-7.432625 26.954435 -4.265032 
18.505789 10.292111 -2.342617 
10.165231 27.470798 5.300564 
-7.102718 22.726660 1.805363 
1.982884 27.643896 -0.925637 
19.372608 -3.544310 1.232239 
-18.096888 0.850876 4.230362 
15.633079 23.160002 0.275342 
-12.747539 18.567757 1.110366 
17.680777 9.901005 3.861799 
-21.324541 8.983400 1.469955 
-11.127335 18.282469 1.301922 
-13.808041 8.320842 -5.586390 
-21.769821 -6.739492 5.075578 
-2.144165 25.607206 -3.295742 
18.409506 10.334796 5.041376 
-0.484956 21.292107 -2.763618 
21.982391 12.492180 4.580598 
17.272089 -1.289330 1.798362 
-14.932814 3.633857 -1.336712 
30.963392 -12.085020 0.343123 
22.606604 -8.122598 -2.436598 
13.316967 22.703182 7.581358 
28.432234 -7.621912 6.149265 
-12.783913 23.830397 -0.107879 
25.409449 -0.124811 -1.495311 
-22.431927 -3.633569 2.035158 
17.470547 20.669739 -5.715400 
15.529079 11.611360 3.867088 
-16.719286 6.024104 0.025763 
-24.968910 -0.062962 3.301869 
11.823822 25.151365 1.554766 
-14.985665 22.730078 -2.137370 
20.076763 10.236414 -2.254852 
5.540782 23.579956 1.055347 
23.356808 -13.035194 5.599182 
-24.351999 -13.599938 0.427314 
-24.168373 5.391932 0.240422 
25.442076 3.229083 5.064558 
-22.895678 6.918028 2.928591 
-24.296412 -9.784554 -1.644794 
21.309523 10.825375 -1.889099 
23.648983 11.112965 0.680065 
5.332262 25.076036 2.938127 
-22.923145 12.198461 -3.791877 
1.293958 27.536085 0.935059 
16.367222 3.806854 1.858779 
-17.217646 20.424177 -6.370760 
9.863921 26.736320 -0.687818 
-12.505432 14.972233 0.318777 
-23.118786 -13.535682 -0.270515 
19.912308 9.609952 6.008455 
21.228550 -7.775496 4.995338 
-13.337472 16.108669 2.800545 
20.051886 18.314381 -4.880395 
27.528448 0.393909 0.944346 
19.779205 -4.719575 2.869560 
-12.436529 24.406469 -0.301150 
-14.990569 -1.209845 3.843004 
14.587577 19.478424 2.430013 
24.075472 -15.283573 3.222563 
20.924915 13.936117 1.164528 
23.738871 -15.485197 -0.102923 
-11.556039 21.573797 -0.809505 
16.208979 17.645718 2.087851 
-22.431805 -14.926446 1.812130 
7.674117 27.103926 6.086815 
-19.084837 -0.751362 4.683608 
-22.736872 -2.498185 5.793226 
-18.800991 19.895733 2.963955 
22.349342 -7.211325 5.222183 
26.976170 3.425161 1.005648 
-28.654612 -6.958722 2.870759 
-18.934509 -11.178644 2.844664 
-21.979902 -4.061355 -0.940839 
15.956318 17.537195 3.760156 
25.283636 5.045648 -1.133413 
31.159052 -8.887132 1.767053 
25.211725 -2.946611 5.323465 
15.496552 23.626137 -1.049852 
-14.106114 13.272825 1.343565 
31.110117 -10.576408 1.743166 
16.473085 1.287833 2.974447 
28.818336 -13.936993 4.582077 
-1.372434 24.208925 4.071263 
-26.262125 0.563720 0.022937 
-23.320213 6.352137 3.520199 
-22.113111 14.120653 -2.225215 
-23.888475 9.455485 -1.797936 
27.101902 2.558199 2.207857 
-8.971032 16.983202 -2.737144 
-21.148518 -11.505798 4.605925 
10.143785 24.193670 -0.533066 
-18.313141 19.517731 -5.741451 
15.072687 17.286146 -1.283121 
17.472057 16.488703 5.213802 
-13.053615 14.381549 0.547243 
-21.537979 7.518992 1.741536 
16.879431 21.122492 1.796533 
-14.232338 7.800536 -3.106745 
-7.550700 25.463057 2.331282 
25.156765 2.817223 5.755433 
-21.214468 3.154422 -2.100474 
20.673294 10.165387 -2.112019 
25.427647 4.394214 5.160869 
12.877106 25.335543 2.689039 
-18.520374 -2.325156 4.975347 
-27.313595 -3.136492 -3.509686 
16.468925 2.265069 -1.431811 
24.472092 6.965468 1.967504 
-15.042796 21.794535 1.904040 
5.943015 23.513981 -0.527394 
-9.894877 18.694241 0.678089 
-21.896940 -14.340815 2.117769 
-11.622118 12.860027 -5.813645 
25.480440 -2.949689 2.569487 
21.016487 16.362719 -1.258618 
0.023519 25.947155 7.516363 
18.646029 7.612697 -1.613868 
18.482550 6.436652 4.769974 
-18.582384 20.524061 -1.040938 
-1.722613 25.182516 -3.443763 
22.172256 -12.755262 4.492983 
23.114862 11.829835 2.033549 
-13.239205 21.550943 -2.114709 
7.771276 24.993332 5.486740 
-21.190022 -5.264991 5.686719 
17.503374 5.832992 1.625026 
20.490269 16.270569 -0.160005 
16.198261 20.104870 4.313468 
-14.087619 23.188644 -6.474425 
5.260983 24.220766 2.010085 
-25.407440 -11.573782 -0.871104 
-15.840404 14.093182 2.297059 
-11.399766 16.957096 0.710134 
-18.149324 -10.235693 2.728018 
-28.084339 -5.524260 1.276518 
-15.681334 10.187043 1.027578 
12.515980 24.745192 -4.880155 
-1.693391 21.912945 -1.684830 
20.284462 -9.277419 -3.173419 
21.373941 -9.133798 4.420115 
28.273664 1.619787 -1.946717 
-19.949785 11.655274 -0.075424 
22.051357 6.314153 -1.629497 
13.161075 25.244593 2.199256 
-23.147387 -13.778729 0.324433 
-23.019632 -2.179522 0.666386 
-17.274231 8.316115 4.440583 
-21.387821 -13.590771 0.805742 
15.997179 20.983786 2.701441 
25.033737 -9.548790 -2.154253 
-2.035460 27.383989 7.419105 
20.251280 13.535343 5.846992 
21.147577 2.286446 4.701354 
11.197344 24.124407 1.685437 
-15.432735 22.336948 -2.111862 
1.027609 25.645716 1.366721 
-14.331314 13.947360 -2.556165 
-3.292932 25.334225 -2.244379 
-25.016691 -9.739161 2.316361 
24.374205 -15.090074 2.532758 
-23.300594 1.501410 -1.279755 
-19.924637 -11.255466 4.167759 
25.690777 -2.739265 2.960917 
3.693020 21.243624 -1.684811 
16.606411 13.801316 2.907924 
14.860033 23.938419 3.747335 
11.815002 22.199448 -2.596596 
18.517273 -1.187618 5.873574 
17.937708 14.311278 0.015594 
10.184697 23.528044 3.793272 
28.383390 -13.904276 0.991842 
-18.810230 7.986994 5.238662 
19.534019 -4.811334 2.419761 
15.686307 19.923414 1.851329 
23.338167 12.765040 -4.128577 
-23.511562 10.233933 -3.902613 
-9.104347 25.673700 5.345098 
28.650692 0.440599 -3.272880 
22.573797 10.994587 -1.243937 
25.796200 -11.342229 7.293777 
-18.916380 16.891581 1.060813 
27.384756 -10.857189 -1.154262 
-27.408958 -11.652335 -4.663350 
-2.162485 23.134476 -2.765370 
-24.947458 0.275963 -0.104854 
13.325150 23.161900 -2.642521 
13.792656 15.197421 -0.414347 
18.832415 -4.308529 1.064434 
-19.818430 2.797421 5.849570 
-12.778561 22.474590 -2.852169 
14.839361 13.503893 1.137179 
-3.095948 21.135391 -1.799724 
2.739679 22.498020 -0.794078 
14.393542 11.955083 -1.336581 
18.249487 13.797858 1.181465 
2.835026 25.616684 -2.909391 
31.246923 -10.624413 -1.127111 
-19.473301 17.930138 -1.415748 
-24.499763 2.786686 4.231979 
-19.903946 -2.828286 -0.601735 
16.081701 21.626465 1.555701 
-20.471584 15.477558 4.466292 
24.393015 10.522364 -3.165875 
19.406143 7.661452 5.334731 
21.214401 1.729951 -2.616446 
-20.481424 7.782067 3.146340 
22.435219 -2.710334 5.793674 
16.639709 4.721720 1.765010 
-12.271252 16.921938 1.078133 
18.778032 18.028725 -2.591453 
-14.280479 5.450206 4.008123 
-1.246283 27.545158 -1.184839 
22.878832 13.974272 -0.833539 
7.672628 22.996042 -0.036754 
-20.491821 4.176713 6.855809 
-26.970463 -2.122360 -1.116631 
-13.340613 22.828243 -0.427652 
9.703249 25.192863 4.659837 
-16.806673 -2.148548 -5.022784 
-3.149317 26.263229 6.918523 
20.604830 19.649065 -0.412538 
15.465823 9.110739 1.878349 
15.114413 23.377886 4.664772 
17.917267 9.613650 -2.253515 
-25.700886 -12.637826 4.965928 
24.884960 -3.731328 3.893419 
-17.670273 13.851332 0.800353 
23.384815 -2.140272 5.987971 
21.900381 16.523764 -1.407797 
22.893564 10.100949 -0.987415 
-25.016731 -4.816653 6.001152 
11.461115 23.134264 5.974741 
-20.665028 -0.055931 6.100170 
-17.202061 2.176455 4.502183 
-1.637901 20.952242 -2.914435 
4.992693 23.620964 1.445406 
-18.816244 18.764277 -3.772021 
-11.460312 25.267639 -1.249444 
27.711390 -2.432071 1.345092 
-13.977173 18.743505 -4.134958 
17.686272 0.353430 -1.806229 
4.350387 26.683134 -6.325781 
-7.983089 17.419210 -4.166840 
-12.942098 15.328849 -2.911499 
-25.672474 -3.514994 2.777323 
-21.998106 -12.845409 4.516157 
16.131704 13.213037 2.910665 
19.763016 15.471767 -1.820141 
26.616110 -14.523368 0.400777 
24.812452 -16.055756 1.115242 
-12.143683 20.152384 -2.432145 
-5.637496 18.902498 -6.056778 
18.084866 1.014362 -2.379550 
-14.337642 7.947735 -2.084910 
-22.180155 1.522901 7.177334 
17.490602 19.439674 1.076926 
-24.765026 4.131417 0.653711 
-17.058203 -2.744281 -0.182565 
10.907559 18.607338 -1.152162 
-14.184659 14.406450 1.721547 
21.965921 7.619442 5.223253 
13.887953 25.082422 -2.014145 
11.521399 26.286915 -1.904827 
-17.472645 -6.673442 -2.316466 
-12.546756 16.572090 -1.904577 
-26.323051 -8.692531 5.910128 
-15.065244 17.186409 4.033580 
-14.609343 5.510341 2.126698 
-11.963366 14.554044 -0.900903 
-21.425274 -1.500406 -1.778942 
-17.487207 6.921358 0.994069 
-23.739111 -5.727324 -1.344109 
-17.972990 20.273174 -5.090453 
-9.757030 25.895174 -5.445098 
-14.622850 0.667280 3.381848 
-17.341059 -4.487988 -0.475910 
12.057945 25.905993 -1.850433 
0.811054 27.290239 3.358503 
-9.126434 19.749485 1.631160 
-19.322580 12.123467 -2.449793 
-7.957030 26.046610 3.961034 
22.577147 -5.013698 1.384897 
-2.433113 26.288488 -3.041086 
19.894190 -3.176462 0.089940 
-13.558116 22.370222 -0.827922 
-21.072508 -0.776943 -2.051268 
-19.108805 8.695534 -1.862245 
24.255865 -4.003962 3.516933 
5.093134 20.018642 -5.915796 
20.702965 -0.817927 -2.403910 
-4.418966 25.646330 3.502289 
-25.951952 -6.398148 -0.662421 
-13.721142 24.074173 -3.489340 
10.100391 20.381968 -1.698138 
5.885207 21.511869 -0.721400 
-3.730204 21.169975 -1.510008 
-21.494776 13.879950 6.257467 
-10.466063 22.141804 6.706247 
-17.363556 4.412225 -2.503985 
-17.678429 -3.208668 0.837296 
18.909710 5.834986 -0.385730 
16.471651 10.585572 -1.896934 
-20.678175 9.875135 -2.169428 
-3.154222 26.894617 -0.459177 
-19.916124 0.936944 -2.548306 
6.493912 26.780779 -5.044850 
-4.081550 27.220375 2.663603 
-28.028610 -4.486756 0.606859 
-2.229047 27.295866 -1.242234 
-21.588608 2.981483 6.916997 
-24.106293 5.005578 -0.144155 
25.107479 4.921056 5.465950 
18.809046 -5.196524 -1.215860 
20.726931 8.291635 6.077689 
29.780216 -10.440869 4.629551 
-16.880861 6.529196 0.702728 
-26.252375 -13.857297 1.164773 
-19.630852 -11.034913 -0.338128 
29.032055 -12.883296 4.901784 
-19.197834 2.009360 5.245436 
-22.588156 11.945662 -5.167702 
21.043444 11.604298 6.183553 
0.510220 24.629135 -1.960458 
4.968350 27.390368 -4.150997 
-9.242790 16.499178 -3.474898 
15.387745 14.831835 0.852005 
-11.050121 18.920273 1.262881 
14.938960 15.973570 -0.937105 
-16.519253 -3.303875 2.796016 
-16.850435 -0.087616 -1.946736 
11.554892 25.968657 5.672184 
-17.907339 2.736558 -2.748070 
-21.310949 -14.103574 -0.539804 
3.421616 27.838058 -0.532648 
-28.051361 -6.082346 -3.619099 
-5.000793 27.724039 -1.074780 
25.602163 -9.233216 6.794947 
-7.734691 17.990652 -2.503966 
-24.144547 2.091010 5.425485 
11.547596 24.852770 6.447160 
-20.277264 16.768198 -2.554951 
13.448280 19.244154 -1.919802 
8.362616 19.297638 -2.333021 
18.342867 -1.746432 -0.519426 
-22.930893 12.869884 0.204982 
18.244598 12.663772 -1.086973 
27.789490 2.721089 -3.666500 
-7.387045 19.901236 -0.263475 
17.866308 2.979400 5.623033 
7.723114 26.432968 -0.627186 
-14.198068 11.755490 0.565773 
-17.464499 7.764011 2.566289 
21.195078 8.997268 6.044379 
-18.156418 9.755366 -2.188850 
26.396942 -15.950134 4.129974 
5.393640 23.538889 -0.267761 
26.157722 6.020295 -4.677952 
-0.942470 21.442091 -2.032800 
-1.473238 28.001598 -3.257316 
-16.039759 18.834885 5.800489 
8.175401 27.253345 5.908056 
4.978230 25.418497 -1.177803 
-23.849394 -7.273683 -1.700121 
19.285673 -3.768532 1.814877 
-28.118206 -10.920467 -3.055422 
-12.517124 16.263552 -1.260552 
18.999382 6.462861 4.861566 
10.469986 27.099812 -0.871602 
-19.889914 7.501388 5.887814 
14.983753 12.612120 1.074063 
5.962312 26.610262 0.881885 
-12.996795 11.385571 -2.817055 
-18.386211 -8.903275 -4.652291 
-14.556243 15.286508 -4.077899 
8.789357 25.889170 -2.752991 
-1.036805 22.193705 -1.729288 
18.978762 9.153187 5.042739 
6.312147 19.532263 -5.863378 
-8.313941 17.037560 -4.913854 
23.184351 -0.306828 6.415629 
0.593565 25.940113 2.333606 
10.540057 22.571342 -2.076375 
29.889137 -13.640511 1.707006 
-23.998877 8.587157 -1.314411 
3.414198 20.614393 -4.841177 
0.435122 26.889162 1.118483 
3.894367 28.449337 2.019567 
-17.807899 16.046663 -3.884269 
-17.473482 -6.788141 2.016888 
-12.394712 20.412628 4.087319 
-19.328146 -1.837258 -2.226171 
7.888575 18.945253 -4.536072 
-19.207283 15.616510 5.053013 
11.921197 22.464258 6.099634 
-16.706194 14.570178 3.718589 
6.693669 27.293940 4.921054 
-23.331585 10.681834 4.064386 
-2.656794 22.895714 -2.478897 
24.283802 7.841218 1.201607 
23.753016 -1.709226 6.058859 
-12.562330 11.651240 -4.204273 
-21.108456 -7.297706 4.730954 
-19.127733 1.513132 5.234622 
-17.061543 8.436152 -1.466131 
9.890112 22.027925 -0.426291 
11.312833 26.173296 2.766583 
20.841877 -12.306626 1.577637 
-15.320198 -0.526776 4.850200 
15.373636 23.705471 -1.732751 
2.279634 25.383892 -2.805982 
-23.816702 -1.784812 1.682407 
-17.016033 21.573895 -0.853634 
-8.187317 21.997585 2.614388 
-21.901421 13.192895 6.254726 
-14.923052 14.003842 0.189084 
6.538254 27.286062 2.414962 
30.660883 -12.155860 2.300679 
26.564596 5.186594 -4.620602 
-12.551744 19.901278 0.354958 
-17.222746 4.081234 4.798407 
26.305780 -5.852568 6.824334 
-15.517470 5.517060 4.904387 
-20.104805 -12.877110 1.549554 
-19.939085 -12.544629 3.237993 
22.353037 12.085741 4.028012 
-14.083631 23.551912 -2.246110 
-11.695200 25.108675 -0.129872 
28.270330 1.637813 -2.665127 
9.344738 26.389729 -4.384357 
21.999565 13.165088 3.231600 
26.104813 5.798927 2.108470 
-7.046896 22.071020 0.815439 
-22.998783 -10.142279 5.240717 
23.224049 -14.313573 4.806842 
-8.547927 20.196634 1.483235 
-14.818592 21.757576 1.375737 
3.018350 28.094727 6.421125 
16.740578 7.284425 1.209156 
17.390343 17.469023 0.852782 
-13.812500 18.017788 3.420908 
20.197828 15.804559 3.980793 
4.781257 26.304754 -0.780825 
3.336363 27.968357 -2.717499 
-9.986041 16.666306 -1.439837 
-11.778785 14.405943 -1.492794 
-17.768105 -1.810343 5.064008 
-3.132051 21.427212 -1.292075 
-21.820648 -1.984491 -1.501493 
-16.547138 0.266903 4.702630 
-5.677995 18.971937 -4.957768 
-19.302017 19.320404 1.577188 
9.155298 23.675816 0.074513 
-25.189764 -13.608726 3.718586 
18.541176 20.556501 0.049452 
20.518927 -8.253091 4.347303 
29.004000 -5.824416 3.629937 
19.765259 16.807451 -2.422453 
-22.239090 -4.682718 6.104633 
17.036190 2.699504 -0.565092 
12.951386 23.923281 -5.995830 
17.216831 21.396166 3.528866 
11.830155 24.091608 0.959180 
-20.193209 -12.982450 -0.298848 
-17.885128 15.168210 -3.251794 
15.066822 23.789734 2.052253 
-26.699873 -2.335323 -5.202764 
-8.535231 22.501036 4.424561 
10.406236 21.664177 -2.071861 
3.265893 26.661329 -2.835610 
16.202049 14.617225 3.269873 
19.256811 10.472993 5.749686 
24.855745 -1.483389 -1.456107 
-13.212979 10.192984 -4.320284 
-10.730639 20.942728 6.370750 
17.002546 5.999724 3.816326 
21.182491 -13.094351 2.564989 
31.129545 -10.679988 -3.590509 
12.075215 25.490559 5.563031 
20.351143 13.579867 1.470540 
31.124523 -11.933257 -3.516205 
11.919114 21.381651 4.332815 
16.815699 -0.678510 3.627446 
-24.240347 -1.151800 1.054567 
-12.478109 19.184423 3.114948 
-22.174519 8.674663 1.526672 
-17.545181 20.919371 -2.463902 
26.442307 5.046375 1.178370 
-2.628510 25.738169 6.428481 
7.601732 27.196644 -1.992524 
16.510778 3.876322 -3.539818 
-11.431291 14.115853 -2.956238 
17.150770 9.332169 0.917436 
21.107183 -6.359187 5.347877 
-18.527437 -9.992035 0.865269 
-19.178370 10.822506 5.668169 
22.235722 3.729839 -2.329574 
14.948164 10.940495 0.818521 
3.727000 26.903841 7.583455 
-9.994422 20.004456 3.247808 
-23.116663 -14.199639 1.627783 
21.536568 13.213531 4.727808 
17.657583 15.701739 4.943971 
19.530258 -6.619315 1.021602 
23.074329 8.504711 1.633729 
16.771982 -0.311784 4.027705 
13.835004 25.221437 -1.462390 
-1.350216 27.628340 4.969484 
-21.219738 -4.809801 1.345308 
17.426071 0.589922 -1.207447 
-22.829567 -6.146361 -1.657939 
28.736303 -14.498638 -3.410034 
-15.405391 5.360993 0.655732 
-9.522168 24.622244 6.684762 
27.075684 4.641160 -2.778709 
-20.215124 10.642431 0.320055 
15.495317 22.766657 -5.033840 
0.742005 22.160757 -0.654860 
-15.046388 1.879210 0.331749 
9.721858 17.945686 -2.628830 
-26.276205 -2.236333 0.473670 
-13.080104 20.732786 0.805688 
26.869099 -0.678800 3.315373 
10.457097 19.074081 0.184438 
24.276295 5.741825 5.979823 
3.289413 21.760918 -0.673731 
1.984082 27.061102 7.557490 
13.899165 16.306847 0.875261 
-10.270624 25.313633 -0.947925 
18.168232 7.029400 4.004821 
27.299568 1.769571 1.629885 
-4.611065 27.361198 4.188826 
26.036360 -14.436484 -0.229849 
-22.342516 -3.201937 4.558033 
16.327337 3.995592 -2.473328 
16.913374 14.968850 4.543396 
28.434843 -8.572286 -0.588050 
14.050152 19.093935 4.811913 
-4.939733 27.327971 5.224228 
-17.350836 7.591562 3.968805 
-16.468193 15.044238 1.333542 
28.015871 -13.274412 6.042953 
26.633001 -6.265851 7.102218 
-9.106918 18.617437 0.058111 
-19.483595 18.304068 1.011610 
15.960984 18.016476 4.463946 
20.466255 -11.341200 2.558282 
5.761448 24.885693 3.252630 
15.346985 7.734184 -2.901873 
-16.433376 21.745098 -2.254287 
10.266232 27.569891 4.751257 
-20.399090 16.026518 -1.628216 
-17.080347 5.087153 0.562202 
-10.491420 25.199245 -1.397266 
-3.369392 28.341473 5.476058 
-14.663028 13.990468 -0.487588 
-23.969475 1.091817 5.877164 
14.310785 19.966436 6.924207 
2.110756 21.600050 -1.790938 
18.930498 14.603681 -0.224249 
-14.699685 23.207228 -3.062458 
10.310364 23.908541 4.537600 
25.370819 7.494850 -0.709137 
23.305536 -8.702656 -2.432275 
-3.794039 23.284855 0.476914 
-0.875475 20.822561 -4.414914 
7.738152 26.313744 -2.879290 
16.296436 16.987261 1.755592 
20.241911 9.698880 -2.181725 
19.597076 9.895392 -2.309537 
29.638109 -11.940528 4.329214 
-20.145554 7.641327 2.326280 
5.121176 28.008120 2.746298 
-19.082949 -9.478749 4.421568 
-12.754700 13.023444 -1.136993 
0.585442 25.393335 3.942188 
-28.500603 -8.431135 -3.462197 
21.116476 -4.671145 3.062973 
-17.604370 19.988327 5.675816 
-13.026844 21.141994 2.382491 
-16.641556 21.663483 0.846014 
2.761533 25.762587 6.103912 
-17.688499 -5.418306 2.909673 
-22.657589 6.533857 -0.442165 
27.175585 -0.481117 2.292355 
-24.387928 -7.972603 -1.634406 
27.652679 2.809142 -0.401696 
-19.454212 18.900431 -0.581235 
-19.278957 19.698631 0.549708 
-10.954459 25.560928 -4.663210 
14.896661 23.151539 -5.135030 
-4.907629 27.526165 -4.330232 
-22.429310 12.167122 -2.040223 
-12.187040 19.258577 2.675054 
27.339363 3.542365 -4.508028 
-14.980787 -1.187599 3.059266 
-28.864685 -8.239343 1.285866 
29.362946 -8.031072 5.135533 
16.279865 4.846932 -3.573008 
-18.513807 -5.035895 1.909851 
-0.692888 27.172985 6.065215 
13.124756 24.381527 -4.948091 
15.465966 21.417606 5.861692 
-17.979353 -7.849874 -4.706969 
-19.686495 -11.693427 3.726743 
-16.426226 14.360735 1.488543 
26.254295 -10.306803 -1.731713 
19.816071 -2.346008 -1.509897 
-12.103117 15.663413 0.474090 
19.643320 4.967896 -2.158312 
15.558379 16.812653 -1.578052 
-15.450912 0.019844 0.720575 
29.606274 -4.053151 -0.423673 
23.837791 -4.199673 4.515991 
19.249943 -5.203230 -4.145073 
22.281776 14.960626 -4.190492 
-16.589962 4.926564 4.830682 
-2.702393 27.873394 1.347051 
-14.051149 21.421989 4.588033 
0.185079 26.582214 6.120965 
18.465080 6.415854 1.638735 
3.761939 27.200729 -1.675352 
21.396185 7.129331 1.110140 
8.784168 26.500261 -2.686774 
1.778563 27.089081 -2.752670 
22.322609 -0.245222 -2.372913 
29.599653 -7.190547 4.432868 
15.658040 10.706715 4.029587 
-20.513897 -6.297839 -1.756440 
20.016998 13.910707 5.608447 
24.952457 6.213142 -0.864577 
-26.310507 -4.252197 0.496359 
24.690813 -9.723013 1.340168 
-19.413536 16.961489 3.247541 
-22.480633 13.306246 5.018295 
-15.582550 1.243932 -3.780150 
28.317911 -1.096103 0.285088 
-15.836460 16.278919 -0.076410 
27.413237 -15.699039 1.782951 
22.913412 10.737482 3.384504 
-22.827774 2.812577 6.517503 
-24.042866 -1.642856 2.939332 
-23.791872 -12.977335 -0.922778 
10.634492 17.394979 -2.021189 
-1.799717 27.732992 5.490881 
16.231197 19.462570 0.456947 
29.070450 -11.179731 0.024499 
14.737357 24.347898 -0.323257 
-4.756368 27.713392 -3.411676 
17.981226 14.188492 3.979524 
-12.458706 19.942461 1.697390 
6.954707 27.415972 0.528701 
-28.212078 -6.319457 2.535031 
-11.191110 19.560854 0.951977 
29.426785 -6.188208 3.521772 
-25.050549 -12.867406 4.955594 
21.460030 7.723954 3.721900 
29.048870 -6.339799 4.538983 
22.771627 -12.604333 4.701477 
-22.040350 7.445542 2.033762 
-0.282202 27.303301 4.053585 
8.141153 27.486898 0.028199 
11.943855 16.984024 -0.790854 
-17.500486 0.354614 -2.750490 
-15.651525 19.569212 -4.382988 
-8.762050 26.538048 -4.333238 
-15.099914 -0.152885 4.543367 
20.195591 17.080347 -2.424230 
-20.728167 -5.291459 -1.476966 
-25.252638 2.305766 0.153379 
-17.585445 -0.783340 4.806218 
0.562755 26.443222 2.519868 
20.978048 -2.592200 -1.762622 
25.563929 -14.701707 0.491976 
-18.215073 -0.789127 4.689817 
-22.532545 6.874911 3.891309 
21.984663 11.890255 4.963596 
-17.048422 1.636518 4.264888 
-19.546455 9.245824 -2.093384 
7.550448 24.198278 3.432105 
0.814189 25.572205 6.401554 
-16.450958 11.252640 -0.761618 
-24.071024 8.515245 -2.245430 
-19.183084 19.037451 -4.419321 
-7.049409 23.937101 1.662342 
27.308207 -4.869106 5.063329 
-0.470635 24.832205 7.472586 
-25.824657 1.600221 -3.046442 
28.220852 -2.233670 0.776045 
-17.696320 15.344440 0.487695 
10.636496 24.732693 1.120878 
23.565939 -14.049702 5.798324 
8.076634 27.734495 -1.300405 
-28.103703 -4.629639 -0.202587 
14.834527 23.555582 5.540526 
21.474693 -13.487181 2.071292 
-21.545424 -3.902873 1.990015 
-28.542612 -9.992359 2.377758 
14.770695 24.405418 -0.969069 
-20.727135 14.379710 0.085984 
-24.938612 -1.123223 1.977085 
-2.640461 24.316717 2.888062 
-20.117731 7.768609 4.595186 
-15.309261 14.902742 1.034824 
18.487579 17.940533 -0.222647 
-0.266390 27.398026 0.748693 
-0.276125 26.705940 -3.260318 
-4.166698 26.467009 6.262983 
-4.431683 27.142843 3.507442 
16.508215 3.204711 1.249891 
-3.131281 25.120844 3.786694 
-23.625942 3.153895 5.552869 
-0.497653 24.606030 6.881185 
23.908943 0.488820 -2.111597 
20.574848 6.511595 -0.488982 
21.028492 -12.003998 -0.567617 
-24.571959 4.600940 0.984244 
18.732946 4.120491 -2.260243 
-1.987460 23.110342 1.557155 
17.600620 20.970314 2.101869 
-13.066589 24.439056 -4.243674 
26.069481 2.683360 -1.236508 
15.382280 16.333990 -1.371215 
-22.056271 -13.670456 3.469851 
21.824387 -3.513161 5.251276 
11.515838 26.444868 -0.354040 
2.030041 23.503563 0.934920 
13.066114 24.321915 7.026978 
-8.399113 17.123512 -3.936644 
-11.322505 24.713863 -2.560645 
7.186726 23.237856 0.067614 
-15.828330 9.524301 0.277641 
6.275982 25.932375 6.801121 
30.210281 -10.820195 3.643997 
19.116152 -6.231756 -2.134974 
-6.188850 20.849180 -0.959143 
-21.150480 14.481090 5.845295 
-17.311567 14.044837 1.412048 
-18.410206 -1.332470 -2.454429 
5.943280 27.649399 -0.683237 
-22.832796 12.674255 -0.701496 
22.671366 6.648928 6.427786 
-7.182376 20.450474 -1.748697 
-2.510270 21.013439 -2.127486 
-11.143253 13.855212 -4.794425 
-3.094903 24.121851 -2.727881 
-3.700348 27.838324 -3.609541 
-13.726576 24.019327 -4.116466 
-17.069824 -4.494895 -2.040789 
26.762581 -4.383006 4.575985 
27.093164 -5.769882 6.698062 
-9.041057 23.758295 6.613951 
4.695725 26.033812 4.920420 
-20.309311 -6.614818 4.865080 
28.187668 -6.507069 -0.352491 
16.411766 13.289387 3.504443 
-27.119246 -12.163668 4.145879 
-16.157770 15.730973 -4.364129 
-13.548265 17.010263 0.452837 
-27.317648 -5.160161 3.338651 
24.152237 10.742253 0.084377 
20.070677 -7.492586 1.338481 
24.978905 3.153091 -1.678710 
2.774985 22.905880 0.810002 
22.401667 15.230308 -2.247900 
9.265388 27.142752 -1.133415 
26.529858 -4.616953 2.155893 
13.566792 14.948942 -1.200887 
29.283724 -12.703458 4.411358 
11.091446 26.737291 2.546351 
12.001603 25.451836 -3.801666 
14.354855 20.140812 1.468588 
-20.584637 9.504828 6.026457 
-28.330917 -9.478942 0.717683 
31.226997 -9.046826 -0.498582 
-16.863688 -0.321932 4.857543 
-9.772824 24.411180 -2.670862 
-25.101418 -0.152259 2.344127 
-5.073687 27.464474 5.690343 
10.440523 24.182898 5.247106 
-19.260290 -10.715244 3.997358 
24.550106 8.373363 0.563233 
17.755844 8.895779 4.335074 
26.502417 -4.950848 0.796734 
21.213358 -3.919863 1.351410 
-16.432240 8.284889 1.613621 
-17.349676 -5.821149 3.761402 
-17.923286 8.631202 5.175657 
15.753574 23.235420 -3.580062 
-23.008369 4.056655 5.071348 
9.251586 22.276749 -1.364748 
13.834678 12.295788 -5.288497 
-18.368839 15.775306 0.846184 
-24.514236 -3.433233 4.986713 
-16.073187 2.777606 5.063666 
24.422272 3.073493 6.078420 
-21.890894 9.103556 5.915849 
-13.003002 20.558159 -2.165649 
21.796751 13.444269 2.870299 
29.498163 -13.001077 1.473478 
-19.252916 -11.116358 3.614836 
19.130878 18.572641 -2.552735 
19.786917 0.393103 4.604632 
18.760935 21.559595 4.087389 
-23.752024 -10.889050 5.655131 
-16.794586 9.913857 5.250346 
22.043245 17.688684 1.319913 
-9.058568 20.570116 2.410788 
-26.009861 1.660830 -1.169725 
16.402729 2.591141 4.897695 
-23.906654 -0.551992 -0.746701 
-16.908712 5.468051 -0.882398 
20.601315 7.266309 -0.445190 
-0.471574 28.073635 -1.352079 
-22.722050 4.413240 5.269805 
-25.939085 -5.917821 2.650705 
15.338054 22.005596 6.151080 
-20.905510 -11.311945 -1.751800 
17.897409 2.138941 -2.346388 
-23.680403 6.301872 1.450065 
22.734303 3.491874 -2.285774 
-25.657623 2.760231 -0.853668 
-12.256305 19.684835 1.310207 
-15.459690 6.506052 0.849427 
16.856258 0.338059 1.834053 
-19.053734 12.910923 -1.608878 
0.938381 26.172121 -1.626858 
-16.735853 0.505319 -2.221992 
-2.863097 28.213100 3.829359 
-25.471052 -3.748116 4.140565 
5.611823 20.642859 -2.680761 
7.070899 27.343042 -3.234915 
-22.598040 -14.372201 2.025337 
-12.063210 24.938091 -4.799577 
10.834994 18.864355 0.485398 
-9.515914 21.069761 3.840372 
-18.196199 -2.418083 -0.746485 
23.200127 9.836326 -0.698355 
3.450288 20.767540 -3.854425 
12.621105 25.554750 -1.899710 
-27.705439 -5.189411 2.322845 
19.706957 8.640514 5.985988 
-28.460953 -5.852477 -1.302898 
16.754251 20.197290 1.335338 
18.639767 6.436817 2.259091 
19.783718 -0.333289 4.718000 
26.353357 5.933602 -1.077743 
-14.156774 7.657412 -4.258668 
-23.974878 -1.092701 -0.040642 
-20.135971 2.847718 6.260205 
30.631603 -13.012564 -3.461651 
-4.978888 27.277342 -5.365663 
5.203100 23.680143 -0.893896 
13.939967 23.138453 -2.609998 
-4.212083 25.053158 2.645270 
-11.455544 13.425054 -4.663846 
-0.434632 25.851265 7.953664 
-18.479923 -3.656508 4.156271 
20.645281 -11.324613 3.564382 
-16.411934 -1.831300 0.620354 
21.417593 -8.587440 4.517326 
-21.904652 7.991366 2.224777 
-22.182079 -1.412054 6.148767 
14.466067 24.067127 -2.210604 
13.023244 18.536861 -1.447470 
0.253658 26.524426 0.479431 
-17.317488 -2.092436 5.226433 
16.379599 4.932639 0.640777 
-25.943735 -13.091412 1.786833 
-16.086790 21.750305 1.414223 
-26.795319 -1.218655 -2.302618 
-0.834079 22.580681 -2.049763 
-12.621119 19.953621 1.051490 
-17.878969 -7.622069 -1.628759 
-3.957237 26.597406 1.666015 
11.888451 25.060722 -4.894070 
-25.932369 -0.626613 0.862017 
4.408176 26.451416 0.011864 
-18.989525 -2.656496 4.978532 
-10.504161 20.538290 5.330135 
16.638620 1.760237 1.111891 
10.425721 27.050896 -1.363140 
-18.651474 18.688244 -6.295399 
-14.201067 18.916876 4.134634 
-0.657692 24.044456 -3.085819 
-17.857471 -6.919045 5.061763 
24.838812 -5.643571 -1.102598 
13.256075 20.006891 5.047862 
16.532314 5.211889 1.149601 
-17.458412 18.864048 6.215223 
23.004786 -2.562222 5.956591 
-22.433525 -14.056948 3.169684 
-16.936726 7.535567 -0.882586 
-24.021334 -1.238904 0.544182 
16.287069 14.476634 2.639874 
-19.433311 7.644922 -1.153199 
-22.562407 4.044862 -1.368569 
23.337669 5.883053 6.652246 
26.246525 -5.978310 -1.230587 
14.275067 24.664213 -0.690272 
-9.393011 18.200371 0.160645 
1.867123 27.978008 -3.363292 
11.329474 27.139517 5.307117 
-19.286953 17.484718 -0.349277 
13.867073 16.785692 1.083297 
-13.347256 23.497253 -1.447339 
-26.038925 -13.085259 2.361167 
-18.321320 15.545413 3.080290 
21.631292 -4.442607 4.137565 
-18.701414 -10.133526 -2.312288 
26.595942 -13.444345 7.110757 
-22.397234 9.088112 5.340653 
10.111768 22.955173 3.400960 
15.140819 11.216329 1.775090 
25.302025 -1.187137 -1.346295 
19.624640 -8.086921 -0.613246 
-7.520785 25.741655 4.264570 
25.050629 7.629314 0.030771 
12.362537 16.896267 -0.433749 
22.192511 -7.990768 4.897274 
21.154192 -0.542081 -2.438682 
-16.718664 20.777355 5.680807 
17.649452 5.825832 5.210164 
25.033121 -4.405769 2.337116 
-21.749990 12.059199 6.602512 
23.712610 -4.544859 1.991527 
15.955921 6.160750 0.040511 
-10.764387 25.130650 -6.525531 
-24.145250 0.241434 5.213596 
28.505850 -9.136267 3.203035 
15.447945 19.766939 0.724060 
