8.020380 27.776714 13.303702 
-30.696585 -8.446883 7.297179 
15.662074 21.097994 7.632186 
24.257076 14.814461 -2.581756 
14.188259 27.181425 10.769611 
16.887957 23.023472 5.880827 
-1.120425 36.598286 7.115112 
24.732828 -12.025975 -1.027694 
22.874409 3.746306 9.981169 
5.246587 26.324913 14.549089 
-29.879055 -4.976821 6.007924 
-3.901471 34.508614 9.421478 
-14.367967 25.005465 6.048728 
-9.920369 27.746019 4.477466 
26.815834 -1.818603 6.391687 
26.864296 -24.636057 14.953500 
-22.055115 -3.036850 6.891951 
4.365440 32.514336 2.009463 
-28.399761 -0.702496 8.138431 
16.856712 3.193973 -3.375616 
5.530092 25.806784 -2.239938 
-26.213736 -2.436094 1.703791 
-6.108587 28.391283 16.863977 
25.137493 -1.419339 -1.597377 
10.684188 32.494549 9.575087 
9.382496 31.636656 11.223068 
-22.229631 14.365352 -3.233588 
21.739685 0.140466 4.442267 
-2.894346 30.621723 11.076117 
20.872538 2.799775 9.554397 
18.509768 -0.374543 5.658794 
-11.510513 28.235416 6.783555 
22.097471 -6.562873 8.707247 
24.840553 6.870592 9.396340 
-27.695839 8.444741 7.777974 
9.363705 21.543018 13.981958 
-3.741900 28.787766 11.551247 
9.675676 24.721085 2.628959 
18.362505 -6.869084 19.436451 
-26.055025 6.269842 3.393267 
-19.192205 0.988061 0.892317 
2.986019 26.223034 -2.221557 
-17.360655 7.479719 -2.517401 
21.331264 -3.598351 2.010681 
28.715815 -18.930536 16.952507 
-18.353226 26.880238 17.609821 
21.075243 1.213859 12.241565 
7.933222 33.858040 10.367339 
11.078697 16.374447 20.669655 
-14.091084 9.027073 -4.248326 
6.738655 30.927900 14.427167 
-3.474687 25.380926 0.383563 
-1.671012 29.721451 11.578996 
-29.415895 -14.740697 15.997404 
12.189854 22.359255 14.837519 
28.377527 -5.779230 5.086524 
4.048709 25.635748 1.042070 
4.565346 27.246391 -0.528490 
-16.724674 27.972967 15.876606 
20.165194 6.801651 -1.542078 
-17.440722 27.436081 13.428429 
16.021626 24.522104 -4.860838 
1.464581 29.829935 3.684737 
-0.819930 31.267952 -2.927446 
-21.262617 13.655513 0.916697 
29.182961 -5.283686 12.913160 
13.969084 7.565867 14.648799 
27.659840 -21.283838 10.699782 
15.123591 19.934172 10.666581 
20.396187 -7.325371 7.319751 
-9.463351 28.520452 1.942825 
13.133241 26.366491 -1.637776 
18.036381 21.796625 -1.159270 
-15.148175 25.089087 -2.154816 
-29.636265 -2.458256 -0.866339 
-25.297812 -12.176706 13.542572 
9.593699 25.296638 2.033702 
-25.364431 11.747956 9.189749 
26.836555 3.115311 12.004601 
-21.286409 -11.329501 -3.160290 
-3.504391 27.886810 0.470701 
11.091685 26.272087 0.801916 
-21.841887 -2.053012 7.970256 
3.201747 22.407885 -4.748235 
26.985390 -16.735353 -3.767526 
4.686285 31.922039 5.997843 
23.116783 10.475986 4.992218 
22.450487 -4.862011 2.026620 
27.213417 4.625646 5.785849 
-25.500027 8.499624 -3.607692 
13.122020 21.931303 6.222219 
-4.065827 29.535015 4.648616 
-8.153868 27.677921 -2.346213 
28.309065 -0.621691 -3.422612 
5.947817 30.256311 3.409970 
-27.285437 -0.694366 10.026455 
-5.731546 21.996078 -1.873742 
12.994060 26.783766 5.548706 
18.084667 22.362076 -4.777243 
-24.502617 -19.605953 10.096541 
22.850460 3.642764 4.992322 
19.642378 13.020853 7.017308 
-23.406738 -15.416033 9.737262 
3.658480 32.149666 8.292257 
-11.337746 19.616585 14.695812 
-31.888407 -14.864960 14.523803 
-31.964354 -7.399333 12.334405 
-17.646469 11.982933 10.996884 
-29.186478 3.751162 9.931982 
-12.539761 14.619648 -2.130661 
17.728052 -0.421234 5.238763 
27.639431 4.802197 16.962036 
18.896530 -0.929446 5.100479 
25.505230 -12.857576 2.126153 
20.800354 -13.718559 -2.765828 
-23.756454 11.229949 -4.256342 
-22.148920 -3.246729 -1.118568 
-21.342270 -9.979454 8.936940 
12.752459 28.585661 7.237336 
-17.051123 3.131571 16.439301 
-26.675636 10.278320 20.151188 
-0.015476 23.904930 -2.111223 
-13.079453 23.879417 -1.632229 
10.263796 28.276598 -4.328648 
26.599747 -21.674047 14.721658 
23.731331 6.344372 11.109428 
0.573164 27.704962 12.466049 
30.075239 -8.348168 0.666877 
-13.522397 30.336123 8.179287 
-6.703066 23.494358 0.637052 
-7.459224 30.736506 3.214553 
-10.152884 19.629807 19.125929 
-18.195303 0.256607 -0.668837 
-24.248289 -15.452556 6.377054 
-4.739459 31.830811 4.738102 
23.154743 -1.683128 1.484497 
-23.312222 -10.865646 10.394543 
30.970430 -23.679037 18.580679 
21.182739 -10.182000 11.387136 
3.979347 27.988987 0.735387 
25.411369 8.201488 20.293911 
-28.325087 -2.072836 2.735483 
15.652645 11.192527 -4.338255 
-18.121943 25.006720 20.997366 
26.745949 4.928082 20.121758 
-23.605463 -14.665239 13.919923 
27.567125 5.508691 9.747642 
7.488847 24.790974 2.419331 
31.012423 -17.478407 17.501074 
-29.195946 -1.815478 -4.131605 
15.438949 20.763588 4.810318 
10.964260 22.923098 4.661721 
25.824602 9.942978 -4.776005 
-16.683447 23.926203 -5.192110 
20.409597 4.737892 5.429418 
32.882118 -13.561505 12.191753 
-20.259375 -2.554096 5.002591 
-22.971462 -9.645142 -0.450302 
9.757438 23.729603 11.486408 
24.670578 -1.404250 1.609240 
21.538189 6.647952 8.757504 
-28.275965 7.944001 6.304704 
12.491967 31.933191 6.370536 
28.619871 -12.464824 8.111411 
-17.896330 -0.449473 2.551296 
17.235771 -0.994613 -0.034547 
-23.407223 -12.926259 3.901906 
-12.175879 29.006208 17.978071 
1.570803 31.083286 -3.706276 
-24.340067 1.114225 -0.121893 
-23.391300 -14.017851 9.529379 
-7.244425 33.525768 6.714071 
-30.630747 -4.660230 12.503837 
24.967310 6.495436 4.389515 
28.873215 2.061140 16.636911 
17.867990 5.991285 8.590235 
-26.837124 5.335327 -4.421085 
-25.222916 -6.572223 6.915841 
3.764066 24.361320 16.216045 
25.809471 11.166411 -1.573776 
18.691141 -7.387546 2.695096 
-5.215076 23.163963 20.960220 
-30.703487 -16.019609 16.304487 
-18.691927 7.391130 8.500034 
-6.690297 27.251099 11.737577 
-10.937769 19.037079 17.338224 
-18.296402 9.618878 10.026066 
-2.747511 23.559395 -1.934803 
23.527443 -9.438083 -1.770579 
19.614616 22.749502 7.616297 
-21.181705 24.480883 13.918356 
-25.370289 7.867580 -5.645821 
19.858768 22.202402 10.961559 
-6.654360 36.599091 12.127346 
19.190699 12.375628 -2.325262 
32.954464 -14.069447 10.971784 
16.604597 10.367336 -3.336522 
-21.465254 8.290349 6.646837 
26.736622 7.314534 -2.345321 
16.652552 19.738819 15.358255 
-25.736771 12.415725 20.272499 
-3.802929 31.040516 5.684026 
19.644880 5.550246 9.841375 
23.784399 2.785103 -3.043345 
1.528159 29.504107 -1.943689 
23.367891 1.050160 -2.933832 
29.387928 -4.646860 -5.304069 
-13.609127 28.458002 3.463325 
-15.254745 14.273642 0.481700 
24.421450 1.254354 12.430617 
-9.822641 21.588917 -2.788835 
-22.334627 13.426292 11.706569 
-3.032776 29.210922 -2.423794 
-3.059004 31.869959 17.332886 
19.810339 12.153305 9.780717 
0.880425 32.014046 18.253828 
6.917655 30.706081 0.822958 
-18.904312 10.443009 3.517423 
25.783775 -13.178322 0.762551 
25.422304 7.491994 2.024819 
-15.284240 13.150598 0.192451 
-17.438225 1.500259 15.684507 
-28.065617 -19.619520 15.367450 
3.747331 27.092779 1.272615 
21.236134 -6.292343 6.550270 
-17.012148 21.308336 15.315755 
-31.035204 -2.131850 10.334944 
-31.903315 -8.087963 16.411350 
-23.013348 -19.335161 12.850786 
16.129652 1.677995 15.842338 
-17.524521 13.679536 7.175746 
-20.559502 12.824529 3.755437 
0.428407 29.509132 2.924010 
-22.025936 -7.008037 12.790756 
-3.840242 29.832113 18.658218 
6.971972 34.892269 9.381106 
-18.532356 9.274185 4.863238 
25.510788 -1.990208 11.562848 
1.795793 30.814905 20.394716 
-4.434529 37.509056 6.789839 
22.855234 -2.579870 -1.013949 
13.688349 28.001528 17.991135 
-24.027922 -12.168198 8.306754 
-20.806738 -3.385854 9.336711 
7.363305 20.842817 20.895342 
20.122744 5.997874 9.083969 
15.841957 2.033666 12.807226 
3.101724 30.818525 9.829494 
29.165592 -21.062265 15.651289 
-12.360545 29.399849 14.718199 
-14.938571 21.183952 10.248388 
-15.049802 25.940559 15.940135 
-18.961256 -6.629229 0.548068 
-28.059856 7.485140 19.991884 
9.238269 27.355061 -8.012025 
27.841545 2.242270 -5.247022 
-16.250660 23.659439 2.498496 
27.684256 -23.710117 14.270020 
-14.361474 13.766164 13.008242 
12.093806 25.511150 -9.149923 
-12.722578 25.315767 -5.333587 
-6.502378 22.923622 16.786819 
-28.794476 -11.165715 0.612283 
9.915719 20.129013 14.639796 
-25.009954 -7.476962 6.936857 
-31.488035 -1.366277 13.373392 
-6.618180 25.117289 2.650656 
-17.509771 5.133537 0.051932 
-10.756511 27.161329 13.020589 
-15.358101 22.422947 2.439096 
11.955188 26.868387 8.325426 
-11.437881 20.342783 0.982441 
-19.493153 25.344637 15.593791 
7.830328 30.293118 1.069163 
30.815001 -7.174537 -0.640609 
-4.260670 32.232231 18.347677 
-21.251068 15.057572 4.649599 
-32.124069 -14.373089 12.905912 
-22.418152 -2.919433 5.327841 
-23.111677 19.668512 18.670813 
3.005242 34.500355 10.522483 
23.380173 -14.335590 9.078159 
-10.176907 17.330721 -8.121240 
-18.513994 8.546479 5.275061 
-4.916882 28.771536 5.961853 
18.887388 -7.905323 10.030037 
3.975332 31.574215 8.937613 
-18.629513 -2.674438 1.815867 
6.300624 32.071487 3.325510 
-12.692591 28.145086 19.870190 
31.682362 -20.600046 16.263439 
-21.274452 -0.379833 4.853214 
-25.930458 -18.999048 9.150828 
23.252455 14.652929 11.522634 
-21.024527 -16.714443 14.304846 
6.006097 28.875425 16.781424 
-28.614067 7.034927 9.961959 
-25.786980 -10.496082 11.752809 
-24.209120 8.706964 3.672159 
22.504833 4.465204 4.918056 
-15.626122 5.010862 -6.556904 
-12.274985 28.017927 14.327826 
-28.816170 -19.094936 15.806457 
12.466030 20.429461 14.385350 
-0.990653 32.448483 1.903710 
-14.543815 11.567017 18.343105 
-24.277590 -21.091129 12.753911 
-22.133801 -12.921720 9.151572 
-14.870750 10.489803 16.839830 
26.851456 6.896995 -4.248014 
-7.815347 37.673351 8.004532 
-6.749069 33.072002 7.547826 
-18.834040 22.642632 7.159299 
21.504959 6.435150 9.607183 
-24.319517 8.299167 8.814690 
-18.229717 6.652158 5.033487 
-20.473328 14.598194 8.211927 
-18.753170 3.393062 5.157056 
12.623359 21.119320 9.156033 
8.274019 27.913935 -1.299330 
18.498079 -6.785096 0.834208 
-2.097692 36.651978 7.268369 
30.537664 -6.149552 -2.978124 
-15.954830 3.189566 3.453587 
-0.655791 31.186689 5.465314 
17.352312 22.872089 -1.837406 
0.043561 35.420605 9.908860 
17.822269 11.048880 -0.815195 
25.306889 15.758369 1.168219 
18.084034 25.555611 5.975756 
-9.124496 23.872763 12.702085 
-17.314781 17.161604 2.898134 
-21.092926 16.900480 -3.159024 
3.736275 21.771236 -6.391909 
-11.176117 30.912216 5.372923 
11.371816 29.260139 17.854092 
-9.554404 26.357908 3.190167 
19.708328 24.320181 11.523435 
-0.059226 27.046324 0.823385 
21.979216 -19.813768 16.998196 
11.623157 15.615700 -7.891328 
-30.497601 -2.309522 7.490860 
-28.479008 -12.033175 8.254983 
28.024664 0.110088 -5.909956 
-16.548409 24.756844 -2.482649 
-10.922260 28.712269 -1.675719 
-23.706306 -4.489242 13.063906 
-21.139153 -16.612221 10.491743 
21.910175 10.229854 -3.782789 
-17.474703 -3.196244 -2.889310 
12.500225 23.412537 9.087670 
-24.892471 9.788978 8.104651 
1.721161 31.076817 -0.167696 
26.796854 5.282259 -6.568594 
0.909403 32.233463 4.235691 
-28.586288 -14.657321 15.902283 
14.623317 22.981211 7.610789 
6.070477 27.697950 -0.580872 
-17.984760 15.487564 0.648731 
0.733238 32.960674 15.596220 
-11.607198 30.768942 11.446340 
-27.811199 -10.577251 10.857924 
16.195509 19.212566 8.493807 
-19.597069 8.339464 6.070508 
-6.147167 31.456635 16.783855 
-30.069080 4.813679 15.341609 
-31.671095 -16.563416 13.666338 
19.100904 22.262421 15.594386 
27.008732 -12.897103 10.010708 
-8.582907 19.597546 -3.985853 
-15.339217 16.023201 4.543135 
25.794161 -3.528210 12.255888 
23.184933 -5.912046 5.285476 
-24.645555 4.372034 10.305532 
20.917952 -2.873369 11.172277 
-2.102118 26.798285 0.767334 
29.504942 -24.627279 18.521702 
25.209486 0.945664 -2.355207 
-15.064932 9.231413 2.223547 
-17.074186 2.669989 13.309170 
-27.008768 -9.652325 10.221280 
-32.098301 -6.075121 12.418726 
-13.388556 30.266703 9.188365 
-31.088806 -6.915121 11.998517 
-24.793512 8.094158 -1.945089 
-14.194768 27.718887 7.219563 
-30.778507 -2.710585 8.583400 
22.264521 -19.253489 11.757402 
-29.756308 -11.202561 13.950965 
21.514551 -4.183102 8.814725 
-0.769077 31.622469 13.032591 
-24.046352 -10.062768 -0.136442 
-27.578201 -11.794984 8.317164 
1.218005 27.862846 0.028676 
22.764317 -14.591112 4.161818 
20.163263 19.546234 -5.537673 
-10.169988 27.417124 0.583818 
29.376741 -0.035585 17.852633 
25.428743 -3.907788 1.929768 
16.376343 6.682831 5.524756 
-26.125799 -16.801466 8.090317 
25.120148 5.822359 5.017572 
-1.558339 32.071491 18.592377 
-30.670025 2.611199 14.633323 
22.324032 12.677980 8.825172 
-8.822900 24.963417 14.211411 
-1.012395 23.233452 -3.173951 
-22.266874 -0.294659 0.419839 
-6.929305 31.547789 6.841293 
-30.605980 2.612205 16.106459 
15.124962 20.925793 2.050862 
23.355997 2.586416 6.256193 
18.480150 -1.899218 4.548151 
-23.749853 6.530528 5.764422 
16.980526 -0.882862 -1.489111 
-26.427055 4.907543 -6.549574 
11.858579 26.929138 -6.039509 
-6.817583 26.167944 13.072584 
-31.183060 -15.041073 9.095135 
-12.599859 21.130833 10.893259 
23.066046 13.721544 -7.644204 
5.214267 26.944313 12.655926 
-5.908900 28.694061 5.693566 
18.093830 -1.770137 6.305989 
25.706457 -10.306678 13.051856 
23.933119 -4.087397 12.048145 
-17.522514 25.532375 17.169012 
31.240721 -5.010702 18.080122 
-25.880087 -19.354555 11.608381 
14.679238 11.956002 -5.685658 
-23.129953 13.093902 4.472703 
23.680861 13.393732 11.686433 
33.279095 -14.173695 15.524550 
-14.253700 8.226468 -2.741476 
13.250966 26.131439 12.224602 
6.462013 29.331402 15.053245 
0.829098 34.590511 10.897449 
-6.622802 31.487890 15.605549 
20.375521 15.626505 2.006430 
21.308832 -15.185342 11.068425 
-12.691705 13.292993 -6.070593 
-18.090853 -0.410351 17.848473 
-19.533619 -9.628999 12.242347 
-18.650675 -3.056219 17.401979 
6.414556 31.419378 16.672222 
26.119545 -2.463164 8.906012 
30.610367 -6.300852 -5.092997 
-19.270142 28.186106 11.823156 
19.414631 -3.720470 7.312883 
26.282524 7.019284 13.070433 
19.945114 -13.235163 1.515158 
26.594395 4.936542 -1.887247 
25.193348 -3.124941 6.963008 
9.806739 29.420734 19.054413 
10.420651 21.574356 12.330159 
28.181400 2.471577 8.940371 
13.807722 29.016241 6.256063 
-19.565767 27.186840 13.045076 
10.211795 25.186460 11.806149 
19.651297 -11.018970 3.609343 
-26.616863 -1.541520 12.071309 
7.376313 29.197666 21.351551 
-10.447279 25.319975 14.554286 
18.558226 -2.925591 7.357094 
19.230843 7.503675 5.118012 
13.619517 25.777384 11.006982 
20.230547 -4.115347 7.942386 
10.504708 26.930550 -7.726597 
-15.811234 9.547984 7.372365 
-6.799401 26.993376 12.719803 
15.801174 20.011295 10.044433 
10.847782 25.750027 -0.083663 
-11.217652 25.120367 13.019275 
-6.171044 35.718658 8.526002 
-2.048902 28.970871 11.792723 
-17.634411 3.525720 8.407149 
28.838972 -11.114049 6.768175 
-16.311089 16.934671 1.369526 
-20.990206 -9.059779 10.816033 
-18.319607 22.045084 7.865904 
33.159214 -15.897006 10.932526 
-31.576254 -11.069860 14.437595 
-27.711477 -19.504129 10.619273 
20.882061 14.069964 0.619746 
14.619102 29.944639 10.094033 
17.540615 -2.178932 -1.418304 
-22.624796 -0.101638 2.490529 
-5.136114 25.877758 13.577983 
-27.880920 1.855854 -0.978106 
19.000629 -0.081688 11.527773 
18.341192 -7.321913 12.420222 
-18.674292 6.056320 7.070701 
10.694171 19.623447 2.504029 
-9.366351 29.002428 -4.054224 
-28.025385 -10.277600 1.609427 
-6.044789 23.073442 17.804771 
-17.994791 -5.432120 -2.881212 
28.766741 -5.513028 5.952185 
12.810718 28.678366 14.800679 
-19.835897 -7.310342 9.619875 
33.455921 -15.486290 17.112238 
-7.252528 28.572754 11.316467 
24.958672 1.664311 5.331630 
-14.626512 13.975451 -0.648673 
-24.796946 2.876923 5.481816 
25.205133 -0.857086 5.119482 
-26.036068 -10.837325 10.438054 
-19.887897 -4.839290 -0.308844 
4.023642 32.367786 6.400805 
21.972446 10.253616 4.883007 
-1.857482 29.460152 -3.217551 
-0.175189 26.183990 -0.382158 
-21.189846 1.508428 12.732030 
-11.201632 26.534733 -9.292678 
24.950119 -10.923770 6.431899 
-18.893625 2.042503 -2.626131 
31.450315 -8.537992 9.324731 
-24.720184 -2.022118 12.253349 
-21.448261 -10.532664 6.535145 
-2.663542 29.695101 -0.882604 
-18.745619 -2.595508 3.522475 
24.781239 10.401862 15.816225 
2.450163 24.200876 18.076149 
30.921143 -3.984258 17.984531 
-3.533546 30.006550 13.705624 
24.887651 -24.067286 18.529573 
-22.239693 9.171984 0.011149 
31.059402 -8.328860 7.039959 
-5.919338 31.006954 14.063828 
13.284774 12.064198 20.445175 
-19.904757 3.616727 -2.992585 
-7.567523 29.583185 -2.064848 
-12.188026 30.868639 10.515547 
-12.042372 18.802107 0.096461 
-21.855402 23.074028 16.311460 
10.646257 22.169210 -3.361111 
31.358938 -4.371459 11.465119 
16.357224 2.122566 9.008354 
-23.504892 6.733052 -2.591060 
8.171484 24.072718 13.759810 
-28.665195 3.980525 5.565503 
-16.308834 15.825676 5.316481 
-18.028221 29.540941 7.944483 
2.542844 34.929085 8.594251 
-20.815901 -4.205474 0.878875 
-18.712530 26.451908 5.881218 
-19.863262 -5.202284 7.862516 
11.925453 26.437342 -0.512545 
26.820362 3.124812 2.923010 
14.290840 30.594063 9.033895 
-31.593182 -9.423538 13.235508 
13.328351 28.144833 14.171641 
-16.481123 0.174544 -0.604952 
21.624582 0.370465 -3.030004 
19.036045 -7.662861 -3.535497 
-20.512632 25.668997 12.978127 
19.507257 12.011374 3.944362 
-26.740688 -21.023605 16.238886 
33.028278 -13.388000 18.100845 
24.414644 -9.299485 12.971591 
-25.261753 8.509247 10.255307 
21.273972 12.193819 6.348173 
-0.269177 36.492455 7.327909 
-14.106171 24.412926 7.610190 
20.751081 -9.922464 8.180302 
-1.015494 37.275131 10.584485 
4.046151 24.765745 0.168776 
-0.755131 30.259062 21.369516 
-20.662106 4.091748 -3.044566 
0.992433 29.487520 16.000526 
-19.157463 24.077303 20.941532 
-14.591201 12.656114 13.380946 
25.304831 2.816157 -0.397392 
25.676306 -10.743299 9.654053 
24.766157 -7.427955 -1.775606 
-26.148233 1.806340 12.919830 
-18.372778 5.466347 10.088986 
21.481228 20.641571 17.960169 
30.569672 -3.233699 10.582650 
29.252094 2.140105 14.056239 
-7.275863 30.423809 7.576733 
22.611834 -4.495959 8.157118 
21.529169 8.197011 9.138543 
-0.315709 33.499741 7.281264 
19.478792 -4.847773 4.634227 
22.811846 -16.877077 10.857547 
24.919546 8.666330 1.344172 
24.696325 -13.721886 8.271530 
17.010485 22.971373 16.747999 
-9.301263 30.655920 16.827721 
28.375109 -2.423464 -1.829040 
-17.996809 -5.244720 3.549176 
20.960297 -5.339339 2.076084 
-10.059619 25.197367 0.165102 
3.168834 29.447067 18.128050 
8.466208 29.968462 0.601179 
31.759296 -8.208643 -2.394115 
-26.987421 -11.280698 5.010381 
-23.317120 -19.838139 12.000093 
28.787291 -6.507294 13.224929 
-31.172220 -18.152311 13.714376 
11.273682 21.505486 -3.395267 
16.399645 22.392239 16.547817 
30.904470 -7.335971 12.876925 
-10.322735 25.324810 11.360096 
-25.362162 3.628143 5.450393 
9.494462 18.934078 19.077240 
-24.487568 -7.746956 13.337282 
-11.774755 31.940483 6.390459 
-13.710970 27.502775 6.101092 
-12.425966 21.782421 12.950382 
-2.541763 26.307085 -2.714426 
13.642297 9.919236 13.909455 
-11.985270 18.802240 14.200464 
32.098305 -8.116694 18.008512 
19.881098 -2.739594 -0.597313 
-7.577761 22.307339 -0.821635 
19.878021 -12.552413 11.583432 
18.744541 11.378354 11.250496 
19.061699 -11.692224 17.372721 
-31.262249 -15.802689 18.704702 
-12.799378 19.959730 1.253198 
-15.998641 26.805859 4.832925 
-1.324579 29.583321 16.281179 
-24.980320 9.603759 -1.070871 
-18.140350 -4.501027 -5.348204 
-24.010923 -20.100027 9.067719 
-31.252201 -3.952756 9.319695 
-13.732723 21.556355 15.251998 
11.972082 19.411678 -1.487252 
20.387905 9.451724 3.715223 
-3.864486 21.550222 -8.654624 
-24.065639 18.439188 16.652533 
32.876511 -15.842211 15.335566 
-22.235929 -11.001679 0.167548 
-13.305720 20.889963 0.819241 
-27.495514 4.675190 12.814976 
18.551790 -8.785342 -0.514843 
-31.382627 -9.184330 19.065451 
-11.029768 28.178402 -5.121087 
19.008982 -4.817253 1.817504 
28.103601 2.926882 18.382244 
-1.663479 35.555008 8.162114 
18.125263 5.517460 9.421802 
27.859207 -3.759414 3.393319 
29.370451 -3.586592 6.064122 
-9.563972 24.316025 2.322044 
-28.136845 8.767560 15.859315 
-23.621458 9.247218 4.187420 
4.577117 32.997578 3.910732 
25.760096 -24.612717 15.749425 
28.641466 -6.605470 4.803831 
-17.489622 28.912466 6.346838 
-2.001792 24.510435 19.442102 
16.432247 0.968352 0.587058 
31.052273 -12.527266 13.700647 
-20.852367 -16.649551 13.171796 
1.828867 35.076385 6.184119 
23.960165 12.573318 11.991559 
8.258433 34.068577 8.925421 
18.207127 5.603264 -1.664416 
24.980528 13.538705 -2.506778 
-26.401438 4.784473 3.509188 
25.549618 4.804972 -2.377224 
28.412460 -10.175824 6.647780 
-27.849548 -1.786182 1.402604 
18.852108 5.269148 8.666237 
-25.139811 -0.645754 11.516234 
-7.051656 30.593386 2.487892 
6.554702 30.832161 3.163178 
-30.829756 -12.811876 8.728942 
19.344702 6.241276 0.302088 
7.247307 34.511471 5.872991 
32.742962 -12.399065 19.205242 
22.999340 16.566723 2.182117 
30.154291 -19.932091 17.326757 
19.718731 -2.514818 4.622220 
-13.292224 15.015402 16.247915 
-25.703970 -5.383259 -0.759162 
-6.823106 27.086193 -0.665423 
-18.934483 0.397190 6.645425 
5.890814 29.541285 13.810715 
12.463516 25.169645 12.793688 
15.739799 26.886494 5.661683 
-13.069515 12.074604 -3.151622 
-10.293758 28.896614 -0.515898 
11.869732 17.521280 13.402058 
-30.478247 -12.085267 9.124311 
16.705317 23.823950 5.870645 
-13.681198 10.030409 -3.500537 
21.857435 -1.380560 11.891873 
-10.538426 20.107445 16.337831 
-0.683031 24.228151 21.040606 
17.490229 4.005512 -6.411182 
-16.924990 3.282121 15.065617 
-15.814279 17.050232 9.015978 
26.891027 -11.194752 12.914815 
13.446527 10.950522 14.861405 
-18.502878 26.301090 14.906129 
-19.960196 25.252237 14.561122 
-18.858341 26.693079 14.226186 
30.158651 -17.754253 11.789085 
-24.423059 9.395748 7.350496 
26.015501 2.482546 4.633452 
-1.002621 30.857347 12.676229 
29.709286 -8.011079 13.188616 
-24.767130 8.342573 -6.985667 
-15.089460 20.970005 12.187190 
-23.633743 0.031104 12.642486 
30.588221 -6.223892 -3.971975 
24.356260 11.572518 13.276093 
-29.293020 -11.935970 8.664699 
-21.201616 -17.771795 12.464398 
-26.913847 0.555524 12.527508 
25.035103 9.221303 12.619871 
27.171043 -6.242623 6.359792 
-23.631824 4.560398 13.176062 
15.862088 9.822752 -5.707044 
13.864274 9.828692 18.420218 
13.572152 21.399334 11.422978 
6.567019 26.121218 12.535621 
-31.442213 -5.999547 19.239037 
-17.218929 21.399445 10.176793 
24.465452 11.657631 14.400933 
-21.155399 -9.221156 -0.587276 
-24.326494 -1.354281 11.772275 
19.715176 -9.956928 0.146916 
-19.018047 10.746387 4.485339 
31.572979 -21.440565 13.546277 
28.918669 -3.751595 -5.418211 
-2.203263 33.388172 4.899685 
-11.773400 23.372736 11.797373 
-30.134079 -2.076385 10.507003 
-23.367699 -1.348260 10.292953 
-17.998468 7.498096 9.057511 
15.028197 26.472464 5.894377 
-14.606939 7.194142 -3.863655 
-23.375313 9.497192 -1.954205 
23.701326 -9.830887 2.306922 
-15.015006 29.083208 6.502168 
2.249302 25.735048 -1.406822 
-20.591530 -12.375856 11.389652 
16.588345 8.120397 -5.554963 
29.808907 -2.226809 19.746185 
-20.472906 11.866659 0.955378 
-21.588617 4.253520 -2.997553 
-23.047148 -14.089028 13.180003 
-11.859248 26.967844 -3.686412 
-1.496058 29.065472 13.511189 
21.556143 13.940316 -3.935037 
-23.132639 14.551206 4.901230 
20.838310 -16.518206 13.286011 
-14.288087 21.696260 0.033558 
18.344032 4.005200 5.981759 
-19.897182 24.943888 18.483507 
-20.204214 -10.138458 -2.522851 
-15.354041 9.175793 1.389552 
9.673442 25.033411 3.866038 
-19.056501 9.879679 0.038754 
-32.140705 -7.113860 14.433650 
25.212105 -9.567072 9.674745 
-22.882139 13.316084 9.425372 
3.382490 33.835827 12.238106 
20.561417 8.130495 2.158939 
26.054110 -17.749098 7.191344 
11.193199 24.909714 -0.183301 
20.042660 -0.911776 9.251895 
-8.636244 23.009159 13.504194 
-28.494993 0.547664 -4.376648 
10.813130 25.236860 15.812898 
-0.250125 34.719906 12.278199 
28.603792 -5.309570 10.304989 
6.719203 31.935982 5.030269 
24.740992 8.961895 4.135333 
28.418079 4.403861 13.869164 
-21.078465 11.100484 2.716358 
-21.964392 12.928046 12.295345 
-14.054109 26.687950 7.447487 
-31.309553 -3.884133 19.355181 
16.537947 19.290575 13.199536 
-24.994732 -0.881269 10.690212 
31.263695 -8.321898 10.511121 
20.499184 -12.448921 9.949164 
2.763304 33.581367 6.227351 
25.571098 15.268226 0.435908 
-23.208733 -2.841458 6.538526 
3.248451 31.906866 17.233513 
-0.769568 31.003992 20.302605 
23.884520 14.462834 15.407666 
0.570787 24.476278 19.195026 
-10.243532 27.635157 15.986566 
8.804506 18.603943 -2.177732 
-12.550232 29.283430 12.898046 
2.220104 22.485542 -5.514923 
12.879988 24.228760 8.199689 
11.709222 21.970409 12.502156 
13.049647 26.614479 11.232552 
-21.131641 -11.411364 -2.000423 
20.983418 12.849065 -3.861130 
-24.907537 -18.749353 15.063815 
-21.023510 -8.513722 7.402538 
27.620224 -18.329390 11.204527 
-27.119848 -9.676603 12.911953 
32.305984 -8.022768 14.769333 
-23.712231 -12.749941 -2.499707 
-15.975874 30.044693 8.743959 
-26.067350 11.614209 20.227114 
-31.976496 -8.146165 15.276981 
13.611932 24.909298 10.791080 
-1.266728 34.682121 14.079999 
22.700016 -9.142855 9.149704 
-23.893528 -7.114190 6.415931 
-0.709594 36.389725 11.925494 
-29.304253 -9.835926 7.035487 
-1.236760 33.369251 9.151764 
-29.267929 -17.374266 14.949736 
9.113605 25.359985 2.711447 
-17.022533 11.546634 10.404335 
28.952387 -11.928555 7.256188 
30.752157 -2.787270 16.284580 
-25.261843 0.309908 9.145103 
10.270940 31.807150 5.764470 
-29.018055 4.389717 7.344579 
10.687507 29.816425 4.266199 
26.262760 7.296848 16.104240 
27.986712 -11.153032 12.921624 
-31.346195 -16.983192 10.603258 
27.068651 -5.395812 6.290741 
-4.615884 25.698977 -1.595804 
28.190281 -20.771906 16.427893 
26.268427 7.597064 -0.946317 
-10.197444 28.737253 3.692576 
20.690020 -10.215958 9.039932 
24.414793 -8.180636 13.052917 
-4.766741 30.390707 -3.553239 
-21.201235 -13.998809 9.830421 
26.446405 -23.765072 13.137683 
8.207461 22.850554 13.596835 
8.040804 24.029898 1.729326 
-4.729446 24.996746 -0.427223 
-26.125278 -0.875110 8.069334 
22.707661 17.714355 14.280282 
-14.304164 22.800945 -2.992392 
29.549347 -6.280185 2.599612 
-17.941605 -5.010228 -1.089389 
22.538488 0.567297 -2.979742 
-20.564930 -14.490578 13.827408 
-1.516184 28.244440 14.953156 
27.714886 -4.726684 12.873565 
-32.475452 -14.253742 10.822007 
-22.911386 -5.142828 12.989261 
-21.130672 12.938343 12.319098 
3.405131 27.013548 2.228507 
-32.388519 -14.989915 11.203389 
9.888892 24.515139 5.293301 
29.374447 -16.396965 12.470493 
-11.665834 27.406092 -3.015176 
18.074572 -4.959193 19.539309 
23.912752 -16.067142 -0.295855 
-20.059793 8.833557 4.769073 
-30.873791 1.569804 15.828857 
-18.444677 5.746070 8.857339 
22.491180 16.990509 -3.750465 
19.150654 25.333502 8.518087 
-10.155171 26.420719 5.946218 
-24.414469 -3.023224 1.449751 
20.898394 -9.806833 5.260673 
-15.209787 9.422862 17.049316 
4.921085 33.748024 5.934513 
11.090482 19.190676 -1.945876 
3.865120 26.284609 12.686980 
17.600159 6.654746 0.883322 
-22.773039 -0.594203 3.308925 
-2.204299 27.853180 16.599958 
9.683807 27.263348 -1.775275 
-31.095982 -11.745126 12.000637 
-15.289041 17.063990 2.739459 
-4.178666 31.219728 17.924713 
6.436774 23.655064 -1.435475 
-14.108081 22.524107 8.115397 
-30.153341 -6.946760 -2.240683 
25.813456 -5.774135 -1.377038 
-4.903111 28.328192 17.466654 
10.561602 20.186104 13.089131 
-13.963285 25.914791 6.116415 
-25.118105 14.136912 10.062982 
-1.611953 23.946577 -1.015526 
-10.308182 32.439728 8.650326 
-28.849567 4.538925 11.375403 
10.334378 28.145203 -0.265364 
24.364187 -3.443022 0.075725 
-31.565838 -13.288157 17.125242 
9.026205 27.845919 -2.709522 
19.015001 21.234612 -4.342048 
-31.125481 -7.428183 10.772194 
26.323706 -24.915092 18.490347 
-15.968778 2.277365 -4.263290 
-13.905050 26.848034 12.148525 
-17.955591 -2.415349 0.795205 
-26.772142 11.452522 16.483210 
-25.022709 -20.434778 12.754396 
-17.634617 5.813016 10.155744 
28.952538 3.286063 13.471229 
29.857821 -14.869413 9.690995 
-31.007368 -3.736199 11.589841 
18.665804 -4.847446 -3.829852 
-10.115602 17.769974 -4.942639 
-20.418898 11.800313 0.047391 
-14.131221 12.633980 18.244219 
-28.768415 3.156106 6.159071 
-12.696237 17.435009 0.121969 
20.033894 23.216928 13.421640 
-10.435782 30.417797 13.453268 
-8.300200 29.066133 21.267290 
10.103784 28.204437 9.036805 
-0.089428 30.604612 4.956389 
21.945829 11.862133 9.108091 
-20.973087 -15.635125 15.423772 
29.789551 -4.209268 12.462145 
1.232914 32.811924 14.770592 
-10.951948 25.900490 14.922027 
18.518324 9.562479 4.850874 
7.480387 32.730469 7.003614 
-28.953245 2.986381 7.069795 
24.638441 -13.043859 2.091076 
-24.129110 -9.233082 -0.467275 
18.384203 22.796600 13.773656 
-16.781725 1.083080 1.162204 
27.699310 2.691403 20.004328 
-25.590286 13.257276 10.348669 
28.310970 -14.950690 15.947083 
-23.298218 -4.956227 -1.252538 
-29.759415 -5.034213 12.878769 
-28.265217 -2.175593 3.691548 
-16.869041 3.458935 13.881013 
19.734213 10.470644 -2.088481 
-22.897587 -10.998713 9.525550 
29.921766 -6.254712 6.107828 
-23.504852 -9.676084 12.659719 
-21.239851 9.999975 12.238483 
4.960828 32.310078 15.390668 
-7.843323 22.148695 17.194157 
-20.689610 3.877315 4.024549 
-10.510699 26.949514 -1.967714 
21.766813 -13.282460 9.326834 
-19.215183 25.895056 14.759075 
6.575885 30.641239 -2.136147 
22.588285 8.439267 7.581438 
-0.173643 35.791298 7.757376 
-27.102188 -10.708798 10.363199 
-23.756151 10.989566 -5.671809 
30.752386 -2.530886 13.679335 
-24.624092 4.036436 13.202364 
7.497511 26.237923 3.232681 
25.585953 -24.383186 14.681156 
8.922280 29.128508 -3.064882 
1.547116 31.341150 -2.729316 
-16.126709 11.398741 8.786318 
9.827112 33.044338 7.856194 
10.809840 21.123371 3.644487 
15.538632 9.523683 -7.114226 
7.447195 30.399240 9.376473 
4.245163 31.591143 0.085825 
-29.459389 -11.422451 9.368216 
29.265488 -11.170704 5.450812 
21.322287 11.459395 4.384031 
26.871874 -3.847309 0.260681 
-21.451170 13.572535 11.570293 
-20.550945 -8.458714 8.563200 
19.991980 22.656038 12.008959 
16.381702 2.418432 0.595758 
-3.205681 32.429539 18.121351 
-16.157579 1.391746 -0.253401 
0.470148 35.152836 8.380043 
-8.847313 23.603365 11.935999 
-30.522736 -3.943801 6.232071 
18.747372 20.071915 -8.454389 
15.219656 5.848563 7.478584 
-31.207605 -14.622132 18.769426 
3.006915 32.134418 6.328943 
-18.829884 5.543380 4.378485 
-16.894781 -1.038574 -3.341486 
25.934317 -12.168137 4.299931 
-20.084835 -10.153620 -1.655823 
29.238264 1.061534 16.372633 
-8.792532 25.170275 10.109884 
25.197266 -14.452408 13.228414 
-30.976686 -14.846000 16.005760 
25.464437 -4.639947 -1.177548 
-5.659939 33.488579 15.890207 
-16.814993 8.279325 7.101296 
-27.842720 -3.473756 0.403870 
1.266236 32.875980 6.479550 
-4.882725 23.620251 18.926741 
22.155621 -11.506709 7.313537 
20.341873 -3.689439 10.063791 
22.210058 3.562618 4.455066 
21.451973 5.750614 5.898741 
-14.022480 28.568241 7.240325 
18.585224 -9.593646 15.845662 
2.617452 31.120899 19.659822 
-20.798681 7.252079 12.011962 
-14.263361 25.540764 -7.189661 
24.484251 -4.777911 -1.375253 
23.370455 10.398281 -3.228895 
-22.525793 21.491657 17.140831 
-19.279888 -8.305573 2.371373 
33.444172 -16.429096 11.982678 
-14.544517 7.991248 -5.336670 
-24.136925 10.493200 -4.208747 
23.805208 12.266602 -3.453291 
-19.095779 -0.305104 7.398716 
16.899630 26.651093 15.424129 
-6.748053 20.245052 -8.490140 
-12.055969 30.709475 5.402203 
-21.814421 -16.006083 12.636827 
-21.032635 -14.602439 16.902390 
26.185661 -12.874235 1.564713 
-1.634524 25.021490 17.793793 
-24.541180 -11.728212 1.508364 
12.669994 13.416931 16.350100 
16.265318 19.061846 9.881925 
16.275473 23.004871 13.569079 
20.293594 4.029487 9.274957 
18.800167 12.182648 9.517817 
-9.677250 31.816330 11.584571 
0.053481 26.936602 -1.499008 
-19.366331 22.896025 14.520315 
22.789232 -12.657515 10.382148 
-21.323004 5.923366 12.734804 
15.938167 21.585970 4.401357 
-13.559312 10.294496 2.375644 
-15.942304 8.091308 1.714412 
22.281864 -3.984827 5.898176 
-16.162903 26.073689 1.860452 
18.763693 2.186597 -3.203457 
12.528433 21.286331 0.003926 
-6.615578 29.913179 13.273040 
9.851856 27.851980 13.947968 
20.322418 3.752964 11.871787 
-4.102367 29.004372 5.451294 
30.154583 -10.189556 6.473155 
-24.312937 -0.930836 1.373371 
9.014030 25.501354 -2.921222 
18.999443 -5.582427 4.639956 
15.010409 5.043675 10.939353 
-15.324540 5.875644 0.888907 
15.629899 23.394257 6.131406 
28.562912 -2.527953 -2.927727 
-8.609620 29.532391 0.728348 
29.025404 -21.823269 14.731249 
-23.617247 -8.461077 13.043262 
-30.324898 3.516531 11.898615 
-27.363146 8.879805 20.071453 
25.483313 7.197662 10.920858 
-31.569998 -15.666991 17.624903 
13.042330 27.438536 14.738202 
29.211870 -19.202288 13.908387 
-29.448860 -16.967743 10.397395 
16.999710 22.793640 -7.488763 
6.255524 35.268475 7.305218 
18.963348 26.135784 11.397200 
-2.559745 36.009476 7.979360 
-14.473141 25.930553 7.294055 
-10.689812 29.814106 17.370066 
-26.190121 -13.091296 3.076471 
-6.653443 26.605110 11.037279 
14.961717 7.535685 20.206179 
-25.285353 -21.282602 13.738875 
-25.837074 -16.331598 7.296716 
-30.271179 -7.273982 12.786612 
29.387438 -1.252300 19.797318 
19.651644 -6.403298 0.280635 
19.283493 -5.126475 9.247014 
29.950344 -5.400241 -3.988087 
15.651732 26.955433 10.871239 
-24.062777 -14.557411 6.630222 
10.913622 29.629602 7.372715 
17.340139 27.362112 7.577954 
2.411380 31.869646 0.720004 
-26.753119 -9.556863 7.496244 
-17.179396 -2.016965 -1.921237 
17.645903 -2.134130 -2.244203 
30.561146 -2.974975 17.883820 
12.607366 15.539191 13.452389 
21.224850 11.125346 9.216036 
-20.764442 12.729962 2.632048 
16.517401 0.188337 0.922712 
20.086704 3.335340 -3.394881 
25.961685 13.612884 -0.132439 
23.450006 -5.138665 5.834649 
27.683041 2.072824 -6.159830 
-21.488483 -14.574206 18.819832 
-17.610748 28.546579 11.932511 
-15.582554 24.405590 -0.608647 
18.031519 24.445709 20.062281 
-17.663374 14.317659 -2.699610 
25.112345 4.437560 -0.605606 
24.793152 -6.996853 5.663358 
25.049829 4.371223 12.113147 
-6.248731 30.191214 -2.869089 
9.077229 22.970249 0.265757 
16.318541 -0.146285 2.998167 
18.693550 3.186646 11.429675 
-30.883671 -0.342220 11.831407 
11.760703 28.134214 5.366099 
-21.784130 -18.114649 10.786242 
-19.525904 8.209662 9.255917 
-3.935706 27.340057 16.557190 
-21.468569 -11.212823 -4.496156 
13.809376 30.667175 5.867574 
-30.091980 3.561755 17.972025 
-31.948433 -3.656056 15.312212 
-15.824060 28.176182 15.555979 
22.621168 -20.790413 15.657660 
-17.042131 12.173552 9.711150 
-17.285595 5.575019 10.895827 
-3.053301 28.768188 17.881210 
-23.904423 5.138288 -2.579123 
-19.211828 -3.978627 19.409508 
18.580709 20.469301 13.523693 
12.645135 13.264746 18.291876 
-21.182272 8.792610 -2.520268 
1.965805 33.414635 6.316750 
-8.208698 27.069115 10.236042 
-21.841022 14.421721 -0.530409 
14.757995 20.408894 2.660457 
-29.112734 2.788118 9.138762 
-14.475325 16.497637 1.526775 
-12.511316 24.699919 5.330404 
-6.505176 36.015087 12.973580 
2.823067 23.676680 -1.536360 
-18.297682 -1.261355 12.211330 
-17.615366 10.009837 -1.829545 
6.215352 30.280590 15.945032 
4.664074 30.898653 9.545414 
-16.483145 8.961728 10.070395 
-24.907103 -1.360733 7.892226 
0.600179 22.084145 -8.720143 
-18.036797 4.018888 6.351552 
-29.671013 -2.634163 -1.755077 
2.387103 26.599419 16.181259 
-9.720983 25.421667 -1.841573 
28.669905 3.208524 15.619347 
15.363779 19.004389 13.042147 
3.107783 23.320808 -2.248686 
27.025181 -14.382740 9.983588 
-25.561756 4.461309 5.306437 
23.698669 -11.144528 -1.404778 
-20.499472 12.082861 1.989469 
-28.655685 -19.099075 10.738005 
-9.263906 22.877228 -0.513622 
18.607410 -6.115155 -2.364580 
16.875143 21.391090 5.923695 
-17.581179 9.469667 3.646433 
-8.588586 29.096455 6.395891 
-21.175917 -3.741226 -0.837396 
-21.003864 -11.461180 -1.005399 
11.584971 21.992712 -0.272147 
-28.997438 3.799469 10.807620 
26.076752 7.385910 -6.836598 
-9.211823 29.964321 18.835735 
-21.134268 21.745726 20.804516 
27.377522 0.912007 1.641894 
14.753618 7.462992 5.158771 
26.656534 -13.033092 0.644524 
30.512161 -7.292774 0.470977 
-19.788246 -8.773911 -4.805517 
24.226700 16.302713 1.162424 
-8.653851 31.445950 14.786798 
17.919083 -1.539978 10.200277 
-30.926256 -8.008232 8.126538 
20.532068 17.583296 -8.136839 
13.081762 25.867619 9.740877 
11.598285 19.428465 2.802439 
-22.969788 12.506434 -6.036770 
6.387560 23.476496 15.208905 
-19.581226 -3.854156 10.118400 
-24.648703 -19.669645 14.410451 
-17.514473 22.068552 -7.207912 
20.067942 -3.336908 1.294356 
5.774356 34.928188 5.715477 
13.782009 28.158680 6.842458 
8.848898 29.092585 -1.905013 
-21.995077 -0.775304 3.587313 
18.916582 26.226599 9.462925 
24.683455 10.422185 14.577009 
-5.578407 24.521797 14.745746 
24.195276 -4.013445 -1.170399 
9.142259 18.997435 20.803337 
24.577579 10.271794 -0.798766 
-26.232529 -12.693533 14.385892 
22.652628 -20.673767 14.351595 
18.028366 -6.669116 15.145259 
-25.626839 8.190579 0.642797 
25.121546 -21.729090 12.455858 
1.147525 28.847473 -0.686161 
0.345801 31.359867 1.783274 
32.310532 -8.012731 15.689516 
20.543863 -15.580174 13.324481 
2.257856 29.870817 3.957774 
-21.218870 11.106528 4.640852 
-24.042747 -19.477133 8.465248 
25.132904 6.231474 11.143667 
23.131004 -2.398515 8.881814 
14.724138 21.964146 -2.483979 
14.071555 25.464102 -6.785436 
10.748665 27.184427 14.088972 
17.932026 -0.719015 -4.649745 
21.499327 -15.997555 11.028669 
29.737272 -11.728251 7.968681 
0.916425 31.521242 19.259813 
-3.174901 27.640432 16.825703 
-27.444946 10.128919 15.876593 
14.474227 23.976673 16.169741 
-23.771120 7.844972 12.501257 
18.020977 -1.189872 -1.572724 
13.853234 18.710770 10.315780 
-19.023439 -4.826231 17.448236 
28.087456 -13.646140 14.945112 
-20.468769 13.217955 4.767460 
-4.532587 29.494959 6.125491 
-5.160241 30.594707 -0.330408 
2.932084 24.098265 -0.644758 
32.043293 -17.015234 16.863739 
-12.065126 23.686571 -4.721603 
-25.975576 8.064966 -2.419012 
-17.523985 -0.660351 1.019558 
-15.337299 9.399735 18.532480 
-23.841255 -11.815520 1.927578 
29.337046 -5.871050 0.175953 
-10.608114 32.176208 5.425194 
-23.416697 -0.797254 5.229486 
-13.237561 28.327810 6.114088 
-6.932475 29.741421 10.926460 
5.195559 30.393768 15.609970 
-26.652411 3.550699 5.022930 
-26.109056 -21.212378 13.226863 
1.578904 23.171745 -3.588860 
-30.209492 1.164012 10.889462 
24.300863 -13.232266 5.775672 
-30.679245 -8.141348 11.969451 
15.677573 24.155434 -0.392026 
27.953663 -12.906463 8.707415 
-0.985274 31.714041 14.957635 
-24.769104 9.593351 -2.370532 
23.120384 -1.900418 5.496749 
-15.005156 10.664178 13.084865 
-1.451343 36.994305 11.251578 
-29.778843 -14.279785 13.597878 
-21.168009 9.062537 5.519832 
-19.954271 15.367002 6.294471 
-11.330744 31.267694 10.810011 
-6.593223 23.109730 15.675627 
19.373852 6.911053 -0.733950 
16.970610 6.320138 9.251654 
22.898014 -12.609654 4.939593 
10.798572 27.681887 9.324911 
20.369171 10.356160 1.313824 
-27.451805 -1.131449 6.436939 
7.293288 21.671368 -0.667736 
14.903320 25.343349 -5.270542 
2.650870 30.668325 20.485756 
-30.212029 -8.202508 6.647322 
22.499750 17.293032 20.775963 
-13.510684 21.919626 9.505400 
5.186459 23.394619 17.293028 
22.858482 13.602394 9.837125 
-9.137060 24.561096 10.833755 
-22.660131 1.911121 -2.430737 
-30.631124 0.472564 11.770982 
26.043217 -10.186747 3.380600 
-26.045443 13.259745 12.340665 
-19.745419 19.282825 -3.008515 
-5.864257 25.054379 -3.276035 
26.901299 -16.416132 15.805801 
24.961004 -3.128329 7.780085 
-9.081179 26.649307 12.593386 
-1.904236 32.302624 6.612517 
17.088614 21.309399 16.258760 
21.542360 16.550533 1.869174 
15.290807 19.031544 10.375706 
25.928219 7.125606 11.891521 
26.498890 -4.994581 -1.001340 
-11.823172 20.243559 12.714574 
-31.225752 -17.034891 18.637609 
27.118015 -7.750876 13.425729 
10.759055 16.614140 -6.304984 
19.867996 10.474659 -1.061869 
-2.509890 34.690926 14.594098 
-25.884857 2.130711 4.041136 
-2.121483 30.389894 -5.119037 
7.216959 26.483660 -3.527234 
-26.673389 -7.482416 -0.179767 
31.870569 -10.651079 -1.067071 
-5.275286 29.391546 -6.178728 
0.021945 31.077433 0.719585 
-15.944915 6.038916 -1.039846 
-18.486845 25.674965 5.352605 
-10.999228 28.862795 3.971902 
-3.763202 30.515123 -4.014481 
-20.156597 -7.467138 8.009081 
31.063787 -16.915106 10.998905 
14.970479 25.606314 -3.423903 
-21.287905 -17.806393 13.438232 
26.301321 -13.988792 4.920246 
19.899014 -14.844706 16.781460 
-29.982344 -19.072493 15.088480 
-26.532402 -11.474870 4.284154 
-18.513563 21.081640 -0.473529 
-20.783121 -2.761106 1.723684 
23.018450 -18.176102 9.473077 
24.454475 0.277711 5.494678 
21.080269 -17.987122 18.842808 
-26.266104 6.638537 1.954308 
-21.384611 -1.516681 9.700359 
11.279952 28.674658 19.387276 
-22.460199 -7.974497 9.816098 
17.302942 19.544266 12.844350 
-18.650024 -2.652101 4.470874 
18.059513 9.943116 12.241690 
28.110558 1.096083 7.474645 
27.190641 -19.843929 8.677787 
-25.143160 15.683755 16.821001 
-11.700953 15.340119 -7.868825 
4.573413 21.014482 -8.581927 
-23.034662 15.015570 6.680442 
-19.769079 10.232947 5.513369 
-18.661028 21.172001 -4.324712 
-32.068180 -13.303824 9.776733 
25.881512 3.278309 -2.334798 
18.752480 -9.301310 12.070339 
-21.323347 0.479979 1.757515 
14.500098 29.061995 11.096069 
10.705893 28.995085 8.122815 
25.179693 -3.993076 6.301591 
-4.217294 30.123159 3.900791 
-15.970087 10.985727 4.295417 
20.254400 4.392456 -3.347179 
-13.197319 14.806887 18.211115 
-14.835346 6.264709 -3.804220 
-23.015858 11.670762 -1.082559 
23.243021 13.819638 4.846817 
-5.688240 31.261097 4.567237 
-18.243643 2.721158 11.589355 
29.951765 -13.374144 12.129233 
6.368259 23.542400 0.344427 
19.069153 9.971239 0.022263 
12.435040 14.931702 -5.849009 
-8.786742 26.273403 10.072319 
28.550911 1.911496 18.198519 
0.840000 32.972473 13.307010 
23.999493 11.070961 -2.666072 
-12.591193 13.466833 -4.722887 
22.848501 11.708746 9.038833 
7.871639 25.614698 12.418348 
15.638078 8.865625 12.025061 
-2.557675 26.797604 14.150215 
-30.509710 -8.944288 10.062630 
4.808360 32.104023 8.373633 
-15.987361 9.780623 9.157920 
12.757054 23.806780 14.503053 
-26.585299 3.960395 2.015916 
-22.339439 15.229116 8.233326 
-26.184996 3.062805 0.830646 
-18.753941 13.180501 10.657184 
-25.013590 1.449014 0.676029 
25.911684 -9.269814 -1.497729 
13.349502 20.878660 8.734063 
-11.622422 18.088039 16.998968 
-19.223078 22.569098 9.830091 
10.169439 24.653154 -1.396082 
30.870474 -4.496636 10.027405 
28.128735 1.673143 19.950848 
15.876219 24.192251 3.515898 
14.081694 30.845404 6.994010 
-0.672879 25.100241 -0.791356 
-15.364547 5.963458 -6.677948 
10.619390 19.265429 14.277977 
31.202789 -17.359558 14.823883 
18.365965 -8.498465 14.097614 
30.544771 -22.520475 16.207743 
27.802887 -15.614859 16.025911 
4.383703 27.952578 2.493730 
-26.850420 0.795422 9.124095 
4.116124 26.220007 0.366492 
18.905262 -9.035033 -2.304995 
-0.208437 29.298901 -7.897747 
-26.216845 -6.406994 13.557652 
6.239655 29.358644 15.991787 
14.766959 5.758494 16.467051 
27.866898 1.079645 -6.033383 
27.021263 3.814377 5.461506 
-6.353563 20.987909 -4.863490 
-0.028908 35.150322 11.528299 
-15.882336 23.673244 6.032917 
-1.693018 27.498749 15.639819 
-15.708626 25.513397 -2.573213 
-0.281613 33.754524 8.948708 
23.684153 -4.920513 12.286489 
-19.771317 2.716528 -2.842988 
-20.167004 -6.583420 7.151171 
9.632841 29.738018 2.151392 
-16.854437 6.754398 -2.509420 
24.920937 8.651086 3.281082 
-26.903193 -19.729548 15.246276 
24.462620 11.404854 -1.957060 
-19.238100 -8.544455 12.644065 
-31.096115 0.544368 15.803843 
-16.446833 24.190247 0.841637 
-16.811790 12.764696 8.233930 
-19.978376 3.351844 12.632558 
-25.416431 -6.257457 -0.820762 
-25.478487 8.183804 -4.555744 
14.559835 7.665176 10.126101 
9.707192 26.538925 -9.281957 
21.129194 -16.270697 12.028521 
-6.808331 25.421032 -3.539481 
11.491611 24.976139 -3.274840 
22.643669 -5.476638 4.844619 
-20.848164 22.840754 10.887588 
15.274244 24.715351 -2.047933 
-10.011609 22.791416 -3.555221 
3.944183 25.680441 13.922715 
-9.656621 24.990122 14.331400 
25.452629 -22.869251 11.730855 
-19.569872 -6.929060 -0.048605 
11.667678 16.429176 -3.129736 
-19.280083 -8.539495 11.815015 
-0.769613 28.396063 -9.523849 
-17.599712 0.633051 13.213821 
-24.685911 -11.075205 9.993264 
13.613349 9.878700 15.219111 
16.658253 0.760318 4.494924 
-19.960724 -5.805854 11.792869 
17.024876 26.147034 17.497211 
-27.095318 9.111833 6.885060 
19.143984 -0.414976 -2.725417 
22.089130 -3.257955 2.672628 
-9.222613 22.487722 14.070157 
17.288462 3.456037 8.143064 
12.172866 19.331600 0.723420 
19.895447 12.546282 4.594402 
-10.197392 28.017673 8.285672 
30.139353 -18.193129 17.397038 
31.942163 -22.734470 18.637026 
-18.778126 22.162062 11.403508 
27.680355 -19.868347 9.402493 
-17.253344 10.594314 0.921287 
-25.051594 -18.035435 8.075790 
-20.499947 -13.541582 15.064683 
-3.311035 31.746529 19.192081 
-15.178973 28.217632 16.756603 
27.743631 -19.977343 16.384483 
-27.139980 2.162150 9.692904 
-30.212141 -8.370697 0.594603 
30.932283 -10.241703 9.845745 
13.420716 20.092768 14.727440 
7.280665 31.998110 12.601972 
18.858837 0.457313 -2.930672 
2.727874 33.316864 5.020360 
5.500431 31.746094 15.807359 
18.028366 3.853014 11.010551 
16.607800 26.799179 11.824744 
23.440928 -4.633967 6.510194 
-15.132696 12.233018 -2.855283 
28.292297 -11.471533 -0.043825 
27.743317 -21.842382 14.562419 
20.189156 -12.198285 2.635560 
-24.911654 8.789469 9.420577 
0.091192 26.277330 14.691541 
-3.855559 31.100420 1.345419 
23.003576 12.795665 -4.273216 
23.100580 14.087703 -1.360077 
14.329200 27.035049 6.859301 
22.484926 -9.171187 5.139534 
27.340647 -23.228079 13.592420 
22.321119 3.339700 6.194965 
23.250910 9.441089 0.341668 
15.577976 22.723421 0.674024 
-22.113350 14.865193 4.627601 
20.498270 13.636286 3.896827 
-0.012439 24.460188 -1.090382 
26.817921 6.590477 -1.374368 
-11.066031 25.295671 -1.546519 
22.127447 14.885505 -3.847997 
-2.657236 37.444977 9.562641 
16.610769 3.682135 0.246742 
-32.008827 -3.586843 14.250958 
-21.960558 9.907775 9.496902 
-10.738466 17.625315 -3.302061 
-31.741385 -15.648156 9.540729 
-25.920471 13.282985 11.530137 
-23.455860 -15.834074 14.148233 
15.287310 10.940865 -5.706040 
-21.441885 2.256850 -2.696819 
-27.157743 -1.875258 5.371260 
-16.262184 28.070082 5.274446 
25.024401 12.048797 -1.009457 
-8.122719 35.713341 8.260842 
-19.767530 3.864553 4.119707 
-14.248547 27.678909 1.220684 
23.332352 -6.850421 12.621474 
22.337786 -5.413146 8.402484 
-13.823401 28.456980 5.525237 
13.666948 24.203918 -1.802108 
12.494452 26.646137 12.384636 
-21.332333 -10.766016 1.263872 
-24.404655 -5.469471 6.351548 
8.315127 30.012533 18.912018 
22.611858 8.251747 1.676056 
-20.996746 -0.882827 4.004166 
-16.924097 30.049332 9.021101 
26.939774 6.300694 14.886545 
-15.665576 24.831779 -5.827259 
22.438206 -17.715008 10.251719 
-8.536875 27.907606 0.116784 
-25.611458 2.769359 -0.708837 
11.785463 24.494738 10.074057 
-7.012536 27.754173 13.049225 
-17.461874 21.492693 9.243093 
-3.812355 29.098175 18.224676 
-12.422163 24.467352 -5.058625 
10.848960 24.167318 11.900496 
21.987467 7.039846 6.317091 
26.298697 14.874591 0.934605 
20.069643 4.940330 8.691680 
22.187536 -0.665787 5.502867 
-2.168087 25.756802 15.666226 
-24.944244 -13.994024 6.701360 
-11.790223 20.178858 -2.334316 
22.296547 4.325072 6.062190 
-17.624638 22.467676 -5.844403 
-14.412869 21.678284 2.309936 
-24.966599 -13.178102 0.700970 
13.580843 26.733423 -3.639268 
-17.675243 22.877220 10.630061 
-20.213844 15.697311 -0.099547 
18.788483 21.484066 -3.168818 
-3.220584 26.436686 -0.890978 
14.396754 14.632308 10.170484 
-21.006086 1.615954 0.915791 
-18.933699 -6.820295 1.346135 
5.778794 29.031603 3.622771 
10.534602 29.066011 19.235600 
33.202564 -20.507027 18.764835 
31.691988 -7.022415 11.890845 
26.118958 -7.468532 6.364583 
25.359764 -2.876211 1.769115 
-2.066128 25.594492 -2.193941 
17.478037 -3.883528 12.588495 
-18.357695 8.520809 0.973579 
18.839499 -10.591359 16.066956 
-14.643036 22.271126 -0.613597 
-20.355988 -4.177600 5.802609 
