12.823764 22.403820 -0.011241 
-24.220743 -16.519873 3.062091 
-25.591017 -6.425516 3.226391 
24.213936 -18.693686 -9.326496 
15.152641 11.947969 6.244431 
8.667223 18.055784 -10.964226 
-12.375349 14.985533 0.492674 
2.512764 15.702555 -11.412395 
22.021255 3.686678 -0.975957 
15.880518 19.690598 -11.111162 
-27.860392 -10.833542 -9.627729 
26.477327 10.704055 3.938187 
28.407001 4.303370 1.071859 
19.860258 4.652691 -8.621402 
-13.039865 10.254488 2.462063 
15.289374 20.531815 -6.422151 
23.065823 -7.780983 0.323889 
23.231585 -10.198708 2.125999 
12.272264 17.575378 1.849455 
12.063090 21.998991 -10.092578 
-26.864727 -13.300939 -6.536236 
28.179640 6.787178 3.003413 
21.631849 12.650293 5.088447 
-14.151880 22.685070 -2.269391 
-10.133419 13.265829 1.562634 
17.478884 6.925616 -10.731938 
15.400247 18.333710 2.706078 
-9.081958 20.619564 0.895818 
-5.260643 17.126429 -10.342572 
6.739917 25.672266 4.784104 
-23.275089 2.482454 0.519091 
5.533261 26.545378 -3.100960 
3.117337 27.034002 -0.191796 
19.733421 11.867754 -11.150790 
-15.405996 14.319486 -9.463243 
14.723064 25.015062 4.237592 
25.637928 1.993031 1.517313 
7.566687 27.001389 6.484860 
31.143452 -1.759541 5.791572 
22.283846 -15.635509 -9.266419 
20.570475 10.516641 -6.786577 
-20.110104 -4.577092 -2.776477 
8.372165 29.497217 -3.390773 
-17.717018 12.880942 -3.958400 
-14.186548 3.123545 -8.502304 
-17.044884 -7.278265 0.910634 
-6.710975 26.086123 7.103374 
1.182165 24.530996 -11.055218 
-14.511482 10.345002 3.909110 
30.296997 -10.618237 -4.268696 
-21.478704 0.185025 -2.710779 
1.073041 29.916149 -2.242019 
-2.262265 22.191391 -7.293293 
1.010412 25.336658 -5.837634 
21.932323 -12.035816 -3.897056 
19.915512 9.556255 -1.472483 
-18.206722 16.634613 3.719156 
10.531685 17.430769 -8.146276 
25.622810 -17.764111 -3.826686 
-21.139488 4.801611 -3.153867 
-16.305779 -8.012192 -10.593969 
23.687431 9.855912 0.234337 
28.120638 -0.342904 -9.928329 
-18.374352 1.747197 -7.992484 
-14.671743 7.305555 -1.807732 
11.186996 18.307158 -10.743786 
16.242105 17.188612 -10.202625 
-23.304539 -4.363681 -3.442340 
21.195202 -12.051558 -4.610202 
7.359155 19.935711 -8.353182 
14.106201 24.322031 3.114441 
-15.065771 -4.880530 7.292096 
-2.797215 19.682135 -5.563241 
21.005770 -10.022369 7.893415 
16.241354 6.411715 -5.826516 
-19.099199 11.844765 -4.231674 
-9.349056 24.701822 8.223951 
2.130818 28.129618 5.123708 
29.589327 3.305208 6.446769 
20.681732 0.775570 2.579702 
30.833485 -9.135965 -11.561500 
28.091112 -10.476932 -0.966465 
9.205290 28.491467 -0.038881 
-12.848684 10.577213 4.423844 
-26.013283 -13.895960 -7.168861 
16.426954 15.980924 -6.076746 
-21.887947 -5.295560 -2.695302 
-10.914982 21.103655 3.097376 
-0.266368 25.109425 -7.800227 
-7.519509 26.180956 5.448483 
-13.443050 15.852017 -0.943899 
19.090767 2.797642 4.383863 
12.445124 8.950698 -14.845390 
22.347713 -11.593039 -0.951957 
10.323074 18.921238 -5.228220 
22.366634 -0.761744 -4.710353 
-15.779126 -12.952122 5.120469 
-14.466260 14.272782 -11.467698 
-16.856133 -11.841849 -0.968528 
20.656565 9.190250 -7.327871 
31.383562 -11.357401 -9.310480 
11.256720 14.686734 -7.591743 
16.571115 10.644947 1.033321 
-12.103111 19.243454 -11.012738 
-1.722615 28.161482 5.080168 
23.231060 8.271877 -7.554310 
-8.631929 21.034252 -0.448393 
10.164905 18.658226 -8.319764 
-2.995814 17.364698 -8.263963 
-21.116106 6.058944 -9.559074 
13.403543 20.903547 -3.310983 
31.369780 -7.900816 1.909458 
30.777748 -13.184412 -5.221863 
-9.099361 26.255453 -2.614245 
-6.133024 26.886930 3.199377 
-11.279130 12.389196 4.111028 
26.995464 -7.789093 -4.153668 
25.090014 14.821072 2.754978 
22.403011 -14.734595 2.993245 
-26.832115 -11.555862 4.748573 
-22.939230 -10.055675 -1.451732 
-19.062387 11.514628 -12.539095 
17.428064 22.669708 -1.819654 
26.170807 2.603268 -7.601666 
-11.891312 15.389853 -7.871343 
-12.212903 19.312523 -9.552976 
-24.846441 -5.546432 -1.065474 
-17.004610 9.064452 -8.809744 
23.711136 16.158638 -2.167530 
-17.935585 0.205278 1.243044 
26.343987 -5.407024 3.827823 
-12.217953 13.443275 -4.259622 
17.681740 -3.321027 -11.429295 
19.691154 14.549461 -7.554533 
-23.082899 4.726784 6.115287 
18.808254 2.746439 -10.349427 
19.460772 15.574498 -0.079611 
-17.228819 -8.795358 2.695647 
-11.921947 13.888647 -2.703900 
28.047287 3.903246 0.290363 
23.291256 -13.868017 3.465685 
22.022459 -9.177331 -7.434850 
20.163960 -5.482181 3.120230 
-24.970770 -0.901346 7.812228 
17.425592 20.165581 0.878426 
30.978577 -10.338050 -11.463651 
-7.589628 17.389320 1.843848 
-14.602651 7.192963 -1.090655 
23.790262 11.710195 3.077382 
1.645137 24.156065 -5.017122 
16.822859 11.672632 2.560569 
-7.516173 16.663195 3.064833 
-25.319914 0.230283 -10.219419 
-20.047098 -6.023288 -3.367121 
17.572830 7.017533 7.856977 
-4.808180 23.095625 -8.134188 
17.721039 9.410019 0.546789 
22.075726 -7.808761 -7.686595 
18.457184 -3.419807 -5.647502 
-6.187609 21.381218 -10.737052 
14.655306 20.952667 -6.233624 
28.151257 6.915494 5.933602 
-14.585133 22.025572 2.314245 
15.963813 6.805201 -7.527897 
16.745436 8.379998 -4.624660 
8.902716 29.230246 -5.035790 
26.058374 -17.821325 -6.785003 
-15.854066 4.226142 0.294500 
24.695581 -11.459824 -10.242846 
8.398249 23.353418 -1.654714 
-21.923815 -15.686570 -8.439611 
-25.460016 0.170673 2.560695 
-2.111026 23.618420 -12.927681 
-8.569917 21.396521 -12.278006 
28.787800 -14.885720 1.207472 
6.059438 21.506361 -3.807975 
17.341614 1.322487 -8.783950 
27.160547 -8.121986 2.459000 
20.695269 15.102523 4.625011 
19.245722 14.295553 -9.355123 
-14.911359 17.089296 -11.149596 
28.950499 -10.787451 -1.303352 
-4.733639 26.175116 -3.733084 
-12.133470 19.584333 -7.354507 
24.942276 -7.238775 -8.278175 
15.500928 3.408747 -13.328341 
-2.760487 22.214653 -6.051401 
-2.500812 19.369827 -9.856413 
18.225340 19.847937 -5.818971 
20.983183 -14.920901 -5.538993 
-23.703058 2.706346 -1.807699 
-22.579121 5.481529 8.561419 
17.663317 16.583735 -15.805980 
-8.880384 16.999084 2.349465 
-17.518692 -9.429127 -4.877743 
-22.020744 7.096511 6.491773 
-17.075554 -6.650180 -1.967827 
-24.030653 1.497338 -5.510029 
31.504982 -12.728136 5.223228 
-16.548788 -5.310765 -2.042549 
-15.519372 8.933013 -0.426824 
-21.602047 -12.292265 -9.588192 
-10.366531 18.764214 -11.596501 
30.153824 -2.696244 1.777004 
-25.195786 -0.493171 -12.475133 
-13.810362 4.658783 4.258506 
20.844950 18.312952 -3.886558 
23.697407 -15.744502 4.222039 
19.452080 -7.310604 -9.009257 
25.516483 -12.457178 2.028075 
-9.429095 21.407013 2.853696 
24.159781 11.445317 -2.524266 
-21.799946 -16.440863 -1.793290 
15.372080 24.602774 4.783936 
-17.957415 -5.521595 2.085879 
-17.755129 2.668221 -7.322980 
20.024927 -6.716532 -7.397752 
-24.096260 -4.877400 -3.266866 
-8.779379 14.871569 3.111623 
20.756746 13.521488 -12.684117 
5.826114 28.839386 1.354663 
-9.425473 20.543638 -5.981162 
-14.452203 -0.631754 7.062639 
-24.904839 -4.319169 4.013794 
-16.898157 15.306862 -9.035250 
-27.642128 -14.363131 -7.492798 
16.984058 18.260899 -12.808702 
-25.373051 -8.584139 -3.826346 
-14.689878 0.261871 4.375846 
31.760435 -7.864750 6.888465 
-16.612017 -6.013141 -4.354083 
-0.696471 23.634106 -3.393708 
23.222334 -3.866722 -11.548709 
-17.494837 16.858086 8.409266 
29.593369 3.472726 4.287413 
29.275805 -3.427340 -9.709519 
-23.765127 1.133960 4.474885 
24.324894 8.725868 -2.149410 
27.759737 -14.185329 4.131776 
27.427023 -1.693806 -3.258360 
-15.782142 -5.844076 -11.927267 
-16.964407 14.643705 -3.932513 
29.087809 -16.031183 -7.018858 
-5.102312 28.938105 -1.679510 
23.244747 -14.630343 7.880558 
10.398002 26.049231 6.642549 
8.792075 13.005225 -12.680834 
23.074871 -3.936340 -4.288971 
23.582455 2.447995 -7.784266 
6.994999 20.526855 -7.518337 
-16.637754 8.492760 0.418869 
28.848682 -13.115206 2.453299 
25.915398 11.490953 7.687223 
22.383184 0.653711 -3.970181 
2.240546 20.618961 -6.885408 
-13.543578 22.732325 4.401758 
16.681328 4.208930 -8.804248 
-24.846189 -15.175201 1.704340 
-13.407466 17.229816 -6.907767 
27.706818 0.988750 -11.612851 
19.281376 20.242598 1.690396 
-17.507513 -7.124949 -6.468077 
10.213202 20.865841 -2.452992 
8.836042 25.327017 4.377592 
20.436539 6.929284 -8.652193 
-8.998728 14.706945 -8.482763 
13.762518 7.085327 -14.640096 
-16.609232 3.237283 -4.848047 
-3.579885 26.457382 4.238198 
-8.499794 21.548737 -9.272536 
20.716581 -7.954766 7.886786 
-23.401724 -6.537345 -5.491773 
9.941745 19.995466 -8.114806 
27.840023 -4.896677 -8.005143 
16.307714 13.036107 -11.500076 
27.047401 -16.506205 -3.581511 
-18.247238 9.405711 -4.795848 
24.334438 6.503137 2.103870 
9.779470 28.428909 -0.952495 
-15.542366 0.245196 -8.863254 
-22.706028 -14.926767 -0.552255 
-11.389132 23.502909 8.266054 
14.319654 10.011795 -11.385276 
-24.869635 -5.348123 2.459678 
-11.212832 12.699652 -6.909680 
19.085938 7.216608 -4.335773 
9.450748 12.842953 -12.192266 
-8.499315 19.589743 -0.554482 
20.343676 0.341979 -1.206236 
25.946363 -6.272071 -9.750929 
14.364310 24.042690 7.816732 
-15.322468 -3.982732 -7.230278 
22.774960 -16.983128 -4.376982 
-12.787666 7.133695 -8.047808 
10.236764 24.420845 -3.450465 
-14.047874 1.560099 8.435656 
17.828320 18.541504 3.545828 
21.150047 -2.794991 -2.123248 
17.032610 8.761133 3.860778 
-20.903179 7.950141 -13.412496 
22.501009 4.440322 -3.907512 
-15.895560 10.876493 0.391547 
26.132114 3.459914 -3.391561 
-14.726118 12.360622 1.638773 
-16.139992 19.452984 7.413151 
-10.253078 24.005110 -4.231501 
27.305355 -8.100075 -1.839004 
25.343454 0.532740 -11.323502 
-17.090834 5.107858 -11.743158 
21.596691 3.320371 -4.362687 
-19.375923 -10.286971 -2.809436 
18.467695 2.573511 -6.664577 
8.849402 22.688044 0.561892 
-7.145364 18.592403 -5.658054 
18.220028 -3.000554 -7.199189 
-15.079544 5.738035 1.318702 
-3.298849 27.142065 4.074993 
2.969969 27.391657 6.979838 
-11.982027 10.963580 4.252148 
22.617897 2.428419 -9.958307 
18.330906 20.523155 3.505738 
-3.611403 20.043989 -11.632117 
-11.273092 14.006972 -4.558458 
14.731898 21.515022 -0.871882 
-22.227760 6.180165 4.001159 
-21.841955 -15.576688 -1.215587 
-16.130196 -0.717150 1.905201 
-19.023996 2.341402 -9.920118 
16.998211 1.877046 -9.156559 
25.324787 11.222795 1.446230 
1.437599 22.628075 -5.850631 
-4.464194 26.315050 8.130219 
15.552063 25.232399 -3.893875 
17.328995 0.523899 -9.305653 
-3.790653 28.323719 1.986771 
-25.554451 0.624456 1.049141 
23.330233 4.041438 -7.606479 
7.071248 21.259838 1.728351 
0.107371 26.447039 -3.681581 
-20.245029 -10.540205 -2.998608 
29.762110 -12.620211 5.142718 
20.676901 13.418104 -13.514067 
-19.824673 -13.212789 -9.549250 
-14.697722 20.248806 -5.022235 
5.904209 21.587612 -4.511137 
29.368670 -9.293485 -4.183807 
26.299427 1.620917 -5.241043 
-6.784230 26.319992 6.111731 
-16.899633 9.828000 0.328830 
13.941202 13.763584 6.199241 
10.167863 11.941443 -12.766476 
-4.411818 16.946686 -10.324215 
10.572291 18.099958 3.892171 
-13.473405 15.079267 4.460825 
16.625822 1.566090 -10.348197 
-18.145811 -7.988049 3.259181 
19.245440 10.865314 4.199905 
-12.164353 6.444138 -9.784242 
24.484968 16.275499 0.791476 
8.940042 21.668224 -0.518545 
27.491390 1.886944 3.864422 
-15.602187 0.620485 -3.397735 
10.648818 26.679295 -0.030966 
15.424522 14.682538 -6.038193 
27.885916 -9.663960 -6.546844 
29.541517 -8.424414 -1.928711 
-12.658555 17.920641 -2.793254 
21.111395 -6.519643 -10.474673 
21.254364 20.548874 2.688691 
-18.226202 -6.163541 -3.428021 
21.307663 -12.522143 -4.051753 
26.924919 -9.139056 -1.824710 
-20.451162 2.892314 -9.429656 
-16.566988 -9.140472 -11.363781 
17.116692 -1.156872 -12.632628 
3.348679 20.417011 -10.675323 
5.728051 23.333944 3.780410 
-13.636686 14.971323 -0.181054 
-24.192259 -6.345644 0.553287 
-20.398499 -7.282121 -6.284048 
-15.666719 20.012840 7.488090 
26.812571 -18.677395 -8.926500 
-25.012535 -17.387152 -6.554129 
-17.176365 16.317261 -3.278858 
0.232751 25.718178 -5.939768 
31.128191 -8.055624 3.362935 
29.195833 -2.331420 3.953363 
29.819248 -0.171518 -1.705011 
30.632864 -8.729503 -8.655601 
-12.004070 14.195625 3.110319 
23.303646 13.660351 5.172371 
-24.728354 1.740828 -2.429934 
-15.123928 -6.002258 6.048780 
-12.783426 14.465785 -7.055293 
-20.623722 5.575658 -5.863072 
-7.462917 21.489620 -1.800492 
-18.585804 1.600264 -0.226202 
-16.146925 15.732572 -8.583437 
-18.242172 9.716566 -1.270854 
14.954889 10.525910 -9.378539 
-27.683315 -10.245070 -5.648765 
12.883467 16.650118 -4.376731 
23.195360 1.112883 -3.962612 
-15.799067 -0.553433 -2.978667 
16.580084 17.912636 -8.279191 
4.523983 29.434977 -0.428768 
24.850163 -14.904271 -0.466153 
25.934919 -5.950125 -6.988099 
11.518580 20.404470 1.484987 
24.125814 -4.804295 -11.232632 
-12.964477 15.562738 -3.826088 
28.183861 0.424468 -4.091143 
30.808762 -15.283872 -8.242255 
23.778990 5.811365 -5.582488 
-15.743936 -3.657050 -1.190372 
-19.356457 9.373569 -2.506228 
13.860694 13.273127 -5.640077 
-24.202793 -17.541761 -3.285677 
-3.037687 27.116938 -3.446352 
-22.296940 2.790864 -2.614664 
6.719020 18.880873 -6.379955 
7.010821 15.064787 -10.388347 
8.048662 23.516937 -7.171443 
-17.063139 10.783147 -8.836113 
17.088848 12.742203 -0.265111 
-25.488144 -4.667883 0.375212 
-18.745275 9.040343 -8.745477 
20.024473 9.244923 -6.754485 
28.044191 6.898358 6.764668 
7.073798 27.053038 -4.307502 
-17.777090 13.591493 3.383337 
-11.817911 21.446453 -3.072984 
-12.617941 14.823970 2.686837 
-18.249788 1.290627 1.280059 
-17.555492 5.767271 1.263065 
26.201181 -5.160721 -10.662051 
-7.739505 16.661482 -5.515749 
-25.094601 -4.088850 -7.566520 
-22.592346 -6.535304 -2.200121 
-23.307919 0.973560 -4.352163 
23.242159 9.070890 -12.562286 
-22.392124 2.438808 -3.249489 
-12.617723 13.604978 -11.105871 
4.915053 23.908445 -12.111576 
-0.709791 26.857622 8.062106 
17.570015 4.196079 -4.390280 
-5.028375 27.208019 2.528227 
10.964003 25.333763 7.868390 
-14.580050 3.792689 -6.664405 
-20.168571 0.841366 4.532165 
21.986782 0.451662 3.838497 
26.084635 -14.324739 0.958790 
11.581685 17.995878 2.217242 
1.207098 19.741882 8.068945 
18.045834 15.454666 1.295797 
29.467108 -1.308107 -2.334795 
-13.602217 15.795406 -1.883827 
-16.371866 -0.999764 -2.195487 
27.600769 -2.334025 -3.797724 
-6.430288 23.162785 0.640742 
27.214798 -5.466248 -5.742242 
-25.558983 -3.787239 -1.088746 
30.167309 -6.974320 -13.166331 
0.344001 29.420391 0.372388 
23.653946 -11.659784 -3.304728 
24.829388 -17.799971 -4.184233 
-16.973282 0.237274 -3.454886 
6.158638 19.349907 7.985346 
-16.871738 15.075195 -5.995196 
-15.178616 19.843975 -4.232558 
1.361817 23.379353 1.534545 
7.810447 22.038027 0.307056 
23.874231 -5.784122 -10.898850 
-6.935326 23.594931 -3.159654 
-5.940958 13.480090 -10.640134 
30.555031 0.289284 6.785689 
-10.770079 15.458735 -0.587594 
4.810048 23.254944 -14.004924 
19.609631 14.433295 -8.358697 
28.593130 -0.906330 -11.373497 
-7.600100 22.322029 -4.456096 
-12.062043 5.270446 -12.875637 
-18.749571 -16.175701 -4.654649 
-25.377808 -15.604725 3.685189 
2.640371 23.381275 -0.193274 
-21.290501 4.236297 -2.684678 
-16.174492 7.240145 -4.214494 
18.226801 22.772676 -0.280036 
-25.681473 -0.888233 3.094009 
-16.672522 -2.184002 -11.423615 
-16.584087 11.355700 -3.315388 
-15.593663 -11.819367 6.492169 
-3.451831 21.751959 -2.607187 
18.795918 -6.364635 -9.524034 
-15.317690 -3.150845 1.523719 
27.220608 6.871055 3.381595 
27.179422 1.826587 -11.329375 
18.385338 17.250654 3.245868 
-12.334402 22.605162 -2.804389 
-24.212126 -11.402218 6.079093 
-1.557805 24.746935 -8.082835 
4.890485 16.285917 -9.827941 
-4.834643 26.726114 1.236021 
11.343878 24.329199 -0.379446 
5.963328 20.733696 -6.172108 
-15.997289 11.100841 5.072723 
-1.572969 20.230740 3.736454 
11.974759 20.670721 -5.464984 
11.555352 19.015142 -9.846084 
4.858689 21.542326 -5.041653 
-1.297411 21.668140 -5.304152 
13.447320 7.678369 -13.644188 
-25.887947 -3.085167 6.036760 
16.547606 17.528568 -4.112332 
1.619464 26.754429 -3.717175 
0.410040 25.421978 -6.592436 
23.579958 8.176915 1.793172 
13.625471 17.745943 -9.467154 
27.905447 -3.240117 -5.628146 
25.313927 -12.222542 5.294080 
-17.514788 15.907188 2.776809 
13.326193 20.174404 1.837796 
22.833141 -9.594917 -7.344587 
0.495825 21.524296 1.648214 
-21.378830 3.335570 -8.135379 
-9.321627 19.706394 3.279173 
-23.261230 -6.016510 3.814827 
-19.247038 -7.555468 0.742812 
21.163671 -3.883956 -11.414273 
22.806757 -7.700408 1.081188 
-23.523996 -13.808942 -8.779478 
15.277467 5.834531 -9.417432 
27.030848 -10.205918 -1.156158 
-19.254251 -15.272017 -8.293065 
-0.836048 26.245386 -3.899040 
-14.902662 21.606222 5.296785 
26.222992 -16.365694 2.888312 
19.155573 8.989228 -6.260190 
-22.635639 -7.107408 3.258257 
-6.968137 13.594948 -9.081539 
26.210909 9.712835 2.221458 
5.541686 28.266075 4.328129 
16.977243 5.528264 -4.136844 
18.534786 -0.780277 -4.727272 
-14.501995 1.645392 4.275324 
6.654781 27.246044 6.391093 
23.734135 -6.515501 -2.638494 
-16.111446 -6.947620 -9.492701 
-16.314840 9.885730 -4.103004 
-18.167616 12.781188 5.048190 
-14.669589 -2.968368 4.279909 
25.242943 5.510897 -12.527372 
17.200846 10.748058 1.611485 
26.910116 9.147198 7.683180 
-2.663857 23.847668 -1.167536 
5.840330 23.260036 -13.575653 
30.875206 -11.651987 2.325824 
-23.316378 -2.154157 -2.743205 
19.319729 3.479336 3.106222 
-11.705475 17.012619 -11.651265 
19.519358 6.123194 0.562721 
16.966002 18.472658 3.377101 
-16.903210 -6.404862 3.336457 
11.410847 20.251425 0.213547 
23.784346 -8.344767 -6.708012 
-21.357895 -8.397836 -2.834673 
24.033945 -6.535967 0.640644 
-22.956553 2.962827 -7.694971 
5.955191 19.269793 -9.716577 
-6.156999 22.498877 -11.152215 
0.068340 24.689016 -2.410738 
-17.108646 -1.280835 -11.507562 
-15.389085 -5.724493 2.544245 
15.569462 14.370545 -6.926787 
30.124031 -0.698870 -0.680750 
23.105755 8.281397 -6.096634 
28.659218 5.458021 3.000352 
-26.496687 -13.136118 7.897134 
25.134205 2.645483 -9.181733 
-8.550055 21.566929 -10.180680 
-10.568252 21.429588 -0.325855 
-4.550829 22.285393 -14.891758 
-18.117649 -13.466537 -7.330881 
16.524401 18.960428 -11.211088 
22.054239 -12.874354 0.552111 
-14.785908 16.991062 -10.256283 
-18.158836 2.458051 -8.719651 
7.052175 28.305080 -6.554867 
7.330030 26.568056 -3.543994 
6.605338 17.705292 -7.893659 
10.185489 13.058631 -10.567996 
-14.237597 13.319650 5.301558 
25.315588 -17.937130 -4.975251 
25.899761 -6.131145 3.787956 
2.724122 24.105646 -12.434383 
22.952936 15.177961 -3.412067 
-14.628222 -2.017859 4.586675 
-16.250307 12.976480 2.585969 
6.761326 19.656401 -7.302563 
30.144896 -6.538023 2.289335 
-23.181553 -17.850281 -9.552749 
15.148586 20.306288 -9.215822 
25.468241 -14.943981 -0.022073 
-11.871198 18.660149 4.561440 
-12.306428 4.914279 -11.947931 
-10.143496 16.906061 -0.953941 
-21.228949 9.312823 7.243322 
20.782963 6.370192 3.675974 
-14.729628 14.918560 -2.989896 
21.430532 9.640552 1.282830 
-4.928102 18.505352 4.325080 
-25.666636 -7.808409 2.665851 
7.054471 23.831093 -3.785836 
20.222624 7.118196 -1.688298 
10.175233 19.607416 -10.270864 
-1.917746 17.726894 -8.383257 
0.590842 20.252399 -10.999505 
-7.872849 15.646526 4.673076 
-3.407685 25.678394 4.900044 
20.913391 10.119139 -2.690768 
21.819162 -7.356725 1.150587 
17.933048 13.537008 -11.233957 
7.024631 29.684607 -1.956725 
23.710791 16.798765 4.525438 
-17.957808 9.541725 -2.904341 
12.533422 22.924667 -3.500449 
22.700602 5.720456 -8.636878 
-6.888217 11.879220 -12.702987 
-18.661865 6.078190 1.507844 
25.599440 4.846833 -11.388079 
-4.201418 20.386133 1.203818 
-21.420240 8.534784 8.524147 
24.048059 -14.298840 3.169421 
18.125967 9.200736 -11.034860 
10.323545 23.281155 -0.596322 
15.877938 17.167894 -2.590634 
28.465075 -11.600198 -8.921637 
-18.251869 6.453488 -11.704449 
25.876368 3.567028 -14.362291 
-5.539937 17.120708 8.200620 
-17.220457 4.027023 -2.851519 
12.858849 15.639290 3.908214 
-16.018534 -6.934807 -10.881691 
-0.727309 27.257416 7.345271 
-16.848310 15.337822 5.124018 
25.270916 13.873070 2.522139 
-26.406412 -12.785847 3.147767 
16.073864 14.825940 -7.209508 
-8.486399 19.583929 -7.803926 
-14.815559 -3.924227 6.395346 
10.970806 18.642269 1.967688 
-22.122147 -3.945182 5.108334 
18.349234 8.527032 1.109027 
9.970212 21.687658 -15.161020 
-15.586677 -4.404706 -4.852523 
-10.412682 11.516788 -7.658136 
-1.753907 28.902332 2.383427 
-22.484581 -4.145209 -10.852220 
-9.889427 24.700308 2.280719 
-13.480475 14.815371 -9.255233 
21.455339 -9.935404 1.117879 
-11.605920 11.243123 3.630254 
21.667736 0.703142 -3.157476 
23.837189 5.140294 -9.125184 
-18.494446 10.122073 -0.446451 
-2.006255 21.003426 1.788001 
-14.554634 20.239124 4.637463 
18.963158 14.870434 -6.155575 
-15.609523 8.281301 -9.749273 
-23.497751 3.227916 -11.640765 
4.654188 24.889624 -1.616613 
18.423359 6.897708 2.496685 
19.555563 2.327345 3.214678 
-17.598770 16.832525 -1.480585 
8.216575 23.365946 -0.485995 
23.295235 2.876646 -8.736495 
-12.924735 11.974401 -4.238954 
-25.006992 -3.710529 -8.787312 
-4.050076 18.182920 -5.985215 
-12.464208 18.671343 -14.792176 
-9.611725 12.775580 6.527235 
21.417940 10.642344 3.671953 
-15.482186 19.028809 -3.547725 
8.665246 22.444466 -10.423301 
-11.033838 10.136742 4.640754 
-16.723118 -13.793397 3.118606 
31.705645 -7.675407 4.371068 
-8.354011 25.033968 -5.054235 
-25.934774 -6.247398 7.601427 
11.304588 22.415018 -4.648165 
-5.490077 26.911890 -0.934978 
31.249496 -10.393848 2.599520 
-16.249256 9.775228 0.666982 
-19.953487 -10.152154 -9.243076 
-8.341810 21.348850 -7.788688 
-17.434444 -13.389596 -1.204031 
-14.089423 3.086463 4.744625 
-27.297983 -9.989011 -12.157449 
1.131536 26.927225 8.029804 
15.989075 8.237255 -7.254134 
-16.238914 -11.735662 0.781568 
15.537738 15.521521 0.137298 
19.579180 14.349260 -15.563904 
10.787795 22.146732 -12.908861 
-25.557384 -1.279097 -1.242877 
-24.176062 -7.756402 -6.472983 
8.073628 21.884167 -0.485575 
21.182373 12.868525 -12.442141 
-12.908768 17.216795 -10.208579 
-17.873808 -15.060352 2.790071 
-2.301667 21.913408 -9.558625 
-12.219293 14.306139 -5.494626 
16.080322 8.882463 -8.998852 
-20.238949 -3.283379 -11.485693 
1.651757 22.358995 0.840679 
20.844759 -11.088633 5.886520 
-23.711672 -7.211601 -0.062098 
15.026674 20.521313 2.262664 
-11.849968 9.682981 -9.406096 
6.339714 23.821898 -4.958807 
-6.146576 26.856779 4.039201 
-14.722283 -2.364735 -9.617494 
-16.283001 17.193127 0.215750 
-22.622044 -11.395308 6.135361 
11.359940 22.428612 -3.775590 
-26.092354 -3.539163 -8.561343 
-17.057550 16.738117 -2.679410 
7.857620 19.447830 -8.922820 
-25.403475 -0.161756 3.358180 
-5.468141 21.522125 -16.126284 
-21.025524 2.558634 -8.380999 
25.781376 9.074251 -2.618684 
-27.984421 -12.008789 -9.541231 
25.716036 -10.023484 5.506106 
-19.566023 14.383320 4.554837 
21.064676 17.241018 -1.097589 
15.515887 24.816959 3.301264 
19.359695 3.850691 -11.042988 
-10.754540 10.737660 3.150117 
-14.701219 11.672803 -11.909532 
19.280472 -1.011716 4.375682 
2.372470 26.968487 1.216915 
3.925231 16.064621 -10.493635 
10.111467 22.718294 -10.098663 
17.593075 22.984846 6.374458 
4.363305 22.472691 1.638079 
30.342045 0.975802 1.612072 
-11.444373 21.830515 -2.498552 
14.270916 8.036072 -9.466319 
23.148966 10.341993 1.561769 
-10.836589 15.692141 0.303102 
-21.895613 1.688425 4.365910 
2.104511 21.146929 -10.069129 
-22.874479 4.687324 8.571008 
-4.417616 21.426003 -2.654622 
19.700605 13.573554 -3.725003 
-20.609121 -1.396390 -3.401238 
-0.207549 22.338047 -11.993370 
-25.083740 -7.778547 -0.240966 
26.273939 3.361593 -11.041669 
18.935549 7.539329 -10.904563 
-22.702158 -8.183721 -7.749873 
-8.035513 15.234426 -11.057384 
27.594942 -2.631421 4.302957 
-14.347671 0.734464 -9.677785 
-1.598610 21.392862 -7.772473 
-19.234322 10.183681 1.011035 
-3.270207 23.450043 -5.627072 
-6.598471 23.013786 -3.907678 
-13.472775 16.583000 3.822448 
20.630560 8.951608 -8.042912 
20.846285 21.069582 -0.468621 
19.777321 7.144616 0.883039 
-19.161070 2.865730 -7.486703 
-19.477882 -16.806067 -4.779764 
-26.677795 -10.886989 3.685161 
26.240686 -8.676225 -8.573781 
-10.291218 8.901848 -11.550373 
15.902707 24.704918 -4.753314 
-0.477463 25.827284 -5.788010 
27.051027 -2.917344 -3.744741 
20.594124 -1.548247 -11.549961 
22.932840 -10.599702 -1.934736 
-6.110040 26.240297 -0.397126 
18.757614 -6.408248 -13.103538 
0.964767 24.616413 -2.581815 
0.977190 22.732311 -10.706421 
22.357765 -14.864911 -2.573993 
-21.057522 7.786395 2.338908 
29.452707 1.075238 -2.855455 
21.449247 -12.395284 -9.164992 
20.806110 3.246127 1.206040 
29.696718 -8.126866 4.885387 
19.328644 22.343277 -2.109805 
-18.387142 -8.579072 -5.837642 
7.453540 26.283617 7.923872 
21.237875 12.909079 -11.687436 
3.225236 25.230116 1.409353 
-20.322346 6.867516 -4.949826 
17.842918 8.579347 -4.564312 
31.194862 -13.586351 7.736911 
-4.948308 19.358088 -4.827950 
31.426165 -3.768170 6.579710 
27.786024 -5.141539 -2.267227 
-21.341297 -1.869840 -8.563799 
24.073521 -14.980965 -1.624053 
24.055550 -18.743265 -8.415504 
20.653431 1.374336 -11.003864 
22.907057 0.104066 -4.154097 
18.465017 9.056091 -9.886214 
-23.302301 -15.474066 2.329315 
2.533042 18.697126 -7.865841 
-11.273720 14.776241 -7.641801 
31.575590 -5.806909 7.686519 
-7.656238 14.797095 -6.803297 
1.157001 22.270809 -7.165459 
25.733601 -6.102704 2.989063 
19.535442 16.815310 -0.362311 
13.443897 23.302780 -4.579306 
-19.813395 -11.669804 5.640362 
-18.066565 10.875091 1.832926 
-14.895686 8.470582 -8.107009 
-10.550960 24.780943 0.076433 
24.458418 -10.469194 -7.411524 
-8.738935 22.222395 4.306025 
22.880819 -13.699175 -8.062502 
-21.485920 -12.656068 6.040897 
27.674677 7.505403 2.866752 
-4.682479 26.983572 6.032199 
-13.126804 5.129359 8.399601 
-22.555799 -7.625489 -5.904292 
21.495203 10.016641 -2.239050 
-23.631514 -4.374417 2.601711 
14.684216 13.446658 3.210637 
31.003830 -10.868996 4.394596 
-14.807971 -1.879159 3.286202 
23.393585 3.441766 1.326356 
14.823589 11.459325 -4.730817 
19.005301 3.137372 -4.521773 
-16.543869 8.502577 -7.789519 
13.662100 7.868606 -11.223850 
-25.101400 1.418562 -0.584310 
12.705035 23.970356 -5.033579 
-19.298365 -16.029449 -6.880363 
-16.874777 -8.779837 -8.289231 
6.517628 27.196287 4.559743 
5.056221 24.581121 4.244095 
-19.197897 -14.929884 1.934393 
-5.504722 24.502466 2.378929 
-25.970743 -10.555873 5.619313 
16.252567 6.000894 -7.666275 
-13.993879 5.745439 2.085731 
31.190746 -12.894109 -11.257443 
23.274862 5.250698 1.521131 
30.424555 -6.585679 0.614812 
-15.424863 -1.320295 -3.330753 
15.521415 12.870717 -8.245400 
12.686844 13.182139 -7.660440 
-25.408205 -14.718847 2.073310 
-16.737394 0.983869 -3.597604 
-2.000661 26.728189 5.427658 
1.497086 15.283684 -12.159357 
-13.246181 18.040548 -6.691072 
10.773733 21.077530 0.428326 
16.574104 13.548707 -8.103906 
6.591328 24.064829 -6.657600 
26.765650 -14.729819 2.674475 
-24.511841 0.758056 7.574093 
-26.121628 -14.322895 -2.318167 
-10.352396 24.239313 1.841880 
22.669958 -2.543953 -3.993595 
24.514303 3.175406 -7.256775 
26.199530 -6.610170 -0.671801 
20.337330 -6.347357 3.513097 
17.497211 17.731918 -12.401311 
24.555273 -8.791815 -3.866715 
23.614515 -8.656074 4.469133 
-21.212618 5.441752 -7.712083 
-12.649664 14.331895 -4.543056 
3.369251 25.749403 2.085807 
20.002399 -12.176090 -9.842858 
-21.837536 2.761214 -4.566598 
-20.175520 -4.039470 -11.356544 
17.117937 13.913270 -3.378192 
8.836065 28.347103 0.701359 
21.794258 2.930362 -7.182448 
-14.200827 10.516801 4.699302 
-25.815830 -5.179473 7.579031 
15.633200 8.499554 -10.427374 
-5.101684 20.819818 1.829341 
-26.605083 -9.169622 5.714832 
27.155928 -8.182855 -7.059266 
29.040136 0.909401 3.778543 
-7.484356 26.028326 6.269563 
-25.811747 -11.846567 -1.152463 
27.462856 -1.812946 -10.848819 
-22.384806 -0.179175 4.966854 
-4.854354 24.251074 0.530988 
23.032009 -6.100660 -10.809624 
21.633921 19.932007 3.339739 
-19.080036 3.254984 -8.290253 
22.138426 -13.440106 6.768458 
-15.389166 -6.424120 3.446766 
1.708421 17.673233 -8.925609 
-24.491743 -5.157167 -7.555243 
-21.345938 8.634200 4.383607 
27.734655 -13.584341 5.107695 
14.078497 21.101206 -5.533674 
16.405893 18.797020 -13.157903 
-18.143614 13.758366 -10.878975 
-2.648822 26.113552 5.236917 
-16.908226 9.579344 -0.956386 
-21.157648 -17.727880 7.107612 
1.259910 25.386789 -5.101158 
-19.848928 -5.139251 2.249260 
16.940886 -0.507007 -13.779710 
11.913001 26.352264 3.295038 
-18.666523 10.906059 0.986696 
18.403502 4.570324 7.856359 
-16.308329 6.525054 -3.908981 
-19.977196 -0.814613 -3.433999 
-9.738429 23.974253 3.365380 
10.758182 16.942934 -6.396107 
14.440476 15.457824 -4.267278 
29.165337 4.197906 3.319972 
-20.001293 -15.283921 -8.856382 
-10.729681 23.934589 8.252195 
-15.901446 19.454800 -2.043506 
-8.094213 19.202579 -6.433453 
-13.594341 22.630754 5.262327 
22.140249 5.098512 -10.921079 
-21.094717 -7.511099 -7.167002 
18.102312 -2.006603 -8.679526 
-16.526804 -8.037978 -12.510204 
25.529299 -14.865716 -0.961610 
23.403797 -6.440931 2.529607 
-9.210635 12.177587 -8.402139 
15.721622 13.719137 -10.394074 
11.202379 26.294073 0.370267 
18.340929 -5.334277 -12.507540 
-22.888031 2.057794 2.296134 
27.713598 6.545116 -1.598890 
-21.625679 -3.416610 -8.137067 
-23.163359 -6.092772 -9.009003 
16.313391 17.688028 -3.326929 
0.402658 30.123541 -2.573569 
-14.663199 6.944599 0.059844 
-20.040016 -9.803904 -2.684761 
0.928731 19.272350 -8.568072 
-17.574974 9.696980 -1.592914 
-15.013670 3.882818 -5.291253 
28.128029 -15.945847 6.200699 
-14.865259 10.859680 -11.720409 
-11.758846 17.587275 -9.915674 
14.767555 9.315459 -11.252557 
-3.967639 15.004107 -9.920221 
-1.347759 14.104834 -13.632451 
21.536539 16.756920 -1.743675 
15.131665 20.344154 -11.197129 
-7.220814 17.583349 -8.633950 
22.724468 9.894265 -10.382397 
6.665050 26.482731 4.866968 
-10.454881 20.209305 -8.858189 
20.199312 -4.256474 0.918303 
-15.720582 3.031554 -6.541405 
-3.519891 24.911209 -3.680846 
27.856411 -0.474898 -13.907522 
27.893726 -4.346167 1.404252 
28.600634 -0.803367 -10.513731 
-17.774269 2.811985 -5.986969 
24.724333 9.931598 -1.371106 
-2.554473 23.036671 -8.302167 
4.973424 24.121157 -8.780943 
-10.476501 8.124568 -13.302973 
30.111372 -10.072104 -7.565572 
25.253162 5.602760 -11.686585 
-2.714496 24.043634 -9.862494 
17.819185 13.215282 -2.337101 
-17.146105 -14.529246 2.015175 
-14.517314 7.531233 -9.541673 
-2.908145 22.411875 3.061559 
27.576292 7.589634 7.680406 
2.977200 27.800352 5.989054 
13.444976 11.384514 -7.292781 
31.002104 -0.832288 3.906560 
17.996891 6.604939 4.148229 
21.469889 7.894570 -2.582874 
17.236542 12.797080 3.286122 
-18.526791 11.611746 2.618453 
-3.198129 27.679245 3.548955 
21.663107 -12.756055 1.379019 
0.526222 30.179752 -3.446264 
25.532738 14.482793 -2.643897 
26.529240 -2.339041 -3.742763 
20.163036 -3.657733 1.904869 
-19.524632 -3.462380 -4.265327 
22.768324 -17.883310 -7.310791 
31.287632 -11.485508 -10.265819 
-17.274698 0.525716 2.317561 
-8.876144 19.672676 -8.587947 
28.568691 4.817748 1.839788 
22.391689 -13.131629 -10.159024 
-25.100817 -0.143784 -7.239384 
26.172659 -10.061445 -6.935734 
-14.540663 -1.342112 6.071023 
18.260670 -0.908677 -5.654161 
-19.725927 14.008363 -3.083594 
-26.419552 -9.711140 0.105004 
21.601587 7.504858 3.851350 
20.285559 -3.248592 -9.327038 
13.104397 17.605509 -2.772905 
-20.208612 11.436566 8.486814 
-22.662823 -5.139159 -10.517789 
11.044661 23.758999 -0.932225 
20.963352 -14.828979 -4.067506 
-13.426467 18.445711 -10.964324 
6.480291 24.069862 -3.324752 
19.786806 -11.456297 -11.693757 
-18.697500 -7.895800 2.279947 
-15.309599 -7.971189 5.860151 
10.669209 13.758823 -9.182070 
-18.917765 10.797943 -9.165214 
-3.960119 27.120951 6.262406 
5.776293 22.673380 -3.401092 
-11.394876 19.413568 -11.165338 
22.260841 15.962898 4.229250 
14.023168 24.849865 2.182767 
-20.415449 6.417907 -3.041233 
25.218422 0.467702 -2.696062 
19.070826 2.515920 -9.074771 
-5.052297 29.279907 -4.020233 
8.947176 23.408670 3.500468 
-25.070055 -5.526290 0.564531 
-1.886955 21.749136 -11.468977 
2.588802 27.213091 0.389247 
-17.209457 -11.071882 -1.359119 
-3.035001 22.707064 -14.813729 
30.157774 -7.650723 -8.617714 
13.916565 14.297182 3.727573 
-15.385569 -8.876678 7.123217 
-9.881082 25.535511 -0.382624 
-22.671009 -7.174908 0.433231 
6.220160 24.778419 -3.206428 
-15.746531 -11.756893 7.459788 
-20.153440 4.130107 -9.465819 
-20.322506 -9.575888 2.421164 
15.173915 12.416001 -11.535898 
17.134678 15.423343 2.022476 
28.659817 -2.408825 -13.688293 
6.943181 20.923244 1.099451 
14.246826 9.273051 -10.716220 
-16.254780 1.510692 -8.170863 
-1.203036 25.982008 2.637222 
-19.862234 -6.895796 -4.332930 
18.765749 3.362863 5.562944 
-14.883657 -2.850878 -5.845301 
27.323601 -10.856897 3.108557 
-26.391651 -11.393888 5.372329 
-20.972734 7.065713 1.028038 
-16.194860 -2.583614 3.796537 
15.668295 3.702455 -11.140987 
-25.782188 -8.480838 -0.335301 
-20.014580 -5.229891 -7.767034 
3.297758 29.788437 -4.435188 
19.863972 21.181368 -3.848434 
19.320681 12.697845 4.572395 
-15.782427 -8.946331 3.048850 
11.513747 19.130325 -4.213927 
-12.394269 23.571571 4.849814 
10.514073 14.924043 -9.686503 
-22.095602 -17.310478 -3.449499 
-21.414494 3.136585 -8.843209 
-16.545366 11.014345 -10.428406 
-14.417648 22.051195 -3.139680 
-16.892168 1.131487 -9.950005 
20.505804 17.503397 -4.209208 
-17.102873 -2.393300 4.227620 
24.260303 1.853875 -3.213346 
-19.345446 -6.432432 -3.938480 
3.716341 19.809719 8.025080 
18.566978 12.298999 -3.254284 
-25.834539 -0.864148 -0.227059 
21.141207 11.838793 -15.285216 
3.421302 15.389377 -11.726289 
-27.825462 -12.126801 -10.660203 
29.071344 4.790001 5.346092 
26.367359 8.274309 -3.158730 
19.680872 -9.109174 -9.561215 
-16.685204 -10.166624 -10.330961 
20.564508 12.081972 -10.127057 
-20.423058 8.434070 -14.410943 
-19.688917 -2.046530 -4.293839 
2.679983 28.249166 -1.473723 
-23.683134 -6.365231 2.174155 
13.729775 15.285210 -8.613884 
14.430863 23.043390 -4.060676 
26.972733 -6.100876 -6.002450 
26.363346 -16.202377 -1.735551 
-22.718906 -5.092756 -2.645687 
2.713922 19.840803 8.042276 
-1.537640 22.562605 -0.011701 
20.772873 -14.435616 -4.907547 
-1.655453 27.441875 6.856179 
27.822702 1.133183 2.030674 
26.205715 -14.229569 4.742629 
27.851671 0.436955 -6.410568 
-22.573750 -12.814831 -1.120551 
2.020530 22.568712 -4.319345 
21.387041 5.638181 -2.952456 
-19.043575 1.698998 -11.187343 
-13.457209 21.212173 4.484013 
26.329857 -18.864843 -6.956337 
20.823769 10.118773 2.878833 
16.318983 5.792508 -8.897079 
22.509581 14.378681 5.159414 
-18.945875 4.416706 -11.130354 
-0.592312 28.397165 4.743047 
22.784197 17.693438 6.595144 
-24.197334 -6.872447 -6.032858 
-19.053368 -13.202591 -9.504242 
-18.797361 -8.010406 0.229410 
-20.955038 10.043952 7.173090 
10.133271 28.650764 -4.398315 
-18.079582 4.802368 1.243330 
17.643669 15.017278 -0.803194 
-4.877990 16.661503 -7.757103 
-2.882865 28.968271 1.463453 
4.040668 21.251705 -5.321934 
-23.063808 -17.913425 -3.148619 
25.658728 -6.854216 -8.401658 
-11.938113 7.580637 -9.073823 
20.116163 -0.356098 -11.365682 
-9.660662 20.985584 -11.195260 
-25.946693 -14.044836 1.543551 
-18.453503 -1.357175 -4.195050 
-16.836086 0.139541 -8.479486 
-21.097988 -6.539577 4.338100 
20.555088 13.283270 -14.428569 
23.572161 -0.549216 -11.722278 
-10.713229 19.729052 -14.799329 
-18.588614 -14.900285 -2.466121 
19.777102 -4.935758 -3.702312 
3.066622 25.175373 -5.870457 
18.215128 23.304277 1.966033 
7.258180 26.639132 2.871949 
19.817795 9.778695 -2.181664 
6.121997 29.921612 -5.397080 
19.942461 8.954176 -4.349186 
-24.461754 1.659898 -7.178581 
-9.092915 10.660419 -10.766328 
19.044228 5.148984 -11.395693 
29.321066 -15.308198 -7.292923 
-19.851835 13.661497 5.384929 
-23.446993 -16.275192 1.946860 
-2.769584 23.099941 -0.361656 
-19.619398 3.822389 2.728830 
-21.314156 -10.105828 -2.066429 
-26.345663 -8.642214 2.691806 
28.068333 -2.279677 -10.550078 
-24.357321 -17.568867 -9.432143 
23.759943 7.407222 -14.791694 
12.094886 21.919693 -11.118153 
-16.107782 -4.362271 -1.318027 
-9.698115 13.588269 -6.442365 
-5.178070 26.155737 8.143487 
-14.841717 -2.197351 -13.219007 
-25.664162 -0.794104 4.768935 
10.315980 19.301641 -4.530558 
-12.364767 12.336383 -11.395341 
20.759321 5.768506 -11.393423 
-20.900591 -0.275530 -8.871979 
-18.059336 8.900215 -9.464341 
-10.376807 13.487447 0.782043 
31.297316 -2.792584 5.685078 
-23.725922 -2.868634 -3.107753 
-13.776279 9.833450 -0.230657 
10.661474 17.897057 -8.705409 
-22.268223 4.394363 -9.027087 
-20.198570 12.754459 3.427506 
22.696383 13.263630 5.178077 
-12.242043 15.636768 2.990276 
18.758257 13.322603 -11.168086 
22.092628 10.989049 -10.463954 
27.147392 9.227666 5.902596 
-0.368793 20.324192 -6.392367 
-11.168674 13.381536 -1.092369 
19.503433 10.154764 -10.949331 
-13.095663 15.771739 -7.076143 
-22.025915 6.079213 -0.766047 
-0.842188 24.871483 -8.190711 
-12.350451 21.423279 1.822729 
-1.653535 26.105444 -3.658923 
5.602872 23.902765 -1.399001 
-4.422509 19.659925 2.374615 
26.681686 7.613964 -3.217471 
-26.064608 -11.163223 -7.619862 
-20.332344 -2.178565 5.122873 
-5.436010 22.941406 -0.491824 
0.116836 23.705723 -0.692631 
-19.182608 -9.650543 4.881414 
-18.148438 3.160434 -2.757903 
30.197598 2.117589 4.157179 
18.792288 5.975166 -11.355525 
-9.753592 22.460260 3.260491 
-19.101038 -7.681711 -2.660677 
-15.310547 -2.431265 0.812768 
-14.775233 -0.806822 -4.287097 
15.223671 14.829429 0.050199 
24.813248 -17.511539 -3.358076 
-17.412504 -6.569915 -8.313670 
-22.232018 -15.577452 -4.840014 
-3.323021 20.505606 -7.826400 
17.197662 -1.283534 -13.690935 
24.407059 10.794557 1.084592 
12.347894 10.066630 -11.099643 
-19.661856 -9.339733 -2.154866 
23.240091 -9.970013 -2.165570 
-22.145239 -15.563380 2.080811 
-1.622926 21.860554 1.230301 
2.976275 28.109543 5.037766 
-21.498096 8.576400 7.313919 
-16.092121 -6.133997 1.499371 
-17.825527 -12.212959 -2.299653 
21.880499 10.554208 -15.141934 
29.062912 1.763074 -3.513360 
13.692861 11.909577 -5.328679 
25.984432 -4.277197 -3.573518 
-13.055593 15.415504 -2.642484 
-18.720242 10.131011 -8.189607 
-22.509806 -10.341371 -9.369823 
17.697933 -2.813653 -9.788146 
-25.175730 -2.506937 -9.353266 
25.328833 13.551970 4.327443 
26.965357 -6.196341 -7.126392 
13.255912 25.583088 4.694055 
0.083305 23.638519 -10.440355 
-13.623000 14.708677 -9.997816 
26.587303 -1.238377 4.490419 
13.798264 10.036831 -10.768425 
-14.830142 -2.481665 -6.864691 
-17.348778 -11.467487 -7.484241 
-4.912145 12.449338 -15.061295 
20.905514 17.373207 0.301704 
25.383545 -8.963276 -6.734183 
21.676970 -6.986551 -4.711813 
-4.340583 23.616854 -8.689578 
-18.787554 11.149933 -14.750213 
-16.950573 14.842077 -13.482124 
19.549915 21.912294 -2.682536 
24.751322 9.443000 -2.261296 
-0.971269 25.104912 -7.465337 
-25.209116 -8.430154 -7.019119 
-16.804361 12.063766 -11.061027 
28.777134 5.491663 5.538685 
-17.068687 -6.548878 -7.377435 
27.868645 -15.341255 0.847909 
20.692635 -8.066192 2.744215 
25.709574 3.607700 -9.349496 
-25.841784 -0.396251 2.145129 
17.838625 2.873507 -6.935904 
-10.512234 20.296755 -4.243777 
8.205502 23.424551 -11.037286 
-24.444420 -12.576581 -0.894386 
28.334553 -1.719179 2.132496 
21.205338 20.658302 3.688076 
-15.439528 1.223520 -4.417572 
23.646996 3.279159 -6.445509 
30.195831 -5.095763 2.013167 
24.748692 1.684665 -8.805970 
-22.171761 -2.264036 -2.217886 
5.615831 25.223989 -3.128385 
29.424118 -13.428450 0.275188 
3.799476 18.838879 -8.589242 
6.316008 24.435183 -7.399659 
23.170315 12.669312 4.793988 
-10.078377 17.319103 -9.766938 
20.364399 -9.095947 4.635564 
28.155039 0.056871 -11.791607 
-18.266785 -16.437325 1.970530 
-28.133411 -11.812080 -7.623741 
-4.813891 21.557102 2.161288 
-9.505808 24.902534 7.269248 
-24.723635 -0.391607 4.723375 
-10.323699 19.762867 3.946242 
18.954689 16.019535 -13.037571 
-18.712891 16.072229 3.679889 
-3.819639 23.645838 0.826496 
18.786375 14.701475 -8.287859 
-25.352980 -11.073134 5.860005 
-9.643775 16.668507 2.782083 
-7.741593 23.490170 1.729709 
-27.060434 -7.839789 -12.413925 
16.123493 24.446468 3.675080 
-25.518152 -0.809671 5.772748 
21.977037 -15.838762 -3.363188 
11.406287 21.683954 -13.698289 
-6.024083 18.397770 -5.420019 
6.071285 20.588497 2.254128 
-15.962435 14.716112 -11.387090 
-21.665615 2.647019 -10.153157 
-4.643430 24.454790 -2.423636 
-9.039581 26.162912 -3.509639 
-14.886318 9.870854 1.659566 
29.267366 -4.661449 -9.005609 
10.231340 24.549683 -2.487138 
27.023993 7.008402 -2.928854 
17.913944 16.141748 -2.520645 
-25.185658 -13.437429 5.854772 
-24.627186 -4.720495 -8.300642 
13.777511 13.277496 -6.411897 
-21.823183 -6.413926 -3.233622 
5.495486 24.911299 -5.268949 
-4.750557 25.486057 -2.504791 
-16.829613 18.843544 3.711346 
9.691691 26.226368 6.785690 
19.496098 6.441534 -3.643529 
2.583092 23.410540 -8.814757 
-23.174646 -0.512439 4.987480 
24.625875 -3.583383 -8.811434 
7.520368 14.275154 -11.372778 
20.431793 17.067389 1.075658 
10.102505 18.810299 -9.216514 
-2.452393 21.934675 2.640671 
-14.608247 4.924975 1.777480 
20.768375 12.479666 -15.356653 
19.401392 22.223824 1.970879 
21.031139 -4.883334 -2.133515 
18.602604 -4.662583 -6.535695 
-22.060715 1.743041 -3.335059 
19.874056 6.235600 -1.268166 
23.000092 8.414512 3.921908 
-11.280039 14.053262 -6.914727 
-22.039978 5.613540 -1.598867 
-9.723890 22.136740 0.359421 
-15.906157 21.011930 -0.933490 
-23.556581 1.179009 -10.394167 
24.051483 -15.660562 6.477623 
26.463614 1.955909 -5.880099 
28.709518 -17.638988 -6.749369 
25.643652 4.740396 -12.302758 
-25.263918 0.307167 4.921834 
31.540304 -12.530741 -7.480461 
-26.265606 -8.299633 6.845110 
17.881786 14.294885 3.326649 
1.683214 24.218573 -12.129617 
9.521393 19.107906 -11.355492 
28.682177 -13.046869 -1.221033 
5.511898 22.544918 3.099566 
21.127724 -13.116211 -8.617339 
-15.377626 20.850761 -3.239819 
-21.868513 2.941800 -1.954346 
-3.299934 28.246231 2.572738 
25.256180 -9.817005 2.500154 
17.339817 11.048788 -2.425951 
-8.013755 10.538407 -14.800415 
-6.816418 26.484787 5.198538 
5.481171 21.200844 1.222993 
16.667143 16.706314 -6.590877 
-18.377527 -5.048726 4.357627 
18.222967 -5.282101 -11.287608 
21.750250 -11.308350 -3.803967 
-12.929653 5.098581 -9.074775 
-20.524757 10.717039 8.496344 
-23.726725 -11.020788 -9.033970 
-16.300577 0.781470 -9.567103 
27.340832 -5.955633 -0.149266 
19.778381 7.025919 -3.986359 
25.600523 4.583419 -13.323481 
-1.783007 20.609121 2.674421 
14.561302 5.625531 -13.219936 
-11.594593 19.714285 -10.125182 
-13.337563 20.857128 2.627187 
-26.511559 -10.790269 -2.919554 
22.946789 -18.061443 -8.917084 
16.876484 12.507004 2.420527 
-0.825149 14.953962 -12.220792 
16.743935 18.520914 -6.182529 
15.065843 13.095236 -11.240546 
-9.547207 13.400405 3.615015 
-14.657574 0.329406 -9.042553 
-14.927586 -2.827264 8.475600 
17.120951 15.934479 -7.217090 
7.869498 27.092497 -5.122493 
-18.291664 1.096673 3.333283 
20.363737 17.378284 1.770784 
30.179754 0.043413 3.552108 
-23.720079 -15.393543 3.688883 
3.985066 23.305983 0.493821 
-20.420492 2.515355 -0.189588 
20.241833 1.885496 -9.004501 
12.153277 15.243575 -8.774654 
22.554058 3.306012 0.075219 
15.419134 21.283558 1.095583 
-12.058702 14.125397 3.938593 
-20.479269 1.731717 -2.789618 
31.244797 -10.185091 4.058392 
3.556425 24.319052 2.278656 
-18.790161 7.792182 -8.720642 
-12.312981 15.205158 -8.957895 
20.742298 20.957651 -1.903650 
-0.828223 23.529713 -10.759548 
-4.901447 20.583899 0.491000 
-0.325222 29.730640 -0.255841 
-13.859791 11.000997 0.510649 
10.197558 27.548279 0.243827 
15.833823 20.047306 -6.067457 
-2.084531 23.330263 -0.677640 
24.430950 -18.587181 -10.432872 
-8.298655 18.918900 -7.347789 
-11.629566 13.611834 3.428543 
12.243819 19.497032 -10.107642 
2.591472 28.752996 -4.027072 
0.904742 27.491442 2.449438 
-6.813689 26.586908 4.367165 
1.466667 22.037794 -9.544136 
28.001160 -5.291583 -7.304930 
-19.801556 0.797659 -3.057910 
6.169675 22.187916 -2.929012 
-18.293083 -7.265558 -4.722491 
20.469215 1.119142 -4.360123 
-16.858337 15.776671 3.657223 
-13.295266 12.683458 5.057425 
28.989935 2.976740 -0.676210 
4.767301 25.190241 -5.516379 
-9.873950 12.174953 -7.780443 
-19.084896 -15.453287 3.518827 
19.255592 5.763153 -4.113097 
-0.271070 21.040089 -8.687895 
-25.437553 -16.810921 -3.811246 
-21.396544 5.010808 2.096280 
1.646848 21.834091 1.609192 
-23.108162 -3.689814 5.086053 
-18.299980 -11.909513 -8.317172 
22.245209 15.902029 -2.847777 
-4.765684 22.205406 2.692673 
-1.465773 25.977461 -4.423023 
-24.176432 -1.237951 4.960526 
13.982435 26.091795 -2.855025 
-19.711330 9.150525 1.246320 
-10.854971 8.803835 -9.890678 
27.769014 -5.159751 3.727815 
13.050056 21.464767 -9.178222 
-15.892951 -5.380687 1.013485 
12.126693 22.844685 -0.214518 
-22.521122 4.483163 -13.920586 
24.008156 15.265217 7.699027 
-15.041960 -3.332876 -6.851907 
30.536354 -12.975407 -4.375992 
19.830750 -3.994344 5.772523 
4.790738 27.213329 7.012904 
-6.738293 22.514124 -6.770076 
-21.321873 7.624131 -10.766249 
-25.475496 -1.921301 6.953772 
10.125088 22.725113 -11.069188 
-20.839554 -8.417249 4.805341 
10.895932 19.210352 -5.971231 
27.571753 -3.791983 -5.121501 
-11.424520 17.424559 -1.746069 
-12.144919 13.820787 -8.488690 
26.271755 -6.806367 -6.670283 
-3.919443 13.748906 -12.427732 
-19.068537 11.569618 -11.582074 
21.316813 15.998755 4.191295 
4.203865 20.571987 3.868093 
10.557567 20.814312 -9.240824 
21.803150 7.504832 -8.546602 
19.780594 -0.270785 -8.768363 
21.511164 6.560629 -3.078723 
-13.895378 11.828881 -11.889524 
22.569181 -13.390753 0.248530 
-25.442327 -13.763105 4.987047 
-19.336088 -16.931637 -7.365573 
-17.425385 1.259417 0.217083 
-3.287097 21.738760 -9.012094 
-1.413837 21.131186 -11.468699 
-20.033619 11.860458 2.772790 
11.166037 17.425425 -7.602548 
29.798088 -2.260487 -1.304022 
5.212218 22.172445 -10.707338 
3.865709 27.756126 5.971233 
-2.651895 23.813963 -11.577608 
18.056612 14.229958 -10.292570 
15.622844 21.365103 -0.302135 
19.765423 -4.624247 -10.915038 
-27.185471 -8.904785 -12.286751 
-22.675562 -6.629843 -8.201603 
-17.240252 -10.427858 -7.623616 
21.668289 -2.079861 -4.713894 
21.968124 -10.480247 -0.519434 
0.689696 17.658377 -8.892037 
7.321174 23.913980 -2.571526 
-17.422325 10.979582 -3.565685 
17.590721 -2.746910 -12.673968 
17.322935 17.420151 -14.604967 
-20.671862 7.009767 -2.644960 
-17.385956 -2.495772 2.284758 
-11.838058 11.133537 -11.234255 
11.893267 19.399780 -7.235438 
-14.872749 8.216149 1.387152 
25.950211 -14.761311 2.697786 
-16.949303 -5.833910 -9.401138 
20.463511 -8.102016 3.483399 
9.372377 22.823288 -12.055931 
-6.367547 23.166418 -2.520645 
-24.250565 -15.236197 -0.265315 
-16.081648 -5.101055 -1.071964 
15.647296 15.682664 -9.950187 
4.833077 29.565638 -6.171964 
19.888147 21.578510 5.796517 
-16.049459 20.736536 1.362357 
-27.454512 -9.171422 -6.784764 
-10.213777 20.531780 -12.611207 
7.163254 15.436173 -9.775263 
23.515451 -13.285344 -10.165907 
-22.993483 0.200080 3.028497 
-21.640522 -5.316023 -10.756670 
25.715384 -6.775409 -4.890568 
-15.643370 9.961366 1.825858 
-6.920648 16.324213 -10.168322 
-15.085257 -3.777614 8.483683 
-18.907476 -15.774625 -9.857118 
-12.720432 6.462614 6.827455 
30.788931 -7.332148 -0.053104 
-18.099146 16.221001 0.732579 
-14.452587 16.239220 0.744752 
19.984331 -5.188436 4.638304 
14.305492 19.474009 -11.500708 
-19.485039 12.482480 -3.917557 
0.728276 20.007816 -7.029549 
8.494624 26.188118 2.556011 
22.382017 -5.976481 2.769327 
-9.846638 21.885273 2.157084 
-4.814571 22.874290 2.143263 
-1.165369 26.487040 5.452528 
19.449598 14.866702 -0.553174 
-17.776566 -7.726056 0.533312 
-6.864709 17.234842 3.538096 
-16.800177 -6.516250 -6.487976 
-19.532625 -16.899031 -8.578054 
-19.022747 5.757710 -3.178543 
-24.173557 1.803725 -9.238816 
-14.471307 9.731364 0.340573 
10.813364 25.836243 -3.192261 
21.740400 -8.844863 1.861615 
25.905586 12.727180 -2.550281 
-13.839997 21.171562 -5.169939 
-16.345547 -10.876003 3.500170 
-25.652487 -4.108446 7.637318 
-21.766806 7.863486 6.361657 
