10.246442 24.018803 4.030358 
-14.666945 16.968821 2.869569 
18.250589 11.632912 11.278108 
-11.678604 23.426958 9.648415 
20.288937 17.365404 1.582502 
-13.223687 22.037445 12.933990 
-22.502522 18.424742 6.157796 
-0.330302 24.238445 11.984674 
20.597776 -0.623381 4.507246 
-24.716013 -4.714622 5.036279 
-16.148001 5.035026 -3.184845 
18.087387 13.975321 11.572289 
19.042662 12.507442 -0.355987 
-21.816130 -7.162978 10.003383 
-2.301450 23.635841 1.257070 
-21.104355 15.048708 3.754287 
-17.504591 4.661798 7.186390 
19.386045 -0.928492 1.897014 
24.439350 3.681135 13.107389 
-19.038174 15.629174 10.839505 
25.817478 -11.523828 4.278457 
-20.105480 0.285911 10.758814 
13.994555 15.951118 1.284336 
-19.095781 -1.947734 -4.593261 
18.909494 3.409117 -1.911467 
-22.115400 15.036102 -1.949194 
27.934189 1.378083 3.959150 
9.552958 23.319300 -1.990028 
6.571445 26.587212 11.278532 
-14.341573 11.017793 -1.022075 
-6.592437 27.808899 5.483032 
17.933004 3.749771 0.679397 
-25.719524 -1.726217 12.362097 
18.851404 15.063297 -1.703257 
7.845411 26.887775 -5.030434 
-26.588158 8.227358 -5.101254 
-27.257103 4.753964 1.086841 
21.318628 12.273982 3.575866 
14.751761 21.913363 0.885251 
14.776187 18.644392 0.466789 
15.304984 19.488426 -1.451140 
18.276249 23.192705 14.864982 
-24.580496 0.041540 7.565617 
24.528923 12.405330 -3.288288 
-30.788137 -0.596480 12.434535 
23.286060 9.162884 1.054820 
19.709213 17.328377 12.548817 
-24.738050 9.925056 3.638929 
-8.810134 17.285088 -6.205993 
-15.125187 15.238954 1.205114 
6.760579 28.085056 10.127101 
28.495708 3.962453 1.901020 
9.128695 29.383627 9.949179 
-12.705428 28.046801 6.551267 
29.921972 -4.375959 0.182703 
10.385285 16.674915 -2.471607 
16.553280 18.661108 5.212817 
15.083167 10.839917 8.578766 
-20.350969 15.032189 12.516507 
20.604969 -9.128011 5.126636 
-21.332504 18.135740 8.274985 
-30.641796 -0.386929 11.456984 
19.284378 20.609827 -2.583115 
-24.174397 15.022762 3.398900 
-20.944086 16.191732 8.988933 
-24.671568 8.967496 4.105618 
-17.121487 5.096025 4.378401 
-24.199333 0.633788 4.414454 
-20.929071 8.359583 -3.297663 
-1.195140 27.090237 10.579689 
-20.991724 21.042904 13.829837 
-16.385454 16.037804 4.175585 
-12.533783 24.887236 -6.459774 
1.962525 25.269081 0.284183 
21.618940 18.034542 15.684698 
20.914717 4.444490 12.613708 
-14.971277 26.752367 11.907724 
-21.147264 20.459745 11.091570 
-22.791588 15.649375 9.127745 
-9.463726 25.128456 12.843857 
-21.134157 -1.866324 2.790662 
21.818537 18.219305 14.799750 
-22.093388 18.031971 15.734059 
-26.752745 5.575741 3.783160 
11.773148 18.993828 3.132542 
-13.384306 18.362179 -0.026230 
-21.617781 15.771299 -2.902168 
-0.934052 22.383177 -0.407467 
26.517525 7.396661 13.015263 
-17.296545 21.217115 9.261206 
22.615667 -11.023309 7.689566 
-5.281483 25.179085 -3.452184 
18.528786 -1.265585 -4.525579 
-19.486300 22.091837 7.685298 
2.727503 31.018156 9.714629 
-15.486861 16.207598 1.910291 
23.712301 -10.691190 8.362649 
-9.843439 30.630203 9.203410 
-12.284122 26.012039 6.632053 
-11.468302 26.162445 9.045498 
-19.950672 -4.681174 -1.866154 
8.696835 25.506889 12.233066 
-14.776762 19.886110 4.802559 
-7.378333 31.299583 6.469688 
-23.182323 -8.624853 7.801656 
5.352890 26.520649 3.794183 
5.232305 26.833546 4.564203 
28.393768 3.063461 -0.908295 
-27.225819 -8.206972 6.437151 
-24.968185 2.942462 5.139030 
25.955664 8.946851 -1.521834 
21.366014 -11.254395 -1.974565 
-13.292571 17.908792 10.792120 
0.083415 30.812613 11.160909 
-15.789784 8.499347 0.392558 
-24.160854 4.472501 9.912099 
-5.928930 24.495668 -2.748132 
17.575214 14.488343 0.463716 
29.665249 -8.274330 9.316488 
-11.196257 14.999025 -6.359230 
3.426565 21.346945 -2.218827 
-27.396717 8.348677 5.106245 
19.959044 13.501195 8.084917 
-24.286823 10.594299 3.704044 
-11.788437 18.804989 14.315126 
-17.241041 5.936912 12.140681 
24.420471 -8.701639 -1.389399 
-18.333128 21.326582 1.370827 
-19.913822 -2.671227 13.825600 
20.996508 -9.720957 4.742652 
-5.730230 19.502487 -4.908988 
-18.949114 23.857037 13.432719 
-12.499967 24.426298 0.525379 
-20.584665 -5.235712 -0.274685 
-10.913752 20.815613 -0.191965 
7.849789 26.545948 11.336472 
9.371364 29.414854 12.015722 
-17.499838 4.644616 -2.045630 
2.041610 27.483444 -5.572336 
28.246042 -5.084784 1.798764 
-17.248463 5.188886 11.734651 
-6.283845 28.567989 10.816417 
23.896051 -9.308512 -1.238023 
-17.837095 6.826415 7.283946 
7.181010 24.247967 8.893943 
15.543036 9.725558 -3.293631 
22.306007 16.279320 3.511800 
-14.240477 22.892483 -8.654794 
18.333742 11.411173 7.875679 
-6.874568 33.072838 8.984512 
-24.168238 -6.325943 -1.682958 
2.577670 28.530214 10.649255 
-14.601691 28.820253 5.388794 
9.485783 28.090481 10.463941 
-29.600210 0.756980 7.341807 
-16.371769 22.651358 -4.472018 
8.492180 24.441730 3.672140 
23.399281 -13.007844 1.490777 
19.789972 -8.954132 10.786645 
-8.049060 21.057701 1.801135 
-21.157001 -5.994133 8.656072 
26.594570 2.672200 4.954284 
-25.725882 0.880883 8.697824 
2.996942 22.823383 14.678409 
18.920378 -3.347529 -4.153158 
-20.692768 15.670389 4.311661 
21.050543 20.172392 11.887360 
10.069557 17.094393 -1.696722 
23.376341 -1.213029 9.451013 
16.848980 1.261598 14.485772 
9.384474 17.100246 -3.994654 
-11.283513 24.948967 10.269460 
27.939596 5.956542 -3.397567 
-20.557060 22.044989 11.251430 
-22.107077 -8.162252 -2.421952 
20.699551 14.451627 8.201657 
-27.986952 -8.532021 5.408258 
-2.858495 25.139883 2.467986 
-30.196249 -6.177106 2.620106 
16.103718 3.897525 12.180411 
-13.623598 23.355001 -8.705934 
-8.285742 27.504105 -4.615500 
-20.307318 -6.370949 3.016690 
-6.508610 22.765085 0.245520 
-8.603512 27.783230 13.631758 
0.374589 26.299162 8.632644 
0.285984 30.943789 5.390897 
-4.883112 33.145535 3.442528 
-15.902924 5.966222 -2.845809 
-9.723887 21.104582 0.541119 
18.113703 9.890239 -3.530933 
-23.314486 12.136184 0.378493 
-8.917794 17.511034 -4.589575 
14.224660 20.339945 11.459742 
-12.339925 24.953712 -1.756336 
22.614008 -1.335034 9.633768 
-12.948593 21.100674 0.716309 
-7.005440 22.961861 12.761191 
-12.402532 16.803999 -3.109431 
-2.508438 20.510057 -6.366632 
-25.061646 10.888351 -3.551223 
-26.205269 -10.276904 -0.812505 
7.388777 24.913006 4.436250 
29.498827 -7.798491 14.032625 
-4.609202 30.726145 13.248532 
-24.197433 7.206505 12.681235 
-17.365616 27.284042 7.591197 
-19.995255 0.807427 4.355000 
-26.242161 5.333539 -2.285440 
16.410646 14.717301 1.268652 
20.889856 -4.247537 12.570010 
-15.834073 10.124495 1.143060 
15.834281 9.004995 -2.995949 
-11.003119 24.380835 -4.359037 
17.392241 13.562351 1.872647 
8.562994 25.621990 -3.744861 
29.401300 -10.019673 1.499846 
-19.451054 18.305744 5.130709 
11.861584 24.509958 10.732415 
21.670460 15.275018 1.300444 
-21.427456 17.731348 11.046735 
-18.635864 19.812414 9.137223 
21.684683 4.687251 3.518101 
-15.950523 24.489948 14.045900 
-15.629536 26.672426 12.311346 
4.301095 25.769356 -0.118882 
18.785412 9.187474 8.979237 
5.540832 32.072308 6.214258 
21.536520 0.890981 12.617955 
15.534510 7.009069 10.516961 
-28.150570 3.571092 7.551200 
4.502780 28.187571 1.086441 
-17.961885 2.189216 0.533486 
23.442715 -10.899117 6.504949 
-15.146266 19.431583 8.742371 
-14.919117 18.561668 8.636767 
0.566469 30.697168 10.645961 
21.681349 6.590038 9.976021 
17.046442 1.930122 6.275904 
-7.133078 20.106205 -1.658324 
5.639775 26.761145 7.827049 
-3.496561 32.344872 9.405519 
15.929140 8.210650 4.875543 
25.069178 -1.786110 7.139036 
-13.319813 26.943302 9.542686 
20.039036 18.559023 -7.149539 
17.042017 5.668764 -1.480782 
-9.056110 29.473280 4.594956 
22.019842 17.316359 15.670003 
2.672223 30.204218 12.179395 
-21.518740 19.666887 10.899661 
-22.268864 3.240374 12.463122 
23.612350 7.547405 -2.813398 
-27.407389 -9.709536 15.189972 
-0.726977 23.449631 -2.677921 
3.867374 26.130543 3.957750 
-17.593647 21.295685 -4.357092 
28.043493 3.079984 9.572910 
-8.659541 29.635925 15.267687 
29.140221 2.429847 -3.287529 
-20.952662 16.553762 -0.915808 
17.883821 3.908235 3.687225 
23.457655 13.595815 0.324807 
-12.116685 19.175680 11.969444 
22.127987 -2.889452 1.326850 
12.817713 27.760210 7.267943 
17.934105 1.087131 -0.195808 
14.723913 23.689194 -5.482034 
16.568529 14.442745 4.611592 
14.375034 19.797009 1.808063 
26.486769 -11.729736 5.365821 
22.103899 -12.171963 1.927003 
30.419699 -5.680772 -3.320708 
26.130564 -8.288223 -1.238348 
-5.845602 25.668585 -3.441502 
19.174053 14.066268 3.479576 
-4.104362 25.881365 -3.637096 
-3.078511 24.117819 12.152039 
-23.812876 11.250445 6.598120 
27.364544 -1.638411 5.049041 
-15.097723 20.521940 5.558482 
23.070419 14.579538 10.695167 
-20.322144 4.168366 12.189666 
-14.987784 20.995518 12.531653 
-13.790699 24.450739 -2.720244 
17.236336 9.069654 11.429091 
-24.205563 2.908113 -2.786736 
30.040794 -3.740863 9.215973 
-3.356452 30.104364 15.952269 
-27.825117 -3.618069 7.065201 
-23.474701 -9.065974 -3.968998 
18.396940 22.237862 10.368142 
4.847278 21.049068 -2.227136 
-28.868397 -4.837918 12.748701 
-19.770460 8.976039 8.759519 
21.738506 14.150208 -2.974631 
-11.936274 19.242914 -3.724624 
-17.553007 2.067990 -5.269926 
23.775072 -10.931445 4.304059 
-16.290018 4.858574 -4.199609 
22.872967 6.868050 -0.033919 
18.953272 -3.897860 -0.046347 
5.930619 27.888596 -0.266122 
-9.939795 26.759314 -0.603711 
7.219594 26.373232 9.422034 
27.629164 2.754403 11.179231 
-29.214855 1.262675 0.002436 
29.061552 -10.250240 0.877578 
22.321392 15.992170 9.674956 
26.234161 -12.093741 11.093081 
11.843777 15.955001 15.654511 
0.326806 30.794952 13.416542 
-30.695139 -5.632269 6.775507 
29.567659 -1.168069 -4.707400 
-24.282890 9.235861 -2.507702 
26.930643 -11.529864 2.756376 
-20.779650 7.010720 12.306485 
-27.140001 -7.481745 12.027340 
28.573689 -6.712424 1.948308 
-27.092426 4.479070 2.569212 
25.450100 -0.923707 6.690668 
24.731199 1.813198 -3.143572 
21.523499 8.280625 -0.307005 
-7.536186 33.741680 7.160954 
0.786962 28.160294 -1.392914 
28.306852 -1.328403 7.989200 
-19.568525 3.621397 4.218890 
-21.457195 15.463708 -5.538938 
30.360500 -4.722733 1.882932 
-22.337725 18.761942 9.263951 
-11.577610 19.303284 -2.216057 
7.018094 26.831493 0.279349 
-17.398485 7.582230 -1.730266 
-10.859354 20.961826 -1.516297 
23.325415 -1.573932 -0.756033 
18.236197 18.705435 10.730962 
-30.411757 -7.567612 7.816833 
14.501821 10.390237 12.907091 
-5.848710 27.901676 -5.506814 
12.886412 14.998978 11.980944 
22.148750 -4.342940 -0.386115 
-6.263354 23.480736 1.272858 
17.475088 9.436028 -0.614610 
-19.858957 21.703815 9.388153 
-16.208294 15.533773 8.159799 
4.874439 26.063580 3.388199 
23.172531 15.070390 14.219565 
-15.373923 28.090084 3.848090 
-12.068701 20.505871 9.955848 
20.221052 7.878834 8.568707 
-21.193100 -6.788247 9.667662 
12.467845 24.021589 2.613135 
27.136377 5.904476 -6.971924 
12.323944 17.841789 1.920427 
-0.189435 23.498882 14.365711 
22.084236 18.824068 11.065384 
21.228012 -0.768279 -2.358377 
26.551006 -9.771858 3.573381 
0.521976 29.210806 10.294672 
2.085489 26.364687 1.272177 
26.064766 7.704177 15.474829 
-18.992199 3.667920 4.828817 
-16.763699 25.776367 14.910864 
22.412115 15.948958 5.644432 
6.935415 25.239250 -3.390763 
18.784058 -3.250742 -2.593420 
-16.932507 17.142885 8.445623 
22.292105 14.451542 2.771311 
8.955429 26.614496 -1.055740 
1.879425 31.112066 2.625195 
-27.661970 7.822240 6.096758 
19.480461 15.128344 3.456978 
25.455967 -0.798509 10.459466 
-5.688691 23.927002 1.047231 
-31.446722 -4.560879 14.452422 
-26.741596 7.734660 0.090214 
19.556881 -7.457374 -2.757400 
-24.442326 15.449856 8.884320 
27.223776 -8.926935 11.906589 
-0.883583 30.705021 7.329674 
17.349592 24.446966 5.577008 
22.124390 13.182600 -3.639913 
6.662151 25.655729 -9.012863 
-15.376879 23.749586 2.128684 
23.660849 -0.764033 10.203879 
-5.323173 25.140213 10.186963 
18.909096 9.469903 0.004878 
20.744913 -5.779988 1.341008 
-20.095707 1.735956 -2.348062 
26.083679 9.260612 -3.468457 
-3.252827 27.911213 1.240212 
20.328949 5.801335 3.894027 
-12.735208 27.686405 8.114040 
5.741835 26.083286 11.636831 
-0.267996 27.775715 6.737041 
5.509556 27.768932 1.879114 
28.253979 -10.917095 1.252050 
14.253890 25.428499 2.553805 
11.364592 20.816223 8.589667 
21.178259 13.179563 8.180972 
10.216389 26.430403 -1.615553 
17.818125 23.943018 14.213405 
21.445726 -6.447715 5.533175 
24.550934 -11.651666 3.561580 
-28.590044 -6.742678 -0.355003 
15.297222 23.162960 -6.227784 
-16.612270 19.790682 4.737048 
-19.419638 6.121887 4.010904 
-2.918211 30.185558 13.921497 
16.713388 3.751847 6.470500 
20.895214 -11.235053 11.834019 
-19.270773 1.020097 10.809188 
25.710785 -2.776661 -0.160253 
-26.448895 -7.323173 8.266313 
-17.296373 9.352133 2.095990 
28.341898 2.157167 -0.953138 
-1.780264 31.707092 5.608688 
-10.491534 26.626152 6.452359 
-21.882900 -4.241899 5.555117 
10.607228 16.282063 -3.901114 
-9.832830 27.035772 -3.675642 
15.690710 22.678734 -1.655598 
27.252628 0.112846 1.354059 
29.989752 -7.528496 5.798450 
-20.778303 15.918521 3.630716 
-12.767073 24.397089 -0.877305 
5.826033 27.955902 3.356274 
-27.782467 -8.420851 10.209673 
5.958311 24.176636 9.589804 
-7.091705 26.084311 10.197785 
9.862174 20.660423 3.132544 
-20.908859 5.590607 -0.169628 
-21.298742 12.966631 2.820056 
14.281662 17.465803 -2.129418 
28.859390 -9.609576 10.051044 
20.017464 19.896315 -2.958735 
-11.132228 25.943432 -5.256489 
18.342251 -4.211244 10.070312 
-14.893228 27.325727 10.579626 
-18.190481 23.178343 11.737300 
-19.900843 16.605051 -7.967936 
18.745480 9.054769 3.284465 
-18.520391 24.358440 13.907012 
25.360020 8.874837 2.397183 
6.604775 31.174515 4.876288 
17.435209 9.697604 -1.424938 
-14.262178 27.693455 13.551573 
-19.326553 17.310310 3.597892 
-13.150355 23.428045 5.884985 
-28.113068 5.056053 -5.315200 
6.130588 24.235207 -2.143297 
-29.960863 -4.240870 7.169158 
-24.012922 1.308891 0.510259 
-4.798959 26.102152 -3.797622 
1.949297 23.462749 12.754703 
-19.320494 11.813741 4.633103 
20.334240 14.294093 8.863678 
-5.742276 23.006218 0.903287 
-13.172717 26.042681 5.770964 
-28.725470 5.322045 11.156259 
-18.844662 10.330903 0.448649 
20.481535 10.193343 3.436716 
-14.879106 9.257624 -1.837415 
-16.927258 21.702383 -5.544500 
-30.720800 -0.505575 7.105660 
30.578743 -6.970027 -3.327378 
12.801175 24.070065 11.128837 
-12.098701 25.832912 5.871154 
-18.781351 19.430857 -4.456400 
-26.824711 -9.447555 7.329470 
18.298666 21.140924 -1.602844 
13.682590 12.930663 12.669028 
23.705761 12.534973 -7.667573 
-29.091463 4.564379 14.452078 
-21.407990 -5.560092 -0.720840 
-14.517837 23.665565 -5.909512 
21.220360 20.163458 4.448121 
-21.885040 10.117976 7.863186 
25.787579 -9.232046 10.809824 
-8.601182 25.380413 8.954443 
-18.203440 20.876541 11.306390 
5.929974 26.665424 8.623496 
-15.077728 25.757616 3.613775 
-17.242699 20.951576 -2.772039 
-7.916619 23.490885 -4.179792 
-16.318668 17.090998 -0.046029 
21.535265 10.418691 8.386054 
-18.605442 20.504436 1.009250 
17.370323 -0.213636 9.186629 
17.569719 2.646283 -5.239849 
3.739963 30.777533 11.006423 
-22.608324 4.322230 4.613327 
-10.701126 26.121044 -1.882015 
4.619959 24.044939 1.724858 
19.328476 20.179939 -5.277933 
6.436880 24.580570 3.239576 
15.768109 15.098943 4.074147 
19.593130 16.619225 12.575438 
17.898218 0.887930 -3.781250 
8.077463 29.519650 7.194904 
-18.638815 18.127300 -8.133902 
22.673943 14.780937 -6.578443 
26.507547 -1.039458 11.294678 
16.324188 22.093136 12.062037 
22.604641 1.758609 4.666487 
19.637787 17.101274 -1.138150 
4.153429 29.809328 15.255078 
13.643916 21.808575 11.914387 
-20.822683 14.355660 4.521648 
20.519098 14.998954 11.862683 
-18.001062 23.295732 12.788909 
24.834469 -4.824242 14.289219 
15.215258 18.273975 7.871340 
12.535112 17.996687 0.343875 
15.974447 22.116976 9.813447 
-0.661604 28.336493 5.751639 
-21.029949 12.267729 -0.624486 
18.926947 8.384740 1.148683 
-16.349907 27.591850 9.858873 
-11.450540 22.732965 11.213879 
14.075510 11.954274 12.474273 
18.468374 2.162951 2.924797 
-22.031637 20.049860 12.488489 
-23.810087 -5.225381 4.668755 
-6.454004 20.416744 -0.413917 
-17.806753 18.411642 8.836814 
26.595003 8.097740 6.234801 
19.435059 20.209963 0.003373 
9.116089 21.823923 3.729333 
22.593086 13.536784 3.181162 
15.842684 18.127804 9.381300 
14.073647 12.338235 -4.507486 
22.628685 -2.097665 7.523757 
-17.026073 13.338388 8.080549 
-24.389519 14.303446 14.436669 
-25.471111 -8.259995 11.331220 
-1.099515 30.685314 14.502488 
-28.351355 4.456128 5.503658 
-17.299465 12.802499 11.383896 
18.915024 2.377858 -1.493060 
-7.194454 27.453924 10.798399 
-18.961969 1.061442 8.488771 
-5.224298 28.208317 -4.837126 
-23.125204 10.926595 8.019233 
22.257389 9.289863 9.823693 
19.119940 -4.791140 0.571188 
-28.576416 -8.431809 7.901544 
-21.071302 -3.893053 7.335359 
-4.991150 30.477783 14.837790 
-12.375699 25.518131 10.627618 
-9.551598 29.789858 12.759357 
11.213919 20.026535 4.984436 
-6.976836 29.705271 5.405855 
0.038849 24.018175 0.731884 
-26.254423 8.443459 12.167458 
5.939521 28.637768 5.594273 
-27.418789 0.921721 6.608881 
-6.248870 30.500072 12.019161 
12.169849 28.744608 6.550701 
16.060631 15.112528 3.171464 
-12.732542 23.540401 7.417769 
-18.355745 7.391246 8.046383 
19.607731 4.888094 3.136054 
19.261681 6.689123 -0.441699 
-13.991944 23.684055 3.265486 
20.155741 -0.344550 9.674949 
2.051232 27.880030 -4.128410 
-27.226866 0.035739 9.137402 
14.757306 10.046048 10.389527 
-14.996198 19.194590 4.268609 
-16.484993 4.728256 -5.369930 
-6.457915 23.010256 -3.229759 
-27.119526 8.897385 8.903185 
-8.656173 22.695667 3.398399 
11.000097 16.748793 -1.249020 
-22.002245 9.038871 12.089508 
27.287508 -10.407893 11.413813 
28.169006 -8.207036 13.776355 
23.612013 9.341165 4.973189 
19.470478 15.922105 9.228757 
9.381190 29.700672 8.236115 
-8.876803 31.200926 4.680831 
-13.786880 21.347893 4.267499 
-11.892220 28.695210 4.369178 
-30.698069 -5.153313 11.463871 
15.556111 7.770083 15.488015 
-6.435673 30.106623 15.229934 
-14.462914 12.086221 3.062158 
18.698963 8.431591 1.842780 
9.719563 22.248802 6.034721 
27.320097 -10.399064 8.774092 
3.565939 28.154884 6.407852 
-24.779085 8.173845 4.710541 
-20.410496 10.314127 1.075521 
25.353399 -1.036092 12.504626 
-5.965906 29.027542 13.248060 
-18.176790 4.624043 -3.158898 
3.565297 28.289497 1.422525 
24.004803 9.172033 1.252815 
-7.836545 28.127888 11.808268 
-15.297464 16.585880 -0.591821 
-15.672295 11.891272 4.286727 
-22.337477 3.007112 4.939991 
-16.324162 27.009340 11.193500 
1.175741 27.858973 -4.140924 
0.194104 27.255611 8.377004 
-14.095951 10.417400 -5.893878 
29.023342 -6.194448 7.534960 
-22.752356 -0.395933 0.728450 
-17.527426 2.420453 2.010293 
21.645542 -1.376403 0.266529 
13.840638 12.998028 11.476411 
-22.024376 -1.270878 0.568595 
-20.274376 9.172335 9.518723 
22.337469 -4.730175 -1.009777 
20.587404 -2.973394 8.640134 
-3.327991 23.132856 15.813995 
16.633261 15.441415 3.574399 
21.689821 19.695110 5.662191 
-14.736060 20.468935 -4.645045 
17.376186 2.864496 -3.013546 
-6.658888 28.776182 7.051910 
0.868609 26.073200 -2.369784 
-18.484377 19.372774 1.034206 
-30.479980 0.403002 12.746841 
27.545942 -3.365673 -0.797972 
-23.109196 -0.856988 -0.484752 
-26.500805 -5.794209 -1.530387 
-7.548469 26.180500 -9.025378 
-8.211711 23.350330 3.512319 
16.591665 22.021309 -1.578102 
-19.943539 -0.082229 8.514617 
27.687639 4.736526 13.552437 
-23.057968 -9.046281 10.414897 
19.581173 15.085883 8.469523 
-24.350821 -0.966081 11.573972 
-19.172928 4.135688 -3.309210 
-11.853065 25.456913 -5.779562 
22.468121 6.415856 12.546758 
16.117878 10.257175 -0.922095 
-7.643483 25.559488 3.334003 
-5.313207 31.384855 5.202317 
-11.701359 18.646406 15.734497 
-14.308448 22.363401 13.427170 
-19.135431 20.506439 3.814696 
-18.842556 17.254387 13.133713 
14.876588 12.014226 -2.177643 
-10.547062 29.923119 10.727301 
-20.268959 17.520945 -2.953587 
-23.759087 13.168839 12.152758 
-14.283304 27.542555 14.370063 
-4.011599 29.316944 6.614940 
-10.452737 24.700363 12.298051 
13.166661 25.997700 3.847954 
17.466824 6.086985 7.193442 
16.756706 2.335752 7.296096 
-12.917416 20.831429 9.652325 
13.817900 13.498221 -2.933817 
15.425644 14.666250 5.621017 
24.736305 -10.502716 9.205023 
28.804237 1.009839 0.468014 
-18.682756 11.487449 12.405093 
13.065506 18.118715 3.201789 
-16.198517 26.012260 13.431156 
19.707846 20.948469 4.525260 
18.327940 0.579647 5.503506 
-11.506296 25.169703 11.260175 
-19.073601 4.656046 0.011198 
-11.811544 19.995178 -3.563839 
16.228115 7.308067 -4.225716 
17.187555 21.398325 3.292576 
9.131623 23.669390 8.680018 
-31.482302 -4.563048 13.719123 
16.961645 14.473174 7.673377 
-28.249920 5.068696 -2.056794 
12.912299 22.944202 5.210396 
13.122186 25.861313 7.620782 
12.168144 19.497841 8.645740 
-19.511093 10.855002 12.295975 
-26.421021 8.071414 -6.017788 
12.319510 25.531088 6.559603 
7.579085 26.727474 -0.962219 
-4.655261 28.985710 7.266562 
19.070139 11.297272 -4.072743 
-22.744169 6.523395 -0.367083 
-10.629269 25.317837 -3.729547 
-27.590830 -9.642062 -3.413043 
-17.093479 14.222866 -2.915349 
-3.731544 32.471985 2.952132 
-9.064601 21.315758 14.380427 
-28.200285 -3.438752 5.921891 
-9.706596 19.234556 0.391162 
29.575443 -8.903047 6.082045 
-18.004841 15.669815 7.957839 
1.585603 28.205475 -1.738393 
-11.376427 18.291147 0.556479 
-20.506895 9.348320 6.212097 
-17.673553 5.193478 -3.064494 
15.235887 12.010045 8.508151 
15.788266 9.346390 9.228132 
20.938614 -4.527033 1.380110 
-14.627331 14.309967 15.651816 
-30.456060 -2.848252 12.360070 
-8.559449 28.328018 3.769318 
-23.332018 14.082970 12.359350 
17.162905 14.871359 2.294690 
-29.290403 -7.002689 5.270217 
-19.083162 16.795946 7.603381 
-1.949205 28.386881 -2.301545 
-22.670141 19.861763 5.142794 
-3.370032 26.172680 5.416200 
26.541769 7.254139 13.735011 
29.032681 -10.232046 4.985284 
-14.456460 20.309637 10.665732 
-19.129461 10.310346 4.941538 
27.748587 -0.992369 8.343534 
13.647887 18.865030 -0.494964 
4.075047 31.448063 8.925792 
19.892418 20.724316 9.333376 
-3.561527 26.393606 6.173126 
-26.581598 -3.870629 12.894979 
22.544958 -5.275873 -1.719916 
16.358551 14.685687 0.305825 
18.141472 15.252303 12.327706 
-21.955494 20.657921 9.179848 
-25.480192 2.583692 5.502974 
28.999281 -8.142753 11.879582 
5.277903 26.555717 -7.361332 
-24.718210 7.851804 -2.724149 
23.108223 6.506315 3.672191 
22.651552 2.210599 1.009535 
-23.945303 -9.239630 3.992969 
18.850544 7.392321 6.126903 
-23.431076 12.314856 4.520417 
-20.620493 -6.685762 2.114787 
10.419291 20.032097 3.309927 
12.336466 24.611465 7.582631 
-26.641188 -9.028330 0.275741 
-23.019049 14.970299 12.294392 
-7.246548 26.880833 0.253408 
0.568582 28.365520 8.872547 
-18.712130 1.735987 10.865018 
-6.981573 21.210756 -3.321395 
-20.404753 15.773820 7.101538 
-21.041952 17.256319 6.696791 
27.776478 -8.688927 8.227292 
24.499033 -0.854884 10.627917 
-18.942595 23.211361 9.781080 
-20.595098 0.422553 4.044258 
5.933745 31.475212 2.597647 
28.635189 -9.841024 15.124013 
15.655162 11.726617 -0.177870 
14.800563 9.351304 12.427582 
18.763863 16.304369 4.290689 
-27.939953 7.830104 13.298439 
20.431860 20.196072 9.300869 
-23.862843 5.865039 -3.211797 
18.013214 9.014482 -1.631923 
-17.237957 16.069475 12.498060 
24.112421 -8.538671 7.269603 
-22.715475 20.096487 7.601476 
7.618637 19.060911 -3.644019 
-11.054441 22.716318 9.548636 
-7.750844 28.056787 -2.390797 
-5.882464 29.103977 8.147354 
8.130840 25.394876 -8.989566 
-1.869806 25.217760 3.750132 
-18.104504 15.143566 0.376200 
10.643922 24.718822 1.985913 
-26.870522 0.660978 0.247736 
20.529457 -4.272300 2.316373 
-20.291954 2.767217 9.406851 
-8.367537 25.870102 6.060555 
19.547295 16.129431 2.333720 
3.100591 26.084398 9.667480 
19.151953 -0.791231 5.163319 
16.742186 0.195966 12.744115 
1.568866 28.744835 12.599357 
27.757021 -9.004783 -0.528805 
-17.870874 21.817135 3.562559 
9.897424 23.159544 1.456810 
-21.375616 10.040780 6.424322 
-30.587175 -7.461023 -0.851247 
16.967403 22.021650 3.030051 
16.817978 5.538991 -6.901510 
-21.481503 -2.728330 10.307704 
14.088711 16.381237 2.668548 
-27.623707 -3.124218 -1.421371 
28.143427 1.520579 -0.353549 
22.137083 -1.152387 4.758180 
-6.321049 27.604467 -1.539589 
22.072935 -1.575930 10.321927 
-12.734406 28.336790 8.703522 
-22.117727 0.941726 -0.567369 
14.506699 14.467417 8.219928 
19.711617 20.994465 15.745548 
-26.069267 -0.779967 6.714488 
-11.932720 20.125938 2.731648 
-8.209126 26.689394 -7.417784 
18.203100 23.072620 11.161329 
-17.736940 22.292440 1.107739 
-12.295749 19.399548 3.524948 
3.350509 30.702843 12.990037 
-7.848190 22.802183 2.849169 
14.813530 9.378576 11.593585 
18.100451 24.087671 12.925060 
-19.371105 16.195189 6.470596 
-19.336184 17.472178 0.412464 
28.865875 3.701004 -1.223771 
15.276412 25.989908 13.906555 
23.237823 14.690347 -3.774880 
7.564703 25.746626 10.901162 
16.663424 10.827646 -0.130782 
22.260715 9.998226 4.246571 
26.525183 -3.749383 7.641891 
26.310541 8.256119 7.698752 
-7.054310 26.007006 -0.036208 
-16.525034 8.961165 12.990604 
-25.878588 2.163122 2.054732 
0.442313 22.630629 0.542531 
10.580924 21.257120 -3.469239 
12.025822 25.160908 -5.760412 
-17.332230 20.762030 -6.511461 
28.791706 -4.570177 13.815612 
-7.981547 31.725895 7.521849 
-15.456294 14.683350 0.141872 
6.766527 26.338039 -7.259333 
-31.385477 -4.572634 15.296329 
29.117943 1.082970 -5.111013 
-5.181275 20.943138 -1.967239 
-18.520819 8.181152 8.408007 
18.603037 21.109343 -2.640062 
21.855259 8.901496 -1.590247 
-12.478593 23.169317 6.629531 
6.964750 19.441135 -4.130685 
23.822418 12.503874 -0.091002 
-27.946415 6.112432 -1.872911 
-6.250286 22.373652 -2.218558 
-26.390747 -3.812158 -1.808987 
21.801882 -8.008402 6.727666 
28.639463 0.437826 13.863889 
-8.674305 26.945927 3.422478 
17.666857 14.872593 1.428703 
22.622704 1.061888 4.818356 
26.801277 6.202513 5.727293 
20.378683 -6.428328 4.882242 
5.237772 27.741116 6.866582 
-12.234015 14.953530 -2.075649 
7.825554 28.888628 7.791243 
-21.396404 20.402443 13.908709 
12.199148 19.749748 10.237107 
-28.285355 -8.226719 2.972539 
-29.060705 2.979877 -4.932298 
14.595812 20.195097 -1.107166 
25.079969 0.142867 4.887096 
18.584688 6.440555 4.570092 
10.068317 29.546190 8.930246 
20.740763 1.791299 1.421122 
-13.759041 19.777269 3.653882 
-30.092337 -3.426860 6.962220 
14.442789 24.745106 12.050675 
7.235660 27.431633 8.747218 
20.738684 3.667398 -3.583530 
17.262871 12.795051 -1.274688 
-26.786190 3.177368 1.796888 
-8.632991 29.273121 5.145590 
-17.952593 22.492388 8.861250 
7.548362 27.351229 4.241022 
-3.952516 24.913597 10.163339 
-22.659883 -8.566231 3.613565 
24.830517 -11.639149 2.765802 
8.291584 29.915514 6.560966 
-17.976770 9.153046 -0.696850 
27.461725 6.453737 -4.831481 
-21.775230 4.762353 4.213228 
-21.653755 21.085865 4.713008 
19.364784 -3.428721 1.584432 
-8.570215 27.310364 5.452699 
-16.791979 10.704588 -0.929144 
-11.999350 22.913958 8.833111 
22.903833 1.766432 -3.393175 
16.421955 9.473473 4.669957 
0.895960 25.253618 3.238130 
3.814431 23.346058 11.757304 
6.749360 25.353575 0.701629 
-24.729914 -1.451141 -1.726551 
30.719488 -9.611081 -0.127451 
-27.112055 1.116231 9.050534 
-20.439081 -3.683756 1.804019 
14.848067 15.100809 9.834505 
26.558708 1.586990 1.098025 
-7.772763 24.580944 10.874459 
26.357187 -12.035192 11.824304 
-1.968520 27.926523 -4.541165 
-15.578932 16.623144 3.463760 
2.951144 23.020746 -1.387967 
-19.898544 -2.613303 9.752665 
20.611069 13.922962 -3.737133 
-25.769829 11.833652 10.112338 
-22.762657 -7.915219 9.830125 
20.225515 -7.888977 4.262246 
9.839594 26.411943 1.493067 
22.838531 14.362283 -0.259401 
13.414490 16.171867 8.547367 
2.979803 22.679085 15.797869 
-24.591070 -6.479541 5.641753 
-26.916309 -1.769367 4.999786 
-11.401478 28.012735 4.970970 
30.463146 -3.858099 -0.520153 
14.331096 16.555826 6.093234 
20.015457 7.635734 4.890612 
21.643997 -8.057747 -0.515382 
-8.295922 20.167776 0.799730 
5.966581 21.996872 0.034465 
18.565189 -7.354351 11.414059 
-15.022676 8.710388 -7.142074 
4.694894 25.951490 -9.038357 
-26.880064 -10.118449 8.575105 
11.460443 24.164200 8.629768 
26.974787 -11.576286 4.752761 
16.559250 16.539150 3.532263 
21.459469 15.727788 3.027567 
27.832760 -10.772201 15.106456 
17.565250 -2.688914 11.797223 
19.769264 -4.115613 2.208047 
-0.862271 29.067799 6.584270 
19.408680 -6.725406 8.536718 
3.222644 23.378855 0.637429 
-7.260598 21.911198 1.704230 
-21.641306 -5.196597 -1.588288 
6.712893 29.363213 14.887615 
14.836370 15.199800 -1.084211 
8.384036 23.459419 -0.283649 
13.931094 22.714911 -3.043020 
28.704758 0.458615 14.596224 
5.961722 26.958347 3.764437 
26.307674 8.098554 5.248966 
4.067540 21.686434 -0.756463 
-13.572865 21.740953 7.661335 
6.395487 30.099068 12.443222 
-1.559119 22.562647 0.057327 
24.468718 8.022988 -1.605442 
18.976223 8.618987 2.726246 
10.157739 29.192112 2.959291 
-17.819830 20.253859 -6.225955 
26.568613 -0.667638 1.620706 
7.438564 29.483124 9.575651 
19.008959 8.400146 0.191193 
0.364290 27.224001 9.196513 
26.099268 0.200086 2.031996 
14.467110 11.010338 11.503825 
6.647720 28.257902 11.118429 
-18.386288 16.474560 -0.163964 
-2.085913 24.519869 -2.372124 
8.892637 26.428589 12.527138 
19.496941 1.497953 -2.928966 
-10.976231 26.499050 0.545942 
19.843039 15.826503 1.470963 
15.355053 23.181976 -2.331223 
-1.966899 25.229288 -2.538418 
12.362869 28.625307 4.897007 
-19.617523 10.866488 4.983103 
27.429510 6.982470 -3.153289 
-21.879255 -7.104558 9.180072 
-31.373501 -3.473619 -0.392327 
10.063607 17.955488 -1.702043 
7.688926 27.246525 5.640049 
25.663641 1.219333 4.747027 
22.457045 14.475853 -7.870458 
-20.754656 11.846152 4.353254 
-9.725718 27.615314 13.834176 
-21.208561 5.306128 4.022545 
-22.256586 14.102621 -0.492072 
-28.283047 3.833143 -0.656660 
15.783075 22.554508 -7.252165 
-20.271475 17.197733 -5.193712 
-22.552736 10.252206 -2.560542 
-18.546137 20.066292 -4.004047 
13.542097 24.662622 -3.691451 
7.469673 24.822493 9.501439 
28.463161 1.524479 14.580393 
27.092733 -1.466860 5.716043 
-27.642994 -6.541461 7.422318 
19.601187 12.097721 3.511633 
-27.291338 -9.061543 2.425298 
-27.164148 8.437524 15.549541 
-6.387072 26.480989 -2.000819 
-17.450010 22.486696 3.083316 
-15.832402 11.365433 12.494855 
18.212967 14.945626 -0.453527 
26.774244 0.765170 9.599203 
15.221049 7.737472 10.867412 
-13.081130 18.958956 -4.332414 
14.685452 21.579758 2.303940 
-11.443160 21.532858 4.093385 
-21.244781 -2.344713 7.981341 
15.285700 25.930269 9.806310 
12.591780 27.100779 10.353168 
16.919338 12.180976 -1.014921 
-16.770403 10.611435 7.311420 
29.931366 -7.270548 -5.577370 
-21.686934 16.942192 6.307135 
-5.860577 25.505901 11.063818 
-11.987784 29.260277 9.894020 
2.287529 29.272007 13.248572 
18.618128 -2.238767 -2.728985 
20.813253 -9.928241 -3.749240 
-7.196088 24.216593 -3.584601 
-24.818602 -4.382648 -2.003754 
-27.064215 1.225666 7.160250 
13.321650 24.061193 -0.551951 
22.733448 17.138935 6.628032 
-23.849609 3.653534 12.641301 
-17.541285 2.082641 -0.087372 
2.693288 31.402193 2.585232 
20.450821 20.521282 14.600858 
21.018394 -11.171959 13.894980 
-27.511656 -7.006724 -0.777552 
22.928986 -6.902008 6.090348 
10.631096 26.106831 -0.940530 
16.488976 11.920114 7.326618 
-16.090546 28.065804 8.728744 
-16.040838 23.338175 11.042990 
2.535999 28.133226 2.535490 
-18.102718 7.727622 0.344190 
-15.339717 17.994816 11.050560 
-17.824690 22.302362 7.149245 
-11.780608 20.316063 0.675824 
19.739304 15.904737 -2.997983 
-7.412378 28.999138 6.005156 
-19.689123 17.335028 12.992726 
6.533802 29.926477 8.884089 
-20.798807 10.285988 5.519888 
-15.757950 22.284838 -2.799891 
-22.125336 10.973776 7.872304 
19.138391 -6.319037 -1.506732 
-26.634468 6.041121 5.227325 
-21.611105 -1.650630 8.476913 
-6.614616 28.349985 -3.312634 
18.850235 13.509330 7.781552 
-2.489120 27.928272 3.087080 
-9.555214 21.426224 13.130903 
27.980227 -2.043195 4.560974 
-14.231593 28.683886 4.710478 
-21.358807 4.202688 12.476869 
-23.823427 2.450362 12.337746 
19.431694 11.404986 3.091057 
25.449373 2.350354 -3.061362 
21.271759 -5.625832 5.474982 
27.867336 -5.581306 -0.972510 
-17.328257 19.007563 -0.348473 
14.389623 20.925037 -0.159761 
-22.048447 6.651532 5.034693 
19.148422 -5.995757 0.302831 
-13.660207 16.657789 0.358734 
21.621693 -5.892345 -0.573660 
18.147131 15.322820 2.849422 
26.615463 8.215608 -4.560402 
20.939762 -11.229474 12.804616 
-1.735820 30.608004 2.716757 
24.511976 11.159474 14.265354 
20.423706 -9.890635 -1.200872 
17.755157 9.517594 -2.553796 
18.793385 17.439732 4.591620 
7.413897 26.136992 6.852699 
5.380448 24.945900 9.097572 
-3.932335 29.713068 3.900968 
-11.819083 20.197908 -2.170727 
-22.544041 2.040640 4.313309 
22.052832 15.395815 6.064612 
-10.578400 30.507925 8.423736 
22.851604 14.502345 9.812153 
22.153521 -9.036976 6.728447 
21.762672 -2.615932 8.181909 
-16.196497 16.610460 12.470088 
-18.206728 13.353016 8.202589 
-26.087296 -0.019256 6.562659 
-7.821067 25.216658 9.569215 
-19.003740 10.890286 8.833961 
-0.044310 24.701097 -3.180230 
-22.116968 9.817451 10.107624 
29.285416 -4.984560 11.974767 
28.474327 -2.924552 5.904304 
22.206648 6.673934 -3.502603 
29.888599 -2.096983 -3.203854 
-19.630138 -2.987563 -5.882231 
25.325232 9.343454 11.971279 
26.230858 -2.087387 7.356400 
-16.558615 12.813040 4.212765 
-16.816988 8.163306 14.080123 
12.784778 18.281076 -2.052939 
26.258801 6.758086 4.710570 
1.710133 29.590794 10.689607 
-18.972490 23.868811 11.971437 
-16.785583 12.983661 7.463715 
-3.310289 26.024048 3.682603 
14.526224 23.319212 -7.539882 
5.543857 30.427490 3.152475 
-25.822435 12.466442 10.899994 
-23.077698 11.116923 5.702254 
23.200514 -4.017480 13.710581 
26.325026 -9.602846 -0.796044 
20.962902 -3.935974 6.747745 
-2.176807 26.112444 8.844631 
21.134426 -11.055194 15.108416 
-1.001399 28.210064 -2.435403 
-14.521586 22.951771 3.887209 
-20.637684 15.289291 7.627341 
24.374731 7.438880 -3.076406 
-22.498037 11.986983 3.550139 
-0.138308 27.781120 3.996065 
14.613629 22.320400 4.297019 
-11.923021 23.147873 -0.109997 
24.824389 5.221918 4.834654 
-24.168392 8.328134 12.448784 
14.642586 20.054884 3.189838 
-31.016802 -5.049422 -5.627899 
-20.248396 11.282452 1.181544 
-3.141638 27.428787 -0.465296 
-8.912226 20.696234 -3.602490 
19.326315 -4.376121 10.152247 
-8.830915 30.013718 12.984544 
25.088583 0.496556 9.999422 
-30.674006 -2.902281 6.759522 
21.661085 6.117732 4.267296 
14.793164 17.946726 7.389996 
-22.815699 17.363693 7.317178 
16.479500 21.239788 9.207693 
-22.877884 -0.803011 10.637284 
14.027775 26.293943 7.757678 
19.138754 19.052647 10.279755 
-21.639990 -6.416174 7.832929 
27.701437 -10.978306 13.958869 
-25.331715 7.509829 5.292767 
21.618893 19.460503 12.222961 
-11.778732 27.745667 12.797260 
-17.961597 6.313962 -3.155524 
18.498762 0.027658 0.854685 
25.448141 8.034372 10.334148 
-24.211655 -6.813734 7.787248 
26.392893 -11.997975 4.289735 
17.660034 12.441492 6.910542 
-22.571178 1.313844 4.469761 
-21.683031 -5.098849 4.702370 
14.738965 15.118992 7.823769 
25.743702 2.112414 12.988960 
-23.455256 -1.947201 11.547793 
15.913054 25.537693 14.090118 
9.974010 27.262665 4.557789 
-12.368664 24.792883 8.722445 
-9.507552 28.193752 6.362398 
-21.688541 -3.613247 4.688810 
19.820782 14.035918 5.982269 
-24.599491 -7.404439 -1.287183 
-19.988329 -0.989047 0.387974 
-29.597618 0.575096 -6.231218 
-17.670689 5.017295 6.391509 
15.814736 6.151185 14.036334 
29.736845 -2.304291 -4.561371 
10.424945 23.976442 1.960088 
-27.153086 9.910217 6.057344 
22.077581 2.882844 -3.621677 
9.968914 21.686703 5.323478 
22.906271 3.957789 10.800651 
22.880615 13.833766 -7.803371 
-16.142532 21.730097 -7.309797 
-31.085062 -6.710955 9.078235 
-24.127270 -2.699518 -1.960621 
21.498484 -10.428643 11.586419 
-11.096034 30.221994 8.966022 
3.650815 31.883173 4.941259 
-19.312311 -1.956748 -5.992978 
21.084261 20.083941 12.743317 
-27.591925 8.560689 5.844491 
-29.746023 -0.927724 2.523318 
27.980598 3.728313 4.805738 
-3.629013 26.728008 6.806844 
20.847218 3.058227 10.394911 
-27.655394 -8.113177 7.447032 
22.939331 14.940778 -1.899674 
15.175436 18.223238 -3.620438 
29.825373 -8.784187 5.270524 
-7.163051 28.064020 -3.806842 
24.209518 -5.723132 2.296471 
-30.137735 1.447890 12.465631 
-15.772218 26.849707 3.252028 
18.153753 -0.826882 7.641216 
10.783283 28.203032 12.284195 
20.852600 14.436189 6.243697 
22.576502 16.138992 7.638384 
16.022076 5.356614 14.048994 
-19.751974 2.899835 4.315464 
17.416199 5.346136 -0.362879 
-17.030130 13.851266 6.658877 
-16.898273 11.734933 4.312598 
-17.867390 10.663034 2.119456 
-21.067039 19.189066 12.802075 
-18.792828 17.639610 2.643777 
-18.321449 10.192214 10.584752 
-12.612239 27.384468 5.955752 
21.662701 17.119160 -4.219566 
-17.311371 2.672459 2.925106 
14.612374 11.686938 10.169693 
-26.545147 4.709072 -1.848066 
-26.226944 -4.270350 6.429204 
-10.062792 21.393557 3.175574 
-9.606901 24.445129 5.817198 
-13.165153 23.949100 -0.101289 
30.390985 -4.224002 -2.231550 
21.179653 1.084356 4.077392 
21.218330 9.761882 0.609755 
-26.590223 3.434551 0.535779 
-6.344199 26.246008 0.127177 
-18.472845 15.602216 -1.746308 
3.241302 23.341364 -2.900089 
-11.831035 25.725142 0.879348 
-17.603888 3.214916 11.598586 
19.587421 -1.863231 1.983566 
8.684535 24.822870 4.672078 
-27.050684 5.124217 2.960135 
17.657740 -3.626464 12.744193 
-23.881786 -4.261436 12.155327 
17.954388 11.020443 3.559975 
-28.064795 -8.656322 1.184840 
12.133880 25.003330 9.114098 
-15.748646 13.993705 0.983700 
-6.322701 28.952705 1.237270 
-16.027311 20.816065 11.174957 
-31.089314 -6.909453 14.057616 
2.638550 24.077690 10.519802 
11.582226 22.588413 8.702319 
16.489822 2.110875 13.524768 
-21.558098 4.009835 0.056238 
-15.740348 7.103354 -6.968741 
23.087282 -1.160301 10.484549 
-19.913969 7.293327 11.981822 
9.434138 22.367228 0.429112 
12.470675 15.035460 -3.018161 
20.575569 20.610682 4.388212 
22.914959 -9.838080 8.404957 
-17.259033 17.382788 4.734590 
22.231186 -3.288069 2.731444 
12.619719 18.044973 -0.389867 
-22.524414 6.473582 12.711421 
-28.293659 5.152511 -3.003826 
-21.033657 18.782650 9.139184 
24.372641 -3.192856 13.822431 
-28.811300 0.022251 3.121917 
18.354010 6.051558 3.915528 
-26.786816 8.442845 -3.524801 
-23.388361 16.454779 14.271312 
-9.898673 25.591146 -3.751232 
-15.376118 24.049475 11.702799 
-15.327997 18.440729 -4.448370 
27.781878 -10.301043 -0.004652 
-23.223013 15.135769 9.377281 
-3.403284 30.825005 14.309644 
-17.430037 25.776730 12.871700 
-1.940760 28.244587 0.448197 
2.308305 26.323061 -1.392157 
22.320072 9.325361 7.358832 
26.879435 3.941371 5.229133 
-10.469991 15.781934 -6.441975 
-15.543211 20.513741 11.975113 
-28.796459 -9.552269 1.987941 
-17.783245 12.842786 0.411504 
-21.524467 -2.840148 -0.420255 
-13.122722 25.580082 12.342751 
27.207067 -12.685710 2.969443 
16.793823 4.808105 7.426413 
17.436998 20.237801 9.810539 
22.494633 10.301621 4.887627 
18.443628 -6.443411 15.202906 
4.408295 30.695404 2.029530 
-16.080492 12.962099 9.043662 
27.394062 -1.633314 12.237484 
24.389410 -6.721026 14.253710 
19.334888 6.283636 -1.140953 
25.891933 -9.595569 8.072109 
-1.059588 30.792479 8.411456 
22.375158 -9.296208 12.958632 
17.434597 23.473564 3.404423 
-11.319641 29.655462 10.466417 
5.503014 30.474739 11.200710 
-5.891712 28.208904 -4.564301 
17.627214 23.794777 14.968983 
-26.033400 10.528948 15.589734 
16.763597 20.625593 -0.646811 
18.056379 9.213711 -3.181201 
20.524870 2.186151 3.879861 
1.088932 27.928246 0.464880 
15.831420 16.662983 7.874788 
-24.796453 0.477725 9.592354 
-23.330084 -7.870013 7.275239 
20.284113 7.317976 -1.028524 
18.739212 16.051254 0.011357 
6.281011 22.313627 12.421072 
-28.395937 5.094975 5.935147 
17.261976 4.089074 -1.290758 
-13.861159 21.187912 -4.287602 
-9.810879 30.773624 8.311627 
-21.021875 -3.151400 0.463398 
-31.078413 -2.568502 8.124154 
-12.303230 25.927328 9.436767 
5.572035 23.232079 -0.962689 
-17.353874 19.204681 8.629590 
2.063610 31.146494 8.049149 
24.749372 -3.778105 14.071319 
22.252396 -2.785425 12.902897 
-16.165060 5.568247 -5.303240 
-24.076519 -8.599401 5.296302 
24.542479 11.499290 -1.676489 
24.846930 11.170808 -6.340371 
-21.720722 21.294483 5.520274 
18.028215 6.692464 7.047289 
8.347335 24.797577 8.155290 
15.730204 8.882987 -3.846071 
15.312743 21.877401 4.384181 
3.232093 26.808029 -2.466508 
23.884619 5.644093 12.889282 
23.232153 14.622018 11.712668 
-9.959265 22.203012 11.155172 
15.489743 6.941757 12.979881 
11.585092 27.919903 11.964366 
1.861673 25.138626 9.245493 
-19.732050 -0.493545 15.364042 
-21.537407 -1.678388 1.003622 
-26.374559 10.228608 7.878477 
-14.976918 12.059722 4.322093 
21.007532 8.130033 10.424823 
6.187639 24.868610 -1.089963 
-18.944094 22.651957 8.906879 
-18.453367 10.871203 12.114959 
23.254162 3.817187 -3.684214 
9.191127 22.029764 4.430089 
19.122570 -3.669208 0.859454 
-8.646545 30.388643 4.074835 
1.302051 31.231234 4.893139 
23.277397 -1.455328 3.730261 
-28.591148 -9.486388 13.583332 
-8.435150 26.865107 10.637009 
16.224442 18.576300 -4.372316 
-23.773132 3.054995 4.961039 
-28.545563 2.095570 0.313693 
27.664337 4.132497 6.269563 
-14.460830 19.710108 -4.695883 
-25.611603 9.879230 -4.854018 
-29.839111 -8.373478 -1.960287 
-31.380232 -3.541950 -1.202198 
0.669577 26.610571 -1.598862 
23.224863 0.031780 -2.772351 
-27.477345 8.661546 7.371712 
1.277030 28.938971 11.924422 
14.226832 13.880186 -1.441815 
26.698061 6.169062 -2.576464 
24.898642 9.197231 2.861552 
-21.879570 5.581587 4.532994 
20.697605 17.317659 10.324281 
11.801342 24.917086 5.779226 
20.910629 1.158460 -3.118870 
24.507067 -10.739655 -0.628404 
-23.117748 -9.050345 11.394839 
-20.966276 1.488729 8.936460 
0.398175 23.401241 0.215590 
-10.977418 22.668285 4.756678 
29.072958 2.340470 -0.361477 
-19.790621 10.189174 -2.185538 
-17.861294 5.834432 5.656044 
-11.349898 27.780972 11.635293 
-24.783867 2.048590 4.943977 
-19.587566 -2.406808 -1.215107 
-12.458905 29.023550 4.999677 
20.565140 20.687288 13.530726 
20.203209 -6.538702 3.659623 
19.819416 -8.658048 9.787313 
19.814487 2.744775 3.767595 
-18.572416 1.226028 13.193288 
27.602406 -1.746333 7.357521 
-19.122913 21.664923 9.331512 
-8.096576 27.257162 13.375586 
-23.893219 -4.474473 4.446819 
-19.739485 -4.023282 -4.518438 
-24.167950 -9.283477 2.756054 
5.932614 27.735237 -2.992970 
3.417971 30.434147 13.972687 
11.622014 25.148214 0.313105 
-11.709683 24.662628 8.374264 
-27.765526 6.190048 -4.450688 
-26.617945 3.929610 3.652786 
20.420885 -5.667541 4.871660 
-21.512505 -7.977677 3.070334 
5.176670 24.812939 2.036547 
-28.252808 5.154033 -4.088075 
18.187643 21.226772 -4.733479 
8.768072 17.619804 -5.409779 
-29.264555 -3.917678 7.137178 
-12.303253 24.440004 -0.166400 
29.981512 -8.861622 0.625491 
24.214128 9.893270 0.610206 
14.431409 10.850801 15.550373 
26.908104 6.618974 10.437914 
6.257854 30.645588 8.612211 
13.325580 23.580235 1.882346 
7.143764 29.713480 4.960311 
21.632587 9.337424 7.781569 
21.065119 -11.183393 0.393967 
11.028302 22.465866 -0.108492 
16.217398 7.160894 -5.541723 
26.162989 -3.846077 -1.307191 
-12.409816 17.804865 -3.717533 
-14.623428 18.151396 6.819107 
-26.151789 1.235988 5.635326 
-16.736935 4.655101 -6.704971 
9.355127 29.872736 7.335620 
1.965463 21.279343 -3.402577 
-8.653359 26.559122 0.038938 
-23.338505 7.206342 12.681070 
12.185559 14.319479 -7.822458 
-8.697907 25.523478 10.121683 
26.465029 -2.726190 11.535937 
-28.540642 -7.604137 0.036655 
-5.056153 26.459257 -0.567653 
-25.155222 13.314355 5.333426 
-27.375727 1.902273 6.539477 
0.770517 28.010614 -3.289877 
-21.765209 -6.202723 7.147640 
-5.579380 25.883354 9.957088 
-16.360224 6.537258 4.387384 
-16.412863 4.543595 1.917754 
-8.201090 22.917816 11.782572 
-13.886206 15.780002 14.391433 
-3.957530 27.084217 -3.611624 
-2.229974 28.076542 5.987447 
-20.223419 16.262400 8.143333 
-2.594441 31.100353 2.346912 
-11.396330 19.791483 12.584700 
-21.654566 11.305700 -0.816581 
-27.714951 7.745866 14.718695 
23.824816 -1.055848 -2.155590 
25.407059 -7.863487 7.480963 
19.237085 16.360273 3.371192 
-2.019803 23.722977 -2.198607 
-14.800032 23.775219 3.831749 
-28.412802 6.536504 11.109823 
-1.098047 20.726431 -5.138872 
17.841255 -0.012244 11.192232 
-21.430416 13.928449 -1.388667 
-17.728315 0.984910 -2.177134 
-26.218952 -2.332207 0.959636 
-25.638977 -10.332754 10.915840 
-27.505224 -4.006322 12.931614 
-18.660992 18.828541 -0.330503 
19.755144 4.960938 -3.419796 
28.627270 -9.434149 11.323595 
-26.681353 -2.572187 12.754782 
1.227679 31.039330 3.313557 
-13.244662 24.805771 -4.113015 
-12.606771 22.283506 8.206979 
-9.126991 28.419010 13.481406 
-25.156858 -8.917868 -0.417630 
22.061127 8.689992 7.765745 
-17.219425 23.629704 3.870237 
17.804115 6.379501 8.763873 
17.910997 15.265527 3.551644 
23.927662 -6.011605 14.173759 
17.345612 10.501584 5.344779 
17.492516 6.892055 7.656020 
-30.214018 1.326509 14.350293 
-17.525633 9.781746 2.904819 
-18.457617 20.747732 2.330552 
-16.032686 18.793179 -4.394117 
4.893596 24.617060 10.626604 
15.638681 8.633386 -5.948627 
-18.747993 -0.792838 -2.291159 
-17.135502 20.321276 -3.768381 
-20.001600 6.329948 12.138189 
29.356783 1.278685 -2.794196 
12.687647 25.942644 4.384377 
24.787264 2.942387 5.148057 
-11.484429 22.482006 0.257282 
-22.192982 -8.110665 -3.284904 
0.481487 27.944517 5.805117 
-29.095272 -1.362043 -0.448957 
-15.142675 23.204102 -5.892214 
-17.819698 9.595220 7.416853 
-18.481070 0.759404 9.791364 
27.545517 6.055858 2.084004 
-25.412401 1.403322 5.418645 
10.976967 24.996407 4.312267 
-18.924725 15.732491 9.224310 
1.233891 26.909605 11.841718 
-21.260593 -5.359739 15.269277 
-17.061394 4.563384 -0.371236 
5.589216 26.542952 5.158218 
-27.721085 6.153503 11.479663 
-11.920536 23.905651 -2.165891 
13.403296 20.022572 7.194271 
26.405014 -1.915356 13.591872 
-24.384794 -8.673938 -0.651555 
-13.305124 13.536039 -0.907075 
17.543711 12.770658 8.039611 
16.131947 19.771059 7.487925 
-27.951193 -3.315440 12.882432 
-13.864750 25.889158 12.781155 
24.038754 11.931273 11.389160 
25.404594 9.052011 15.502302 
0.918349 25.384031 4.326021 
18.413649 6.017051 0.812481 
-16.470348 15.907239 12.194233 
11.817825 24.248526 1.409100 
22.885027 -12.157943 -5.035377 
1.158835 27.485098 -5.583209 
-23.124950 6.096726 -3.379332 
2.259840 24.833340 -3.189284 
-27.957039 -1.441196 -1.025965 
13.034076 16.625151 0.369661 
-20.092678 -3.528454 9.310950 
19.988728 0.297987 4.627376 
-4.495350 26.587877 3.480950 
14.492092 20.519665 0.609759 
-14.176899 24.349598 5.465684 
-22.959539 9.512202 5.882285 
-7.232471 22.230145 14.727915 
26.821728 -11.191570 6.988563 
26.405804 -2.527673 2.392253 
-8.692656 24.351509 -1.007251 
-21.149542 21.430981 12.214977 
17.037794 24.224712 3.410493 
28.304203 -3.179514 0.122396 
-9.911274 26.641193 7.106606 
-23.901711 13.777094 11.104094 
9.254245 27.009598 5.612163 
25.370899 3.218394 4.572542 
19.293507 16.821499 4.475736 
-8.253080 19.205059 -0.483345 
-19.846605 2.589522 11.671836 
8.858870 27.940916 3.819371 
-14.875974 20.596897 9.274220 
21.706947 13.248565 5.858674 
-23.618773 -3.554704 -2.001536 
23.176430 14.807615 -3.045473 
-21.102049 21.252275 12.979782 
14.854072 20.528648 2.081527 
-17.386574 5.438241 8.505082 
-19.491404 1.594015 -1.416616 
10.518059 26.016434 3.023407 
-31.234192 -6.004314 9.495088 
18.460506 10.204818 3.366625 
18.663601 13.309783 0.094699 
-6.453794 27.491848 -6.363499 
-3.185699 24.644297 10.874177 
4.012904 24.526182 10.847665 
-30.943350 -3.969683 -5.743110 
-26.174911 0.430270 1.613049 
10.883518 18.260029 -3.004626 
29.504293 -5.041493 15.218202 
15.861485 13.683208 7.246723 
-2.026544 28.329653 5.197695 
28.590136 -2.195523 7.349916 
-0.498586 26.620329 -0.503318 
-26.680138 1.294744 3.651897 
25.955196 -3.050597 14.010346 
18.461588 6.028140 8.848120 
-21.105055 -7.458385 3.684812 
9.192198 22.213541 9.548823 
-6.548263 25.140663 -0.989041 
28.864677 -4.853847 7.424903 
-22.018480 19.231213 9.824319 
17.133406 15.997211 -4.307678 
