-1.205328 23.619448 -0.006323 
24.603296 -15.244154 -7.369333 
-19.309217 6.112409 1.361429 
20.245129 -13.587155 1.644371 
21.041733 11.708688 7.947808 
-24.325375 -4.076037 2.764292 
11.486274 28.360277 17.545002 
18.019157 6.065847 1.895867 
-17.279818 0.168869 11.751868 
25.768162 10.387212 10.416922 
-6.336804 32.874020 8.932385 
13.498228 27.896017 11.879705 
23.896355 12.465622 18.967373 
18.421528 -2.974571 10.557694 
20.385551 -12.451952 3.440305 
-9.571548 22.179543 4.938574 
-26.825222 -2.365806 -1.457980 
-7.255606 28.183861 21.849195 
13.744628 17.552666 13.124214 
-4.178264 29.454704 21.319611 
26.723579 1.635208 12.263196 
-12.893621 18.050520 13.025636 
-14.617441 19.769232 4.670552 
12.122670 17.053774 14.295994 
6.259467 23.987923 3.610015 
28.821392 -4.539483 9.454657 
-11.688200 17.770678 14.939910 
-26.164541 -12.708435 1.797470 
-5.012639 33.176941 12.636511 
15.415136 10.898795 11.948282 
22.221371 15.394149 19.479095 
11.931681 27.189621 16.511808 
-11.969284 24.478556 -5.560433 
-2.201131 22.525263 1.766100 
-5.775817 25.052357 16.745508 
13.309563 23.891125 5.296867 
6.125438 32.025925 14.442403 
-25.799519 9.917768 9.272839 
8.261375 29.629898 18.449610 
-8.794691 26.500216 -3.107539 
21.124027 2.315951 5.620182 
-19.140202 3.017611 4.824601 
-15.152487 13.733471 4.074689 
17.391403 25.087557 9.302956 
19.283827 -3.584748 0.714087 
13.515016 19.718569 3.370610 
0.409005 21.617899 20.678017 
-27.778585 -11.748521 4.631846 
-16.059008 12.763650 10.348676 
-23.230844 15.592522 8.392768 
-14.657184 -0.097191 -3.715098 
-0.389059 24.896915 3.557230 
-20.500126 12.672277 -7.439204 
-3.953433 25.537535 4.723401 
7.431033 27.539078 -3.970136 
-13.515642 17.672626 13.189353 
17.174814 -0.663103 13.648858 
-24.649355 0.980190 3.928946 
-18.783689 20.145056 17.748812 
-9.455413 29.598593 10.862327 
-20.724140 -5.026088 2.040590 
-15.878220 4.694383 15.636032 
-11.004750 23.082428 -1.543490 
3.037467 31.878733 9.330695 
-15.444477 26.985767 10.109533 
22.894196 -9.840419 6.352397 
9.112561 28.618935 10.860862 
-22.239365 -3.616970 3.825224 
-12.583981 23.171059 13.312810 
23.918882 1.352204 11.755704 
-15.286997 2.478660 5.116114 
-3.274211 28.280752 7.535128 
-19.649214 -0.234637 0.147315 
3.416488 29.726864 5.665358 
6.009951 32.511753 13.558247 
26.204296 5.086527 7.903066 
-2.956134 27.591339 7.331580 
-27.629765 0.088193 12.564667 
-20.144312 -2.673298 1.835413 
13.984573 6.985461 -9.502232 
-28.447124 -1.493851 8.820889 
-13.757479 28.666508 14.376970 
-20.079094 20.383175 12.618270 
-25.362286 4.277545 -1.808647 
-18.733458 4.488486 5.127237 
-27.575396 -9.949194 5.023253 
-20.525097 0.857228 13.913821 
-8.547908 32.120247 13.501621 
1.206024 28.332727 -4.495831 
16.032227 9.591233 -2.374936 
29.096375 -7.020421 4.929368 
26.490969 7.911000 16.409887 
-25.080011 11.071311 13.176393 
9.006224 19.100559 -0.576602 
-19.151043 -11.948526 0.775642 
-5.500584 23.585789 -1.319642 
8.328205 26.814745 -5.078718 
-22.298012 10.206676 12.878411 
-15.995756 1.537521 4.518274 
-7.538434 28.327532 11.739792 
1.938895 26.688154 0.278410 
-17.133139 19.724201 17.554880 
22.907444 4.203618 14.756186 
22.439951 -4.371730 3.791079 
-8.876111 27.688272 12.156754 
-12.724224 29.827492 12.157075 
-25.850075 9.664461 13.635301 
3.657346 22.578712 3.206131 
17.108437 1.186946 5.962521 
-9.325107 26.438684 5.604073 
2.695539 25.111313 -0.908726 
9.741662 16.130638 -2.008125 
-17.078402 8.100976 1.285971 
-24.031616 -7.009062 6.930317 
-17.495417 5.292348 -1.773926 
-27.739750 -4.419858 -4.732798 
-16.603876 17.726425 -10.980022 
21.264591 1.166739 8.006474 
25.971695 5.920363 13.018487 
-17.632095 7.409226 0.427503 
-25.011154 3.503978 14.815006 
28.454193 -5.892334 8.790070 
21.083925 -2.991087 6.707405 
14.982831 5.338087 -0.389427 
27.637272 -6.130449 13.818500 
-14.406796 12.305969 4.404480 
0.488285 30.341904 18.356138 
26.698509 6.379555 17.908052 
26.411884 -5.111720 14.562658 
13.566572 22.220861 -10.843543 
25.729969 -0.779074 -0.031696 
-15.832176 6.270268 2.210329 
9.292665 18.583885 0.305678 
20.376055 -0.623693 9.179820 
-28.270670 -6.208982 7.929979 
-13.619315 18.372923 1.827756 
-13.422357 29.104568 13.145436 
-13.918444 9.293421 4.963564 
4.854578 28.626867 -1.386031 
-3.223029 23.034842 3.782129 
-23.956512 5.397014 1.476249 
-23.021484 8.026221 -1.441797 
8.176693 25.679155 -9.441541 
-15.634302 20.931204 -6.247526 
-1.505766 28.405783 7.671077 
-26.983604 5.243224 9.607488 
-7.717143 26.909008 2.359548 
23.656862 -8.326261 13.332546 
-23.092146 -2.205241 13.425805 
-12.576775 28.111591 17.526308 
23.582254 1.474860 10.201083 
-15.921423 4.092836 14.910263 
10.030547 27.851196 16.624235 
8.922673 16.022572 -6.424222 
-16.229065 16.963459 12.717824 
10.733865 21.901796 13.225755 
21.377542 2.977335 -1.412858 
24.722536 2.265195 8.346749 
-7.848205 25.433825 -0.540048 
-3.834867 24.636593 15.782163 
26.803375 7.392942 12.840310 
8.290950 28.186649 4.468889 
-16.406614 24.469124 19.354622 
22.857710 -7.403590 0.103452 
-24.395008 14.159523 16.202002 
18.879715 19.291504 12.157866 
16.071106 2.936369 14.780350 
-8.215746 16.735680 -0.080202 
0.100786 33.539597 12.114182 
-10.357377 30.299850 10.316992 
-20.500212 0.463543 5.784783 
18.550814 4.969574 6.545419 
-16.011354 11.820938 10.328999 
-11.965602 22.552742 -11.321119 
-18.105871 11.906652 -3.022548 
-21.072929 -0.704302 8.254184 
-14.467922 23.456808 14.800349 
-17.604471 -8.363806 4.499104 
-20.753237 -1.682252 8.028538 
8.340164 31.105087 9.511125 
16.387230 1.933983 15.240033 
14.638476 23.472572 2.193574 
-9.295263 24.749081 1.618255 
-19.268982 -6.469291 12.528580 
-18.551115 -8.656884 10.479808 
3.000105 27.823528 -5.854396 
12.770116 20.573208 3.245573 
-15.554313 20.106146 10.320112 
23.338320 -9.342540 -0.070288 
4.729792 19.395075 -3.677800 
-20.420671 11.322549 -1.521080 
-28.188988 -1.146687 13.969979 
-26.223948 8.708847 17.408396 
23.052334 -7.356126 8.090953 
-25.600826 -13.808837 -5.183430 
-1.045668 27.467707 0.549186 
24.515617 -0.088678 6.559414 
-20.520227 10.109005 -0.242953 
-20.229591 15.041158 12.935300 
20.752764 0.324756 -1.392876 
5.938721 26.519184 -8.747943 
-7.202397 19.125542 1.479325 
21.626364 3.683845 7.535821 
8.317223 16.290419 -10.416503 
20.392931 11.361639 14.119543 
-21.199879 11.248555 12.451017 
-23.877861 0.649156 5.572968 
28.304775 -0.225483 7.370847 
-15.627273 19.820408 17.253616 
-8.827498 25.595905 14.261600 
-7.616678 21.462757 1.462529 
24.165564 4.351295 -0.633286 
-24.738697 -7.161362 -0.142771 
-11.898262 23.450338 -0.880270 
-17.523949 3.619263 8.006570 
19.338068 7.129059 6.488554 
-10.580121 21.269091 5.015383 
21.456915 17.727238 17.776688 
-0.864669 29.521732 11.973709 
7.054168 30.712721 10.685563 
23.284386 6.333010 5.612279 
-3.278060 29.056864 21.974419 
19.972689 -10.837811 4.630085 
14.054728 6.252994 -6.058203 
7.430665 27.801701 -2.653981 
-12.846497 18.246965 4.625865 
-27.490826 -6.655298 2.647638 
-18.215469 -6.898423 15.000429 
28.427374 -1.798412 7.790312 
13.627687 25.559334 15.166615 
-0.315900 32.902416 13.842858 
-2.513430 28.018917 -2.784021 
19.872553 -11.675610 -4.688255 
17.042391 -2.871423 -5.477233 
-18.988506 11.963348 5.245486 
25.763336 1.650433 11.122316 
-4.502132 29.193188 12.312605 
17.475433 20.764053 10.367190 
7.613033 28.307621 4.667539 
8.609235 20.283169 15.994862 
12.111020 17.858679 -0.721353 
16.569033 25.967318 13.268141 
-5.164349 31.401791 9.665542 
-10.900503 13.604397 -0.284240 
28.588076 -2.868831 8.549710 
16.756342 11.690445 8.810619 
15.896223 3.812284 15.806839 
-22.593281 8.774400 -1.684405 
9.767596 25.569752 0.434627 
20.407434 18.475584 9.197753 
22.624580 16.554850 14.828533 
21.459202 5.001994 7.002020 
2.037128 22.190922 2.784861 
16.505856 25.745314 8.193061 
-12.420965 22.833199 -2.598513 
1.999561 24.871166 14.999759 
16.822149 -0.352352 0.757249 
-25.783159 2.594295 -5.184515 
21.131374 5.646320 14.982447 
-6.185324 27.737276 2.023619 
19.327986 9.537898 -3.088092 
15.160881 22.393610 -5.036884 
-11.482615 9.107179 -6.641069 
-0.542263 26.350746 2.256088 
19.201878 -1.273266 10.959963 
18.295652 -4.380628 11.176851 
-2.869842 25.860365 16.319378 
-18.264032 -12.028847 3.506242 
-13.799978 3.209328 -7.587329 
-12.644513 18.553967 -1.951746 
-26.273518 2.558347 13.623719 
-2.561539 26.047266 5.324865 
22.343473 -14.745838 -3.286680 
19.745014 0.283788 5.691690 
19.163361 10.812713 8.287542 
14.865589 26.124367 15.533653 
-28.063190 -0.952072 13.200643 
-16.475855 5.385306 10.842837 
-13.006044 6.081465 -3.155620 
8.646132 25.764221 -0.682545 
-17.563423 -4.264377 11.653530 
29.323893 -11.124137 5.369832 
-18.215946 10.601660 8.558090 
-5.151585 33.220448 9.404531 
-20.592361 -14.921706 3.579007 
-7.799879 32.780815 9.306473 
-12.847142 5.810735 -6.059350 
18.933640 -3.781775 13.002846 
-10.841660 17.321007 -0.535475 
17.178186 2.209388 6.155973 
-21.240707 -3.239705 5.576277 
-4.464819 19.723858 0.850362 
23.993660 9.004852 -4.202201 
4.733524 28.198870 -3.860369 
-17.705153 24.669176 13.917429 
-27.050680 4.480002 11.832525 
16.759338 9.000946 4.297189 
9.446315 17.544727 -0.408445 
-14.716656 10.829729 0.215282 
0.053345 28.701639 -2.760005 
24.428957 12.107214 17.652552 
-14.098996 3.544754 -1.335047 
23.777985 3.773125 -0.877344 
25.057840 7.242485 -5.158185 
-14.253809 24.136694 13.371781 
-25.373819 -0.208460 10.816678 
1.105798 28.097849 4.174643 
17.233898 8.294848 13.933406 
18.917822 -0.075172 -1.137319 
28.159269 -4.209682 3.346467 
23.334087 9.447102 -7.768619 
19.350424 -10.133027 4.222660 
21.211838 10.038894 7.807259 
11.129070 30.365044 9.401004 
22.000505 -1.582866 7.161409 
3.476704 31.212900 10.745197 
-24.761757 2.852515 -9.821013 
-6.419768 23.852564 14.938419 
-16.943106 18.255274 -8.844811 
16.696899 15.290449 14.032640 
1.198191 30.115131 11.813473 
3.681991 27.994478 0.938009 
-7.756550 20.583311 18.085598 
4.985259 31.019501 10.486141 
-18.461098 16.014641 -8.700302 
-14.538680 22.915573 13.238776 
-19.577560 1.290543 -2.749676 
15.445991 9.500681 -0.930923 
24.151609 -2.683935 4.151052 
-2.151683 20.605827 -0.819439 
-22.599951 -1.974235 -1.220509 
-17.729614 3.221406 -2.781945 
3.044784 19.717453 -5.711465 
-20.646496 20.584656 16.440887 
-25.668285 -3.109718 13.747247 
-25.850037 -0.012315 -9.589294 
-8.587276 20.739014 2.303575 
-9.516517 22.361010 -0.829043 
-25.231194 10.003435 12.329795 
11.253113 28.018114 18.842981 
-17.244114 7.032971 9.117544 
-6.180711 23.184546 -1.366122 
-11.293479 27.974770 15.453126 
23.548063 12.413538 9.328874 
-18.085491 -5.330148 2.463952 
22.278261 0.164967 7.680366 
-17.332218 5.687423 -0.851519 
-28.012939 0.822332 15.125271 
-20.435402 -6.950248 6.146966 
0.146419 20.145229 -5.385250 
10.205334 14.725132 -4.243297 
22.424498 -9.804033 9.934021 
4.940503 29.465321 18.611702 
5.256887 27.143715 2.814259 
-15.755592 -0.376989 -0.997454 
-16.075821 6.876629 13.402382 
22.701113 13.697570 8.604282 
20.829185 3.478681 5.705507 
-23.844740 11.678180 11.528963 
24.738747 -13.977215 5.320252 
6.211628 24.115866 -1.473309 
17.162077 11.229774 -2.016531 
-13.635930 25.699654 9.949240 
-22.362940 4.242862 7.826138 
-20.075485 11.546632 3.685633 
-19.732336 10.791859 12.029495 
-8.476853 23.921377 6.411710 
-18.094227 -7.625674 11.307169 
-2.513500 22.537270 18.288275 
7.785931 26.435297 -7.525543 
-19.196131 -3.472404 1.474167 
14.093364 24.682310 21.119268 
15.652802 4.685401 15.740541 
-21.474569 -7.425406 1.504672 
18.128420 21.078154 11.494597 
26.123693 6.846892 12.984198 
7.570558 27.662008 2.321934 
24.269661 0.604909 6.592808 
22.634920 -12.346334 4.042406 
8.175174 25.000813 13.170921 
-19.878904 10.534331 4.178091 
18.718338 -6.569244 0.047059 
-7.389271 27.583273 7.243138 
-2.765104 26.028461 17.060118 
22.420073 -3.062000 -0.291661 
16.349676 -1.516927 -2.544989 
-26.154791 -6.224679 5.719684 
12.292603 23.225245 -1.518992 
3.161112 20.698753 -0.372628 
19.525595 -6.709082 1.806406 
-18.639029 -3.854725 11.708768 
16.775227 7.257772 7.367897 
-27.332651 -8.711318 11.788087 
18.772940 1.370527 5.670448 
-17.063482 21.171349 8.959075 
-19.886734 -4.049102 3.745627 
-11.959010 22.397423 15.896170 
18.322531 22.941296 12.733663 
5.767441 33.316730 11.362116 
21.017332 -11.459473 0.741069 
-11.401421 25.189453 -3.425865 
-28.403017 -2.033932 13.401793 
-12.775640 6.953345 -2.480795 
-8.355508 20.686670 17.312929 
14.411777 26.864542 9.806635 
20.828247 -14.360478 2.397868 
-26.093754 -9.729777 10.065914 
-24.912344 1.437050 2.561440 
-17.757277 -3.311343 11.603982 
20.151604 -2.883689 13.706647 
-12.781033 16.649691 14.286535 
-12.204888 7.445257 -6.641553 
1.742144 24.101492 3.804899 
0.870681 22.440424 18.503445 
-0.119432 28.310558 12.689358 
-24.592098 11.703604 12.823300 
-15.020123 11.166490 13.539290 
-12.659627 29.087748 14.738987 
27.714476 2.807581 -3.984197 
-10.522121 26.528177 18.062077 
-20.670637 11.086726 2.458606 
-13.427356 29.343422 12.350992 
25.596882 -4.663957 14.723962 
-21.485382 -4.100912 5.335293 
-1.291622 31.388760 10.685661 
29.016693 -2.614990 12.861691 
-8.967048 30.677526 15.533768 
-27.830200 0.957215 13.426556 
-8.961519 31.105059 9.294118 
14.881272 11.497552 0.269365 
16.353500 -0.793227 -5.647234 
0.180179 26.031527 -11.412350 
-6.447164 20.540457 0.801400 
26.836924 -10.706648 2.253363 
-14.244233 27.207853 16.456530 
-23.535391 -1.472913 -0.346165 
-9.505978 27.580786 15.069797 
-18.549963 -3.809279 2.638429 
-1.913378 27.116364 -0.243657 
14.902832 10.815138 4.205145 
15.566123 1.963720 -1.358040 
-8.190867 14.964668 -4.454128 
-20.789841 10.791654 1.754737 
-1.639575 27.493553 6.514077 
-5.588054 23.460327 1.974128 
-23.933617 3.471228 6.837705 
-27.044947 4.025163 9.047477 
-14.736115 19.265635 0.568074 
-15.370790 23.673985 15.488468 
-13.118133 21.964872 12.608762 
-25.941359 -5.082409 7.279983 
24.028509 4.102871 6.078166 
-5.287254 27.574097 -4.395850 
5.045544 22.061783 0.807539 
-25.026804 12.206832 17.316050 
1.000605 31.916704 17.041019 
-5.062093 30.482981 18.795031 
-23.487049 15.557559 17.951712 
20.415897 -8.060961 10.391654 
14.790277 5.121628 -1.343016 
17.977972 23.560486 9.487227 
25.683310 -5.860405 4.752062 
-10.065398 25.682167 -4.953886 
-11.839750 25.818497 16.156336 
-19.323252 5.253019 6.260776 
-22.505184 -15.258471 1.565072 
-23.574020 -11.730626 12.652202 
-14.402035 19.047077 13.363893 
-22.965292 12.464492 7.852938 
-25.813587 -4.912423 1.959674 
-14.042930 22.761562 -0.164383 
-25.259819 -7.414926 13.791346 
-16.381643 7.189760 12.600015 
5.840527 29.158882 20.943035 
13.407208 27.341846 12.513169 
-14.591513 15.883155 1.306363 
24.591179 -3.288853 4.258345 
-22.157515 -10.088416 11.461327 
19.122812 21.356464 17.671539 
-24.013590 5.732449 15.112105 
-14.541245 0.506821 4.199203 
-19.050621 -2.500434 -1.624337 
-20.341061 17.002277 9.752718 
-8.406116 18.617992 0.215737 
-8.442232 20.750458 1.183336 
11.830625 25.581465 4.887475 
-27.074541 5.667672 10.881502 
18.936945 16.740101 12.401283 
21.742043 12.610038 -5.724088 
27.667324 -10.219663 4.123181 
-17.659864 15.010431 12.148451 
17.956688 -5.128392 -6.430670 
26.648640 4.873358 11.687986 
-24.007601 6.395142 -5.850286 
-20.766066 -2.862419 -0.460381 
-14.619815 22.032722 2.094752 
-18.825590 -12.261748 2.252553 
1.144741 29.346802 7.163494 
-18.807314 22.014980 20.178736 
-7.936142 26.745995 -3.545393 
-25.413866 10.142178 18.870441 
-18.766041 6.326982 6.281423 
-17.308104 8.482108 -3.138018 
16.247374 2.810512 16.384857 
-0.482886 31.449255 9.816339 
27.646759 -2.723640 2.451971 
18.942398 4.996989 -0.486516 
29.119221 -6.451099 15.696071 
-17.027004 2.470277 -2.800520 
-26.961357 -3.936929 -9.265189 
-7.747385 28.314726 15.694564 
18.077887 23.811396 13.173868 
-17.382591 7.419392 10.973015 
22.029467 11.481230 1.260148 
19.998032 -1.204749 6.204838 
14.473676 10.130905 2.601917 
28.841171 -0.269351 -2.126665 
-17.913490 17.469694 -6.881209 
5.086753 27.330027 -6.816804 
-25.071667 -5.193415 6.376068 
-25.374071 -6.427940 13.976273 
25.517324 -9.782310 0.784109 
-16.224266 25.587976 10.815448 
-18.776428 22.660854 16.778053 
8.867090 17.989250 -1.353775 
18.297949 1.800824 -1.177290 
-14.961820 -1.292430 -4.121001 
16.598577 5.681271 13.592871 
-15.027533 26.501940 15.174573 
-4.948191 19.305567 0.284268 
-20.443214 -7.034274 10.259030 
-22.912346 0.620570 -1.737398 
6.266439 27.610739 12.780973 
23.287182 -10.587110 6.851460 
-24.396391 8.489722 14.076345 
17.356516 3.174238 6.458516 
9.731678 29.400682 16.605740 
-22.163023 9.638477 8.003339 
17.389515 -4.002968 -5.099744 
8.081793 26.506765 7.002743 
9.976734 16.375690 19.721914 
27.344995 -7.977047 2.051903 
-18.664560 6.734063 14.209919 
19.799797 -7.297227 2.397902 
10.820598 24.641520 6.299464 
9.495540 23.877665 14.389069 
-27.791550 -9.921564 4.268580 
-16.487839 4.326787 5.539022 
-14.372272 18.982061 3.368550 
-23.209360 2.467244 14.783282 
26.307434 -0.193517 2.059036 
29.425858 -7.993866 5.578999 
-28.138092 -7.119549 13.193747 
-13.919331 9.020926 -0.252055 
9.353597 19.944956 15.185425 
-4.470421 24.853561 1.975380 
-18.898092 15.281669 12.967399 
-20.444695 -1.727657 9.129179 
-15.865505 25.464972 17.717556 
-10.048883 22.846098 -0.719450 
-0.589019 31.566422 15.716244 
23.318060 3.728034 7.463514 
-22.344221 2.961926 7.250463 
10.803984 13.892233 -3.963689 
-2.853459 20.151794 -1.357685 
4.345965 29.412943 21.201378 
0.780842 31.336636 18.672798 
-23.734264 -13.646062 0.992378 
-9.702837 28.342562 13.488721 
24.180483 12.657591 14.765297 
1.502059 30.175297 17.600027 
-14.107485 2.567894 2.001724 
10.602678 25.761614 6.808412 
-5.752770 31.864557 16.473015 
16.639870 -0.895501 -7.113772 
-14.618712 1.429269 -9.518217 
-20.612036 -0.509620 10.623742 
-19.106344 -2.863838 9.819305 
-2.481755 24.961901 2.669778 
6.443192 26.087959 3.183608 
-14.579004 28.100691 13.600071 
17.748768 13.349823 7.574244 
-6.873728 26.548527 14.196746 
15.935866 0.165461 -0.156906 
-15.961299 5.010218 17.933920 
-19.527718 -7.360294 7.370548 
10.659545 25.426718 17.059494 
1.703305 28.866812 -1.837229 
15.747426 24.465219 19.383938 
14.747379 24.216547 21.035517 
28.730923 -4.125232 2.567614 
-22.046080 -10.168940 8.224779 
19.729019 8.268236 -2.701485 
-6.795738 17.774780 -1.176032 
-10.903109 24.036087 5.458735 
17.940058 -2.575999 6.402749 
19.284861 -5.277196 1.701751 
-16.679964 1.825543 17.392941 
11.631242 22.174629 11.557061 
-16.363806 20.011463 -5.783458 
20.312231 1.745285 11.344458 
20.276796 -12.803188 4.159794 
14.472391 22.109255 5.576877 
27.468988 -8.877315 2.192577 
-3.915184 22.739998 3.866525 
17.001909 -0.964344 -8.753163 
-15.367447 -2.385008 -6.017086 
16.168446 0.463467 0.550259 
15.606227 1.336935 -3.725471 
24.312181 -0.040429 14.294740 
-17.874577 2.501896 -2.843617 
-15.733584 8.853070 13.107918 
-20.597326 10.625216 -0.742372 
22.779650 10.225986 -8.035504 
20.271095 -7.133312 12.889774 
-21.554277 5.416927 0.649554 
-5.868102 25.623636 17.446541 
14.363029 5.832342 -1.752141 
-12.998241 10.325031 4.966280 
-18.584740 14.136744 9.334993 
-17.843870 -9.771033 1.785871 
6.902133 24.686100 -1.908173 
-17.951546 25.079374 10.649580 
21.529636 17.890327 16.868135 
-7.310110 27.547897 12.415418 
-12.709959 24.394516 11.038508 
19.070868 6.594138 -1.912095 
-14.723335 12.287060 0.375699 
-19.833414 -6.912184 6.648018 
-24.412584 6.071705 -3.067727 
-2.974875 26.697054 1.351033 
22.435478 6.095180 7.347554 
18.205704 -0.319403 11.874174 
3.513786 33.472229 11.752071 
9.268598 24.690981 -11.135322 
-18.706202 20.349110 15.624660 
-21.546898 11.126397 -2.073841 
18.734177 -2.848406 9.897897 
-4.542361 27.933672 6.598244 
-13.505756 4.049103 -7.617589 
-20.971806 -3.292855 6.415503 
-0.692177 28.255083 16.287680 
-15.798866 18.764009 -11.056727 
-7.436491 26.142090 -0.000318 
7.637860 27.078810 7.236508 
8.280184 24.142010 15.282240 
-23.205364 -11.648131 11.729424 
10.898531 14.904765 -1.711964 
25.591726 4.410939 2.160941 
-25.183983 -13.240676 3.253660 
17.439056 6.090340 1.074453 
-21.032354 9.554507 0.673675 
-1.071326 29.608757 6.636940 
19.177120 10.890819 9.251084 
5.603176 29.466351 6.190343 
-9.467684 31.386599 12.876282 
-26.358046 -12.478359 3.742207 
24.820707 11.506272 10.642559 
18.479036 -7.374075 -6.068056 
25.760262 3.540918 9.599715 
-10.593682 28.153193 15.896021 
6.520782 30.815271 16.145779 
24.619884 2.852543 11.749969 
15.331334 24.570099 8.206817 
24.294579 -3.132295 1.891298 
-18.900923 8.283960 2.035636 
-19.923630 -9.199249 10.285008 
23.315289 14.116302 18.291384 
-14.955910 24.735212 12.709966 
15.227959 20.384710 4.446285 
25.669703 10.355897 7.950617 
9.278421 25.251207 13.675143 
-27.090670 -6.393748 1.736635 
-19.373606 2.436183 6.222484 
-21.008913 15.951114 13.242614 
-24.517767 4.021682 1.780219 
5.836154 19.312304 -1.272426 
-0.102500 25.573757 4.488001 
-2.472467 28.434870 17.426611 
23.159300 -11.910540 6.980214 
-4.573041 28.547541 -0.871449 
24.952055 -11.242487 5.782057 
16.333462 -0.149486 5.162255 
21.245804 -8.296355 12.145394 
-21.447126 -5.770065 13.607946 
-13.071018 27.410696 17.447342 
-17.181192 -2.680589 13.367622 
15.268192 3.436755 -2.072824 
-15.027185 1.843320 -0.086991 
15.735626 2.572262 3.912270 
-22.926886 2.581779 -1.799209 
25.418772 3.414102 7.353503 
-19.656633 4.449879 14.626403 
20.388052 17.413527 12.899917 
15.003465 4.168731 -2.123001 
-27.077534 5.055898 12.495256 
-13.783518 12.345766 1.720281 
-21.466923 -2.318532 6.308717 
-23.848980 12.349660 8.938251 
-0.628230 28.001692 14.250310 
18.103239 -5.246950 13.059124 
14.283482 5.536742 -4.210657 
13.828909 26.017704 19.249926 
11.261652 29.403765 15.165787 
11.848413 29.814472 12.236057 
2.423409 24.208002 15.196122 
8.087067 19.026161 18.526663 
-1.415972 31.599823 11.435516 
-24.572489 6.939165 12.479054 
-24.116009 13.760567 14.576344 
12.301002 16.310760 14.669061 
27.556068 2.636453 13.116549 
17.507179 17.148449 11.634426 
-19.002071 -3.949182 12.331077 
29.265551 -4.072388 1.549241 
16.367426 24.836790 16.320488 
-4.482840 21.629284 0.236729 
22.260412 7.190302 3.735084 
0.312940 26.756800 2.645252 
-21.919483 8.280863 14.738497 
19.514404 1.363638 5.440471 
17.263260 19.147114 -4.362073 
2.780869 29.461290 12.405634 
11.565451 12.602789 -3.941840 
-17.324408 1.189333 9.209290 
25.451677 -7.809625 10.401031 
-10.118835 24.475025 5.557732 
-22.233290 -2.421008 6.714169 
-22.300512 17.309505 15.222458 
4.244631 28.452892 -2.060169 
-4.564706 24.432222 -0.883664 
16.497892 22.574701 17.821169 
20.476454 6.970999 14.983926 
-26.942373 0.200784 11.429920 
-17.956467 1.756750 13.291220 
14.004171 6.358414 -4.634970 
-2.729116 25.828794 1.959356 
25.004517 10.148264 7.731740 
-3.226992 21.106766 1.494054 
-14.896743 3.484423 0.320461 
25.614517 5.589289 13.742084 
-18.352440 -4.523438 11.194705 
13.883280 11.420788 -0.302437 
-17.366468 1.556280 8.078532 
-12.561245 27.899128 18.221531 
1.548663 28.305780 2.946115 
23.737930 4.051276 14.646276 
28.881779 -2.316272 0.204494 
17.900997 1.812273 12.992060 
-17.249163 11.655122 -0.415216 
0.105528 32.764843 14.614067 
15.495793 6.737160 12.393802 
-26.347990 -2.435155 -0.262275 
-21.424437 -14.835779 -2.822540 
15.392590 12.230337 9.806537 
11.945637 19.904997 2.489658 
13.854207 18.688713 -0.431474 
8.840762 24.417507 13.330692 
-6.730774 20.692970 19.049753 
10.767757 22.714441 13.880568 
-9.087003 17.796238 0.765505 
-22.379604 7.716289 1.277326 
-14.763856 9.932137 15.433671 
-9.045112 31.401403 14.339189 
14.333834 20.231083 4.122173 
-8.849251 26.528370 -2.076004 
24.984705 2.720237 10.539987 
-6.905003 25.651131 7.154216 
5.987669 29.657461 20.055691 
-14.841995 20.332771 10.731642 
-28.774727 -6.453518 10.456849 
-20.955658 -8.452750 4.714878 
14.540934 8.433394 16.856062 
28.618305 -0.391273 11.848104 
28.305561 0.431915 8.553458 
20.771599 18.363079 18.835510 
15.252349 23.952400 15.839319 
0.165888 29.132959 1.109235 
6.597346 30.001051 12.276511 
-21.802332 -0.222584 10.573881 
-17.977806 -6.541064 5.039561 
-17.190756 9.250713 13.686356 
10.324578 30.489027 13.704430 
19.045065 15.716813 -10.177827 
-1.916918 32.301414 13.229244 
25.813860 -10.874792 5.843891 
-4.993536 28.765093 21.934925 
-4.688021 18.479492 -3.542204 
-28.638283 -7.434170 -2.013366 
-17.402697 11.339990 5.687661 
26.278349 5.823546 7.861284 
-28.080873 -1.407929 11.883176 
-10.019834 17.330429 0.692760 
1.924119 25.645197 4.733296 
8.531302 25.199060 5.624275 
-19.679453 8.605255 2.048606 
15.161831 15.270541 -0.359484 
-21.158516 -8.249964 6.315771 
-19.900343 -7.184029 -0.838556 
16.009148 0.903946 -6.950886 
0.033017 22.396090 2.342092 
12.755396 16.735735 13.997716 
-23.724520 -8.388266 13.491084 
28.909016 -3.985174 13.030256 
2.003666 22.627831 2.073922 
-5.297524 20.335693 1.234503 
5.522956 27.814318 13.165961 
-8.588138 26.118135 -5.769071 
13.383069 23.159355 5.437953 
30.203812 -3.299279 -5.489439 
9.986266 22.989456 -2.377485 
-13.991216 18.916126 5.255931 
-20.032515 20.975672 13.633201 
17.353573 13.983734 7.356627 
21.930914 5.603075 7.204654 
4.274885 28.480486 -0.416461 
26.553190 1.249545 2.550934 
12.626693 21.366325 -3.593520 
-27.679325 0.469456 17.227848 
25.218380 10.707728 12.916711 
11.234406 21.748438 0.546831 
2.399100 20.192011 -2.885215 
-19.861198 6.497761 -0.480177 
21.783178 9.805030 2.785512 
-17.000183 16.945593 13.476593 
2.204012 25.140186 16.555180 
-5.424425 24.293348 15.489748 
12.481561 23.078636 10.532959 
-18.000084 8.772738 10.579659 
-14.058374 28.044151 15.128040 
-5.158872 26.994169 -6.507720 
-19.278494 13.549037 1.003443 
18.182743 13.475682 3.650924 
17.097252 17.184101 10.971438 
-19.283253 -3.008882 8.501012 
6.072093 27.179977 4.354599 
24.173262 -12.742776 7.217683 
-16.474604 4.752934 10.378209 
5.590397 28.552494 17.446918 
-26.189316 5.051042 14.696577 
-8.155964 26.568575 15.758256 
1.985381 21.391182 1.362974 
18.656927 3.908440 11.986673 
-19.808596 -13.303880 3.381776 
-22.610056 -9.548944 12.799212 
17.971636 -0.105206 -0.904732 
-16.205469 14.072181 2.290168 
9.736677 27.673550 6.100239 
-28.088875 -5.337368 7.486696 
-13.750958 15.480205 1.510393 
1.007731 25.376379 2.970007 
-23.240564 0.177511 13.887928 
-27.565485 -4.120806 -1.559200 
21.865889 4.697315 6.027422 
-19.514753 15.106249 -4.176811 
14.716574 24.919846 8.557657 
20.194818 -8.982471 10.996918 
28.379404 -1.860868 14.237657 
20.611330 -2.193543 13.867720 
16.707251 8.259211 4.321386 
-21.336029 5.469753 6.986940 
-17.857790 -0.686755 -0.262425 
-15.924823 -2.594089 3.544204 
-12.588308 24.388430 -3.529022 
-2.590648 23.943739 4.084517 
-21.602942 18.889404 17.462648 
11.587123 25.469978 11.618873 
-3.990223 20.355314 1.476150 
16.992609 0.199551 13.790150 
26.982819 4.296411 -0.472818 
11.946531 27.302788 10.065578 
-20.846508 9.815900 8.320071 
17.781263 10.434156 12.417219 
-7.456783 24.966635 13.735199 
16.583759 7.702425 13.040820 
19.568451 -5.917378 1.896663 
0.044401 26.140617 16.880487 
-9.452165 25.704018 0.817867 
-13.254268 21.946867 15.595164 
18.237640 -3.407955 4.919977 
-3.629790 22.937468 17.012741 
7.689947 21.506674 15.771844 
26.521723 -8.872425 8.458681 
-19.726177 -12.435038 0.578874 
-5.228874 24.757580 3.475391 
-23.218359 6.091928 1.366112 
9.592327 22.605894 3.081100 
6.698689 27.629530 6.858840 
27.081572 2.838999 1.068884 
19.126249 -7.120092 1.014026 
-6.558142 23.421726 4.796918 
-8.340352 26.471741 7.545886 
25.935259 3.823094 8.937538 
-19.255449 -12.615261 5.684558 
-20.673525 9.351315 14.191466 
16.450104 1.945644 13.214675 
-17.946482 7.618004 -0.396329 
22.768908 -0.295391 -1.124537 
15.896905 -0.349571 -2.227419 
22.959301 5.909163 6.098527 
-4.172873 26.016006 5.319071 
18.944836 20.847717 19.416779 
-14.950881 19.768753 -11.129803 
16.527790 -1.690355 -4.605413 
17.129461 -1.512208 1.899786 
10.825076 13.457152 -5.592772 
-6.660330 27.581953 -0.230730 
20.353201 -6.584373 4.855549 
13.499791 24.662794 9.574925 
-23.013416 -11.295802 -0.432915 
-20.151539 -2.947195 6.919414 
21.466696 -9.836883 11.109860 
28.985611 -1.360484 10.664758 
22.617758 7.952677 15.086175 
25.774010 2.015883 5.321515 
4.113769 30.896587 19.006422 
-22.519314 16.598238 14.097741 
-19.345737 7.440938 5.422771 
4.703457 22.705864 16.639767 
-13.850042 22.403997 12.727698 
16.264351 6.317268 13.474923 
22.295996 5.416195 6.216682 
15.881480 20.563255 17.098494 
2.887661 29.641706 4.883729 
21.504112 0.175433 8.362117 
15.395189 18.967798 15.080835 
-1.086915 28.535807 2.480666 
23.124962 -15.101780 -0.571678 
-29.079887 -6.013811 13.261765 
1.630953 29.105852 19.389509 
-21.163662 19.368425 19.515001 
9.903294 27.042418 21.549002 
-19.958920 -8.955556 7.455345 
-25.136831 1.905131 -9.744652 
-7.012256 17.329575 -1.743886 
-2.396550 29.356880 6.343383 
-16.061033 14.237740 3.650500 
-18.605755 10.310602 15.030602 
7.868298 31.638943 10.942137 
-7.625815 25.917271 -7.687053 
-23.031115 2.222333 11.617462 
-8.864913 25.526646 16.029392 
-16.442591 24.766716 18.456379 
17.279716 5.683536 7.172981 
-19.932587 8.466295 7.165106 
-26.797688 -0.380728 9.985959 
13.749173 10.991879 15.450397 
19.844210 -2.787254 7.120999 
-7.751298 30.670128 9.830264 
-24.876152 9.925438 7.890696 
4.957148 32.382320 15.309490 
-3.410190 20.613855 0.909833 
-9.054248 26.090935 3.093520 
-26.585665 8.091285 16.352945 
17.053169 13.118800 1.499760 
-14.900381 25.839273 15.635125 
19.521946 -7.167467 4.873549 
-18.406025 24.334814 14.077604 
-26.882027 -9.288456 10.824766 
11.428635 22.271200 3.751725 
23.910093 8.629535 -7.489248 
-16.002523 3.902044 15.734999 
21.664417 16.284683 19.634996 
-20.034941 11.347653 -2.600348 
-20.037193 1.542168 14.068181 
-22.063026 9.799410 -6.857553 
-21.320160 -9.895964 11.226060 
-21.482771 6.615493 5.497148 
-13.247835 23.855228 -4.214160 
-17.421162 9.741527 10.181607 
-18.291939 -4.953968 3.853167 
18.569336 17.426470 -6.777992 
-21.821527 -4.741846 2.302504 
6.705109 27.282320 13.664372 
-18.501764 -13.406176 0.018645 
13.018825 24.500301 -5.221510 
-23.886480 14.702358 17.961098 
-24.777479 6.903489 7.733367 
-18.212011 24.908005 11.628775 
12.550477 11.322662 -2.602708 
-19.901985 -8.485096 12.318097 
9.244522 30.506598 14.853729 
-10.786958 25.763313 18.097115 
-1.423932 26.737534 0.873203 
-27.883451 -9.142090 4.143553 
15.139532 8.675111 -0.215013 
-9.626914 23.959406 3.362082 
28.382809 1.310227 14.441629 
-2.011696 20.166719 -2.742002 
9.672152 21.668617 3.001250 
-18.260275 1.039827 6.521944 
17.388493 -3.863490 -0.530366 
17.792940 12.861064 4.085336 
-19.937052 4.943993 0.438358 
-15.462132 26.769203 12.615380 
1.625602 33.347401 12.764198 
-25.019375 -6.297015 2.804328 
23.961004 -5.266581 14.587940 
-14.075521 2.168225 -2.890376 
-1.488666 28.305004 1.684101 
20.023495 -8.646622 10.206130 
-16.725752 -6.653995 -8.847483 
-14.739892 -0.513668 3.537396 
-26.836468 -3.431334 6.364778 
17.354723 11.520559 14.262624 
-6.768476 20.497044 2.722613 
21.379402 -4.283131 2.284215 
-27.604567 -5.907297 7.339216 
-21.752661 5.407325 -1.722743 
3.212992 22.893579 17.035398 
22.319435 1.700229 10.993021 
-14.121501 25.006075 21.346916 
15.041862 11.806443 12.068569 
1.839281 29.920080 6.753488 
24.378246 -1.035427 6.274734 
20.905535 7.700387 -1.807002 
-7.041306 29.256393 17.453716 
27.657988 1.530654 13.193298 
-27.212986 3.861785 17.805927 
-20.510529 -7.162826 5.420722 
18.798368 -7.516144 0.036818 
-28.206995 -1.353131 14.832798 
-26.818783 2.974549 10.566948 
3.092892 19.561012 -8.087120 
4.580941 26.247446 2.459791 
16.438578 6.253501 8.292706 
28.937634 -4.598418 12.377511 
17.042671 2.525444 9.031769 
-14.910737 9.047560 16.125334 
23.521074 13.165507 19.089516 
10.733559 19.924761 13.863345 
24.978357 11.894721 9.171921 
22.021654 10.842920 -0.472700 
-15.582829 26.521502 10.684625 
15.432788 2.633038 -2.064639 
12.940354 11.362447 -1.595417 
-17.560858 14.020285 13.512025 
11.301172 25.752031 13.299678 
5.838249 32.916565 12.995809 
19.765320 18.552500 9.706443 
-17.430717 -3.115743 16.551344 
-22.356752 12.351755 15.756191 
2.798301 23.234375 16.521532 
18.797504 1.127882 8.077220 
22.642603 8.374978 8.046594 
-19.131056 8.591761 4.368515 
6.599805 19.016508 -1.869631 
-10.045111 22.881924 14.482824 
-28.460314 -10.555897 -2.026010 
-17.778955 -5.085210 10.996672 
25.879137 4.508137 11.758237 
-3.575009 29.224913 6.920327 
22.670967 16.443815 8.882966 
-11.254411 22.841928 -2.439055 
-17.114561 23.414759 16.549759 
-15.201373 25.603540 18.903208 
3.397082 28.082777 19.097773 
24.612562 3.985899 11.231262 
21.272545 0.377866 11.218933 
-16.098986 -5.300380 -1.987151 
-14.052233 2.467161 3.436076 
-18.987581 18.829218 13.542126 
20.993866 -1.197360 7.047613 
-16.585194 2.063368 4.356408 
15.174738 21.017303 17.344521 
14.845281 22.866938 -0.488322 
-23.490829 5.627986 -10.041699 
15.137795 19.598978 0.365663 
16.077328 14.676970 7.330515 
-6.327112 24.920952 14.881062 
-18.465639 7.782021 0.449134 
18.449869 -5.709532 -0.114866 
22.802822 -11.266173 0.309151 
21.265022 13.595545 7.912801 
-0.405129 32.858547 9.089155 
25.476841 4.382681 2.908248 
-17.635555 23.916433 15.648320 
-7.391934 19.547722 20.371117 
24.907919 -4.918368 14.702415 
-9.620817 29.111113 13.450876 
30.509659 -4.562250 -8.200854 
-17.306931 -2.128141 16.719711 
25.116886 9.130168 7.488887 
-26.490530 8.593995 14.653214 
5.161872 27.877895 -4.935258 
-14.814703 19.569260 16.817619 
0.518015 28.899477 7.583790 
-13.153271 5.005029 -5.777945 
-20.121687 9.832243 -2.054138 
25.788984 -9.242417 12.085849 
10.821549 27.200678 5.141588 
20.095713 16.856009 13.776526 
9.809357 26.563414 -2.374997 
27.178755 5.228947 17.708082 
-28.912212 -2.975920 9.158591 
-10.326392 28.172642 19.955053 
-12.745938 28.200830 16.412743 
-9.266914 26.133640 3.993617 
24.909033 -2.532379 1.634991 
15.038598 14.301744 10.947293 
-21.961666 4.099650 15.059162 
21.231695 -1.082816 1.789426 
-16.369736 12.549673 12.895269 
23.456196 9.158615 -0.732406 
-17.083115 14.231254 4.034848 
-24.117945 10.496960 8.486692 
19.726686 3.514185 5.730224 
-25.096849 -7.338823 7.001892 
20.273531 1.481814 5.398733 
22.189802 -13.686316 -7.548131 
17.243837 2.945491 7.393277 
13.967335 26.564241 17.468437 
21.779827 12.425412 12.544234 
-8.075091 24.709200 -0.720142 
20.240557 5.469313 -0.740483 
-19.864567 -4.910539 0.966256 
-19.588261 21.766171 8.126731 
20.993382 -0.684250 11.003362 
-17.076891 -1.734600 13.501928 
-20.727146 -0.995969 9.023131 
-26.264809 -5.293335 2.919303 
-18.424620 -8.826540 4.871336 
-19.061548 8.146781 0.686130 
-18.590954 15.743621 11.579840 
-23.398155 6.213019 8.257761 
17.596590 -2.876904 16.378464 
15.987136 20.876129 -7.664547 
-22.368174 -7.996537 -0.954621 
16.645975 1.024895 14.947160 
12.048682 25.957531 21.350124 
-16.810133 11.076912 5.315276 
1.246700 21.797043 1.381648 
-26.141809 -12.696325 2.927109 
-13.549380 23.107424 -0.622200 
17.300491 4.178095 0.751338 
-17.364574 0.821169 -0.711269 
-14.751514 24.747370 11.510160 
11.192130 18.229475 13.836273 
0.651345 27.137224 5.535484 
18.488945 17.476681 -5.366459 
-13.704748 12.155111 17.659760 
-17.853901 -5.851074 15.089728 
16.564819 3.679319 9.517930 
-13.585282 4.649632 -2.721896 
-18.780703 -9.437743 12.567901 
-13.449484 27.554417 8.967379 
28.797688 -14.835238 -7.331454 
9.981400 18.058899 -0.522720 
-22.516653 -13.810343 2.672356 
27.899454 -10.683957 7.833564 
10.900209 24.217653 -0.236301 
-19.625589 18.747702 10.870479 
-26.287304 -9.154455 12.605335 
-0.667847 26.478262 -0.060661 
25.382671 -15.454210 -4.357453 
-24.912416 4.922744 7.581334 
17.198730 -2.546486 0.507435 
3.505816 29.019756 21.926661 
-16.358582 -6.641336 -6.775953 
-4.507233 27.735687 12.799937 
-21.262396 -13.754923 4.469897 
-20.265749 21.505281 10.564884 
-26.065470 1.428732 -6.152979 
-19.838022 9.366855 8.374075 
-22.643671 12.683671 13.670977 
23.362661 -13.493415 6.226198 
26.068253 2.868042 2.959809 
-17.037174 25.476332 12.006987 
-16.707291 4.457032 -2.134863 
21.333754 8.314646 3.045208 
18.884792 3.496001 -1.191653 
-20.562944 -4.333602 1.681359 
-13.909138 2.955302 -3.308769 
-16.692039 10.350626 10.261721 
7.767466 28.408073 17.597385 
-24.899088 4.470594 -6.266230 
-28.554226 -7.223610 11.258162 
-0.377768 26.350292 5.178697 
-5.045851 21.021660 2.867744 
-16.826860 6.749455 3.803153 
-7.399498 22.473606 4.396505 
-17.870304 0.740801 4.976339 
10.171784 24.137743 14.256421 
-20.391890 -13.161408 1.452105 
0.105719 25.542385 1.485778 
21.242462 -0.096508 5.703335 
22.173569 1.983787 6.042116 
-20.359426 3.495547 6.728286 
-26.189772 -7.330703 0.707603 
2.681009 25.693838 4.864295 
-18.750916 -11.994373 5.662866 
20.549242 18.007629 19.936850 
-20.864733 -13.666285 3.357062 
15.749316 4.997859 0.679590 
-18.680304 23.190525 15.846329 
-15.144386 8.364679 15.850075 
23.248020 0.118867 14.110824 
17.393173 -1.954312 16.537697 
20.183098 -11.597182 3.207220 
19.560270 5.756608 5.795540 
-3.748413 27.082293 14.500169 
-13.682456 3.603109 -4.162873 
16.071264 9.774116 0.346390 
-8.478598 28.536831 14.548872 
-15.599130 1.026220 4.859435 
-14.704333 21.910215 -6.645122 
-19.697924 -13.129487 -8.332720 
21.224730 11.744479 -1.213116 
9.791804 30.966253 13.249213 
-7.062248 26.752428 -5.011999 
-25.210028 -8.501144 -0.057474 
-21.478622 10.189748 8.262233 
-2.237275 28.620220 16.586514 
11.327436 21.129221 -3.492674 
2.840155 28.613729 -1.146137 
-25.369843 11.544782 16.064468 
-17.991371 5.981158 13.970000 
15.044370 23.824255 17.926687 
26.343496 -4.368590 14.693277 
21.686081 -8.606053 11.046437 
8.557967 28.390991 11.310293 
-26.938232 -13.344586 1.323410 
23.468885 -13.901944 5.584380 
11.266013 23.107180 0.175491 
-9.179990 23.564562 14.759980 
5.869443 27.968260 13.803791 
-15.087335 1.554867 5.018914 
9.505718 27.477972 3.715249 
28.436739 2.113400 16.155874 
10.958481 17.798834 -0.336571 
12.764006 24.312239 4.918567 
15.926916 19.885483 13.049080 
-6.389229 24.627464 14.227713 
-23.164833 3.960464 15.081330 
-7.551099 28.824112 19.013847 
20.388212 10.678960 -0.732893 
1.459558 23.454929 16.443182 
-19.576702 7.382432 6.585391 
16.670805 1.785709 17.182571 
22.828478 10.144478 12.170061 
-14.107338 22.653975 15.954627 
8.680762 17.680845 -2.437671 
19.691910 20.379425 18.167843 
-22.968994 8.764050 14.287915 
17.617962 3.912017 -0.257192 
-24.055700 12.193439 9.958554 
28.190952 1.797615 -3.348505 
-24.974092 5.057906 -3.514424 
-2.753947 26.629030 14.671433 
-21.069548 -6.053321 1.455670 
-14.347707 1.190076 4.412104 
-26.967512 3.346360 8.778557 
-4.539155 24.824875 1.094869 
4.434641 23.566656 15.785463 
-19.033287 24.099079 12.975388 
-16.057064 11.054600 12.891577 
2.753093 29.124937 21.949265 
-28.630489 -10.361477 2.154761 
-3.053670 27.025579 6.667523 
-17.119501 17.592394 12.960938 
-8.874685 26.468742 -1.229375 
-2.384649 28.884541 13.471850 
-10.987193 17.295284 17.363445 
-20.638929 -1.053411 9.851305 
-17.870213 -7.772145 4.810553 
-11.313953 26.789034 18.287069 
13.904495 13.949986 13.367699 
-9.780929 25.894503 13.545936 
-21.041948 11.492590 -7.605254 
16.025337 3.805347 0.712756 
-9.455259 26.138044 -3.818034 
17.536200 6.112282 -0.765660 
-28.996479 -4.276438 10.717748 
-23.141685 -2.098718 1.445873 
27.259010 3.702171 -5.358284 
-18.876337 22.698057 18.151440 
-28.468100 -10.197934 3.792467 
-18.544901 1.024696 4.607736 
22.425863 11.411914 -5.875582 
17.260729 10.373662 0.019262 
6.352878 25.119375 5.489212 
1.850239 31.055843 10.737368 
11.268711 30.038124 13.131465 
-26.953733 -1.352613 6.497652 
15.226521 2.879444 -5.056704 
22.118130 -1.494903 -0.927029 
15.271551 26.822273 11.265834 
-10.611821 21.844248 5.643639 
-20.607098 3.461072 0.149031 
-10.696436 20.626179 -2.720854 
-1.855215 26.622276 5.562710 
-20.718386 -8.999171 9.498942 
-16.122948 -6.417212 -3.331643 
-24.019989 -0.774086 3.916403 
27.607311 -5.275264 14.300344 
7.414507 22.286922 2.522054 
-21.987076 8.884992 11.248156 
18.237333 23.657846 10.891260 
-20.075634 -10.751737 9.984290 
17.663315 -5.030367 -3.193869 
-6.865431 30.024645 11.217699 
17.148104 16.703913 -1.679411 
-1.201965 26.536497 -0.624297 
15.570908 8.070533 -1.413764 
7.539730 27.373913 14.462176 
-8.800843 21.831276 1.374205 
14.361580 6.097015 -9.417820 
-22.552652 -12.642388 0.057323 
24.583092 -11.488091 4.548215 
14.293041 18.678236 1.127914 
5.705032 25.308926 1.183017 
5.284063 19.217548 -3.040022 
-3.323161 25.069014 16.213213 
26.694500 0.882844 7.509925 
21.543522 12.805577 8.021982 
16.679104 -0.204223 1.476716 
-20.447844 -14.099173 -5.722956 
-22.020819 -10.198127 2.788173 
-8.152247 22.218010 0.961495 
18.193502 3.567477 6.323498 
24.777012 -4.339070 4.402715 
-3.953011 26.455708 18.016964 
-6.740019 25.555368 -9.597401 
-15.766542 5.751622 18.059692 
25.870859 6.941837 13.696385 
-24.374683 -1.982256 13.451034 
-26.892340 4.398809 13.469981 
24.105543 -14.929051 2.108606 
-6.677919 27.595234 -1.018808 
16.839319 19.845005 -7.296109 
-22.448439 14.168551 15.658498 
22.609709 8.791986 14.994949 
-2.128531 33.319347 11.159398 
17.027729 1.080338 12.840301 
6.271717 27.224695 6.442318 
17.001539 25.576849 8.921379 
19.474714 15.994426 -5.225473 
-23.282484 3.561317 5.109824 
-16.407337 23.181730 16.818714 
-14.248884 21.789032 10.701303 
10.931171 27.388454 16.247087 
27.132526 -1.689091 7.477534 
-19.057749 7.656257 3.914123 
-27.279301 -6.581790 7.041901 
-23.507072 -6.409816 13.984197 
-19.766094 18.996191 13.343954 
27.125832 -8.380000 5.731778 
12.064438 20.683073 2.896116 
-1.021578 33.060585 10.076968 
7.540537 24.683008 15.595174 
24.317980 -4.658866 3.361733 
5.702794 26.548679 5.513381 
-0.690841 29.890108 21.199999 
-8.735958 32.598026 10.164188 
23.149805 13.835136 19.206453 
-14.542355 20.654976 -1.207002 
-13.692876 26.098049 20.139807 
-25.215473 0.500456 10.355556 
20.284851 -2.971935 1.992528 
23.101940 9.178673 -9.534101 
21.985607 11.774099 10.770952 
-21.518288 -1.339921 8.225550 
17.672562 18.746849 -6.925777 
3.851058 33.326244 9.235266 
6.720518 28.614155 1.060545 
-19.022360 -6.959897 8.067430 
16.410820 19.268055 -2.587172 
-0.237757 25.296909 14.687496 
-2.925005 23.313414 2.009982 
-16.008945 3.675835 -1.956276 
1.434679 26.231958 3.564017 
0.873143 22.891417 17.593607 
16.569580 15.670979 13.117953 
17.972549 -2.623931 0.741991 
28.666834 -5.014910 4.104533 
-28.391420 -5.127212 15.490567 
-16.946335 16.832457 12.761884 
-1.619643 23.767996 2.874404 
-22.556362 6.548343 12.240473 
-20.643442 10.161222 0.838604 
8.679043 23.106342 1.963235 
20.431456 -4.246379 2.453724 
-25.488655 -0.998882 0.715152 
-14.691217 8.290800 -1.145234 
21.914621 -3.911825 6.050164 
0.973894 30.840330 11.015514 
27.362150 0.861081 12.296805 
-23.607391 -0.300313 5.323184 
-8.271677 27.384312 12.696025 
-2.702874 26.665371 5.993546 
-28.618647 -7.227387 0.410149 
7.876121 31.416193 10.114570 
25.205023 -2.344271 4.391415 
-11.668138 23.663778 -0.158340 
-21.096760 19.724205 17.096235 
17.032404 10.438668 13.283665 
12.284755 22.375025 10.976500 
25.760994 3.575599 0.585734 
5.514942 30.048754 11.004869 
-19.909962 20.825726 9.121192 
-0.837445 22.699671 2.446605 
-23.786692 2.156814 7.188479 
-19.413189 20.920380 8.267072 
-28.048868 -0.118823 14.073313 
19.310553 -7.692747 2.900744 
-5.130246 22.461430 2.605213 
5.018918 27.678137 1.666466 
-3.632177 28.963110 5.076276 
19.162117 -8.488022 -8.056465 
24.901236 -11.209684 6.520969 
-23.338644 -9.614159 7.873446 
0.154286 26.512905 14.875410 
-19.400539 -3.767791 2.578280 
18.349722 9.241165 -3.177003 
15.973661 12.241090 14.174021 
-4.028409 28.146069 -3.132182 
-16.510098 25.123638 8.891328 
-28.447851 -3.676006 14.854998 
16.714365 -1.765878 -5.829772 
16.475359 10.924897 3.932438 
-23.679487 -8.772165 6.623526 
11.499871 24.914000 14.200883 
-18.004272 24.163898 14.893145 
25.346968 4.490538 6.690377 
-16.528849 -7.042499 -1.293980 
-5.053530 26.467754 13.351960 
10.529971 26.945086 6.402880 
-7.113734 27.678232 5.034315 
-1.773037 22.519085 2.390632 
-26.300861 -9.523047 8.599975 
-27.188639 6.465755 15.641332 
10.511115 24.005939 5.416158 
-14.100388 6.018771 0.185875 
-22.450258 -0.222530 13.408415 
-27.279438 -5.962155 -9.093454 
10.612105 22.244228 15.574084 
-12.886260 24.035658 17.545542 
25.573824 -2.375049 7.718280 
-18.877708 16.233177 -3.763912 
24.273130 7.511290 -9.367535 
3.086047 20.303013 -1.871164 
-17.152056 10.823566 8.802307 
21.288670 -3.737547 2.824130 
-26.619883 8.269922 13.323921 
-27.701529 -5.694421 -6.833393 
-0.487016 23.260914 2.825984 
-18.353642 2.972624 13.870038 
17.750141 17.033649 8.737585 
-8.007021 28.073355 18.524361 
24.310329 -11.808245 1.748144 
19.999380 12.032304 11.839095 
23.194801 -3.033409 3.736203 
-20.306332 -10.237735 5.865552 
-2.995990 25.691755 -11.438395 
-27.767811 -0.658761 17.035183 
-9.921919 15.095263 -0.270141 
-3.306675 18.881168 -8.607774 
-15.572419 14.158930 13.120458 
6.690775 31.337761 11.767716 
12.962156 18.400692 13.746033 
-16.458546 11.114838 9.325289 
-13.205784 5.165871 -4.148092 
-16.613331 -1.644840 -0.584765 
17.316372 8.531099 7.142744 
25.533533 5.855431 1.450310 
20.433397 -2.991135 11.151155 
-15.865670 7.948196 -3.091385 
-19.197796 12.859315 8.736835 
-13.733864 21.308489 13.056595 
-0.051543 32.189953 15.626382 
-24.463511 0.088718 7.638709 
11.468512 19.514942 12.787778 
-8.736805 14.382509 -4.161717 
17.523670 24.883400 10.473925 
-17.605499 -2.481965 12.027736 
30.850889 -5.614839 -8.102698 
-3.327255 26.090141 5.683599 
2.093869 29.708551 5.147089 
24.065746 12.788161 17.865707 
2.325244 28.415194 -3.860630 
14.761398 21.666634 -9.302206 
-16.387669 25.215599 16.734459 
-14.310974 21.244843 -9.504409 
21.742243 3.857164 14.667101 
3.536526 33.525352 10.882274 
-18.629486 -5.398319 8.112556 
20.204044 -12.696788 -1.463480 
-26.284849 -5.782256 5.108399 
-5.658018 24.189957 14.670565 
21.915613 10.744712 11.758119 
27.177738 3.484274 -7.050302 
-1.085238 32.293339 9.768213 
20.999083 17.013519 7.685011 
-25.661200 0.840006 8.903946 
-18.899286 22.406937 19.055277 
30.828054 -6.130689 0.010221 
-23.760620 -13.689532 3.449992 
9.213790 27.344902 21.605011 
13.754820 23.862610 9.721382 
-11.573320 10.325628 -2.330737 
-28.791464 -8.882108 0.138697 
12.279719 25.260651 -1.455789 
-17.258183 -3.292526 4.056461 
-3.048791 25.774281 15.530977 
2.379524 22.896006 1.128122 
15.813212 22.768820 17.890594 
19.547684 -3.961234 2.170877 
-10.836715 11.779181 -2.470369 
-9.634070 25.538004 3.836407 
-12.453953 19.317871 13.453692 
9.382313 27.210052 11.591284 
-19.741816 -2.355273 11.284269 
24.510160 -13.586035 6.190806 
17.961330 23.101522 16.399326 
23.656492 0.143314 11.420768 
-19.284296 13.710746 1.952632 
15.350644 19.546961 3.005166 
-1.505899 22.212667 19.225288 
-18.651415 3.320740 -2.763305 
-8.546271 30.382751 9.748642 
27.111748 4.941983 12.381370 
1.150388 29.183331 1.127135 
-24.165718 -15.075706 0.091299 
-7.555353 15.024012 -10.584454 
28.561020 -4.820072 13.332011 
13.575771 11.937233 14.862821 
-3.985353 30.118114 11.764937 
-0.823463 26.416491 13.804509 
26.244864 7.432575 18.091146 
23.609789 9.589001 7.490579 
25.561920 -7.493001 8.258985 
10.937698 25.803301 -5.162786 
-28.423780 -9.171471 -4.537283 
0.645035 24.914932 4.168441 
-16.597696 9.819749 12.430706 
8.773278 28.244736 5.430838 
-21.860004 -9.842985 12.445364 
-11.575719 20.434975 5.754680 
9.752723 29.060881 18.476009 
-25.101048 6.258548 7.892336 
22.991083 15.807642 9.818480 
7.487331 28.519516 5.564492 
5.846669 25.226871 4.919352 
20.639467 -10.795470 0.937946 
22.864128 12.601241 12.420652 
-19.355768 23.437550 14.253075 
20.054310 14.802589 -8.291185 
20.341202 -6.224293 13.289917 
-1.564719 29.845633 21.195446 
-27.595560 -7.385552 7.173548 
-10.129047 25.189882 4.985867 
19.443409 5.555683 0.155307 
2.499902 28.782742 16.959866 
1.622099 24.942953 4.318893 
22.867384 -1.165244 14.417023 
-0.302477 33.530022 10.206448 
16.937313 25.718420 11.616377 
17.902555 9.094814 6.883655 
17.757202 -2.428491 1.552376 
-12.355253 24.157326 3.252131 
-12.522110 21.177338 6.927061 
-1.365086 32.048317 12.095492 
-9.665910 12.228560 -7.839561 
