-28.666533 -13.721921 10.276700 
-15.550108 23.944164 0.593910 
-22.673714 -2.607649 1.331977 
16.241272 2.367909 1.920479 
2.010974 29.354454 -4.220096 
-27.794153 -16.315281 6.986041 
-19.794567 13.212121 11.268785 
-23.940897 -17.527889 1.350133 
-19.937878 16.006063 8.385149 
29.657856 -6.960433 -3.237568 
-13.051888 19.378599 1.693803 
13.768465 14.207501 -0.536193 
-18.988747 23.645189 9.614706 
16.824787 -3.459911 9.186148 
29.297949 -14.213102 -0.239453 
-23.967707 -8.104120 4.444271 
-19.874449 -0.642440 8.582033 
-9.857776 24.647287 5.231727 
-2.234085 29.858715 10.383954 
22.712986 -18.558056 13.714837 
13.220490 24.051458 15.169980 
25.951910 -12.192931 5.817803 
28.998615 -15.600823 6.437614 
19.189528 17.962370 7.892536 
1.402212 28.473732 4.009393 
-19.301439 4.778529 -0.141860 
15.607664 10.995579 3.955735 
26.771900 -16.886148 8.021301 
13.753830 10.153607 9.661721 
-20.422609 22.773371 8.902639 
22.027206 -8.003868 10.028112 
15.225608 19.913324 -3.058492 
25.323874 -2.169460 -0.575287 
-8.063991 27.570110 0.052318 
-23.724337 7.750304 3.056137 
15.500453 5.655816 -8.080105 
21.488409 4.092132 4.063670 
16.147169 -0.451380 11.971601 
11.369643 18.182703 9.204563 
19.504356 -13.742808 -2.743783 
27.307491 1.702650 3.623560 
-20.775444 23.117828 6.038892 
7.543376 20.471365 -3.828199 
-16.790838 4.464811 6.861609 
-4.539678 27.151791 2.977820 
-21.628929 -2.297848 8.584429 
14.606025 12.225356 -0.548513 
-28.630453 1.801844 2.731540 
-18.042406 20.048727 -4.767089 
-27.662821 -3.335725 10.570313 
-22.002920 8.836002 2.199000 
20.935574 -10.604395 3.578010 
16.586176 3.455019 8.324789 
8.599461 26.716158 10.497654 
21.083946 -7.680657 9.300045 
23.981182 -10.950156 11.913836 
-30.674358 -2.272372 11.588697 
-1.946355 30.735121 5.618097 
-18.818432 -9.011071 -1.857103 
0.722072 30.437290 3.418226 
-10.482689 13.982297 -7.421488 
-11.914260 18.629316 -1.121784 
-14.985488 24.684933 0.723353 
-16.867832 19.063419 1.183637 
-17.769222 -0.750783 -2.272839 
-23.487242 -7.283329 -2.704623 
11.929463 25.601706 -3.412573 
-21.434465 -4.187638 2.637502 
-28.696939 -16.153656 -0.299003 
-25.759581 5.071014 -1.279908 
28.539740 -7.737057 1.496329 
-23.803688 2.702743 -5.020002 
-13.250319 22.886623 8.380203 
-20.187822 2.212208 -5.472203 
6.872421 26.775595 8.748374 
24.089424 -16.915556 3.536348 
22.411234 10.207666 5.117364 
-19.201809 5.627449 4.517044 
-21.131197 9.853596 8.623322 
13.713250 11.647562 -3.428417 
-23.348835 6.119034 10.412064 
-18.770567 -5.045027 12.089710 
14.750123 14.878128 5.629723 
10.489178 20.393465 9.430871 
-26.590258 12.468625 10.805106 
-9.597667 26.485657 -0.033188 
-23.230400 14.215367 2.632190 
-27.888647 -8.236060 7.247667 
-19.863131 -4.202618 8.944545 
-18.804119 12.306349 10.897864 
22.907965 3.529673 3.623664 
8.959998 24.785324 12.597715 
-23.986080 9.003543 -6.143595 
26.143806 -0.258246 -3.243455 
21.055632 11.248774 9.938379 
-2.923375 29.949114 1.117076 
25.144148 0.921204 -3.742246 
-8.815293 29.999283 8.968813 
12.181232 12.788364 11.465894 
-19.202337 17.503969 -6.497422 
-20.570965 -15.461982 7.215689 
-18.385918 19.418268 -2.301794 
5.660931 24.361071 0.722922 
-15.683448 17.324551 -0.875400 
3.351134 29.683538 -1.954463 
-24.935427 -0.237712 10.801016 
1.028974 30.855593 4.820467 
28.262053 -0.541793 9.234302 
-29.513281 -14.754816 3.194042 
27.593416 0.404305 -7.674439 
-19.692425 2.973897 -4.813784 
11.774518 26.134855 11.733005 
-17.353939 -0.226619 -8.636665 
-9.871618 24.028969 5.750983 
16.444008 25.626673 0.142040 
20.246155 18.705477 -1.780319 
-13.978574 25.514545 -0.009402 
-16.052216 16.342653 7.139186 
9.227600 27.336020 3.293769 
19.871746 15.714459 -2.212363 
3.850020 25.627403 -3.226611 
-14.024709 22.490803 8.140713 
-14.522418 8.611464 -2.195922 
20.139637 1.968418 7.560086 
6.682146 23.951441 9.420559 
-1.537544 28.580267 7.597875 
8.251079 23.972672 1.936541 
21.975998 11.131637 7.589819 
-26.413120 -19.274212 13.274958 
26.415154 -2.304212 8.855433 
23.370199 1.563565 -4.334864 
1.089832 20.770578 -8.803321 
-30.809124 -4.777565 11.874696 
-7.172628 27.509346 -2.560872 
-16.848852 25.337915 12.682487 
9.424994 22.913231 -1.845376 
-24.200291 -16.800360 3.953533 
-17.937366 -3.194782 0.944503 
19.207575 12.608583 11.772057 
26.425350 -3.801465 3.376642 
21.106216 14.960933 -1.600775 
18.638842 -10.034023 8.826732 
-11.290643 26.452080 -4.250238 
13.927403 26.650293 3.562794 
21.210041 -8.582244 -1.443542 
-21.016989 12.681719 -1.751619 
-12.884239 28.210922 4.903402 
28.300701 -2.357200 -2.007154 
26.697926 -5.995978 1.365755 
17.185949 -3.352146 8.243596 
20.252176 10.076036 4.202458 
3.786843 29.953983 10.638838 
-13.620317 14.427647 -1.271272 
27.000767 -3.048792 3.026783 
21.551741 -6.290449 9.646729 
-6.242084 21.035973 10.212170 
28.226946 -0.810048 -6.355118 
-21.577944 22.038683 10.816142 
0.522490 21.774632 -5.555150 
24.854885 -8.316059 4.715113 
16.785892 24.594536 -6.278736 
-21.676785 -13.264192 -5.711414 
-23.466806 17.304741 7.384428 
26.098616 -15.374616 4.340521 
23.009817 -18.021038 -0.103270 
18.305910 -8.698685 -5.486032 
-19.530878 -4.751535 -4.018212 
13.410598 22.215330 1.445557 
-29.735720 -17.497339 10.620127 
-13.002327 25.292561 3.667319 
-12.156516 13.609013 -0.767465 
-8.023417 27.495270 0.901727 
-20.726948 20.055321 9.166456 
24.629656 8.083047 -7.946918 
-10.099676 26.854015 6.642423 
20.525862 -11.645844 10.693399 
-22.255445 7.328483 2.150775 
-20.677862 17.137875 3.272658 
25.260958 -9.664510 -0.314362 
8.704357 27.924522 4.223405 
25.636349 -16.187689 3.967692 
4.331355 29.155743 -6.000868 
-21.050024 9.093396 8.204079 
11.225776 20.893976 8.758576 
17.813013 -12.976712 12.933247 
5.217445 26.317635 -3.568361 
14.370315 26.530558 -5.452269 
-21.214888 3.158303 2.108264 
-28.887054 -18.379301 13.309130 
-9.199803 24.910927 7.262989 
-25.703655 14.256951 2.528196 
-10.289007 17.958618 12.713000 
-24.260286 -17.647406 -0.385716 
-29.617819 -13.732541 3.509230 
-21.172005 20.823162 3.681263 
20.404314 6.134824 0.165527 
16.382042 2.707028 0.352427 
-2.389887 26.850101 5.560688 
21.163805 18.111691 -4.832344 
-19.084297 -9.228769 10.402706 
-27.108421 -18.171671 5.221217 
0.856146 23.224886 8.176880 
-4.460199 19.330513 -8.885255 
20.424929 -8.114709 8.668257 
-17.847672 17.788633 3.579917 
-26.308228 -12.081003 -6.513508 
25.138317 2.972951 8.412858 
-14.623435 5.864155 -0.386778 
-1.072040 24.109297 -1.698737 
25.433210 5.724787 15.205908 
25.518665 -16.728224 3.357098 
22.742378 14.537275 12.331573 
25.541613 -2.119450 -3.343974 
21.655315 -0.901055 1.461021 
-21.425303 -8.662424 6.577739 
14.351459 20.786970 -2.116900 
-28.415901 -7.772514 4.374913 
-30.444715 -5.194909 -3.951935 
-23.264297 0.908417 -5.468643 
28.733639 -14.874843 -5.408607 
-25.403189 2.888517 -2.278669 
17.020229 -1.656798 -0.486845 
2.148002 30.788954 8.044761 
-19.070282 24.073883 4.479439 
1.253232 25.121216 12.124053 
-6.485395 27.699045 1.831300 
17.361364 20.737049 15.316064 
-12.656288 17.837328 -1.136806 
5.343544 27.640499 10.628145 
17.413866 19.931236 -1.650395 
-26.457663 14.475286 9.292747 
-16.440975 26.782024 5.849050 
28.021448 -13.971358 3.539213 
-26.941101 4.126075 -1.488104 
25.211323 -6.175976 4.478967 
-25.366938 -3.516850 3.055412 
-15.953597 18.791409 4.202437 
12.312654 21.614340 11.642105 
17.154722 15.218620 4.402546 
-19.467182 22.359289 1.848390 
-18.249321 -2.269563 -5.334344 
7.747020 27.595774 1.686773 
20.485010 17.363520 -2.879817 
-14.325171 7.429893 -5.111236 
26.381834 1.604139 10.533935 
22.017176 -3.213101 2.516133 
-24.440470 11.608475 3.419221 
-16.419312 22.893921 7.038032 
-20.618999 7.737324 4.343776 
-19.232239 -5.269965 -0.850544 
-25.520609 -17.681610 -8.342000 
-18.187634 3.157390 7.183186 
-19.049587 11.855600 7.559843 
17.831232 -5.451153 -4.334929 
-18.774269 23.620382 14.581462 
16.957470 -2.208207 1.829055 
22.833914 15.089455 3.798740 
-30.668093 -11.277357 9.658572 
20.579126 3.365620 4.806952 
17.379236 -10.772826 10.689371 
-25.931786 -0.462527 10.833344 
-20.861246 -9.197175 1.472334 
-9.907294 25.771955 0.654294 
-14.817558 27.389612 7.451169 
24.614777 -17.990589 -1.184113 
-15.602516 9.208549 -4.270375 
-8.953365 29.188931 10.848431 
-12.106615 22.976061 4.927633 
9.184587 27.750608 7.901083 
3.148260 23.871004 9.005878 
-19.676739 -4.041291 8.022201 
14.538854 25.066032 -6.108615 
19.511744 10.116468 -3.787779 
22.931757 15.834750 5.388433 
-27.857258 -13.168877 3.588223 
0.672718 26.178198 0.011788 
-21.713745 6.121461 10.980103 
4.228028 27.883951 11.506417 
8.510050 18.988010 9.778810 
-0.527333 27.067636 -4.076963 
25.377178 -8.652071 11.332113 
-24.308300 -15.715022 10.074190 
10.029927 23.956177 12.584432 
-30.078238 -14.779026 -1.809313 
-20.974092 -4.067148 9.906687 
17.185520 22.998728 1.677829 
26.323606 -16.627546 10.351659 
-29.709599 1.591774 9.215096 
25.196238 1.198120 -1.646274 
-15.400760 7.375103 -4.371494 
-6.444613 21.103983 -1.986453 
-27.905090 -7.669399 9.098677 
-12.846748 25.472672 2.800228 
22.601923 -6.015207 2.529810 
-22.764324 -17.161798 6.515364 
-10.550818 23.617744 5.251019 
8.169269 16.509642 14.086209 
29.401836 -14.990872 11.509692 
-16.915638 17.892612 -0.876296 
24.225962 -6.077121 10.015082 
10.859884 20.448477 7.927763 
25.055210 7.344101 -5.192844 
-14.040547 8.833547 -1.144575 
-20.179483 -7.777279 -5.035492 
29.279816 -8.691929 9.211495 
15.662553 3.404976 9.016643 
-26.159103 -17.780762 5.767410 
24.178085 -12.545454 12.173207 
23.708666 -16.601368 -1.179129 
-20.668777 -15.124769 8.520459 
-26.600000 11.985618 12.855306 
-21.349638 -6.218176 3.025590 
-9.845859 26.328901 -7.948787 
-10.737105 27.705759 3.561008 
10.804612 15.057212 11.321930 
5.932244 30.000031 7.851995 
-19.439211 14.604105 10.937815 
12.257819 23.025211 6.193050 
9.159347 26.073620 15.389087 
-7.536146 22.926342 8.755227 
-28.361338 -16.820692 4.030569 
-21.623257 1.422996 7.027296 
9.282994 23.564371 2.287587 
-17.914036 23.293119 7.778549 
21.815706 7.028116 0.756729 
22.271095 8.498448 1.903695 
-31.123968 -14.300177 -6.485737 
-11.950895 16.180454 0.172723 
25.279522 -16.900261 1.760989 
-16.652430 5.162252 5.611409 
20.741077 17.828852 7.358117 
9.517851 22.522999 -0.579843 
26.472345 -6.153855 2.223745 
-25.376642 -1.569691 3.248462 
-17.880049 -2.887024 -1.459239 
22.211618 5.359766 -3.069913 
16.955847 -5.757790 12.115028 
15.703358 19.127771 -2.733147 
17.450758 23.090307 7.636471 
-19.359634 -8.201192 9.534817 
10.280972 21.893021 -3.781772 
-18.613873 -10.017347 -1.790290 
23.478069 -4.477561 10.596484 
12.133523 23.021095 11.200777 
3.879779 23.081079 8.080036 
-1.626392 25.530470 -5.833618 
-12.574016 13.968159 -2.887982 
-4.738379 20.678547 11.651574 
18.012539 17.763641 9.685008 
-20.595654 14.949485 -5.911940 
-26.077972 0.155301 3.090215 
-3.352425 25.657309 -5.911308 
17.828938 10.523260 -1.682229 
14.904398 7.553291 -8.144468 
-15.404301 14.120830 -1.032296 
17.305662 6.895077 -3.537449 
14.136202 10.290299 8.985229 
-21.415760 -16.871452 -0.872275 
27.547161 1.782620 -2.232162 
13.962071 23.780491 7.101164 
29.118813 -2.613838 12.010119 
-18.986168 15.688462 -2.314016 
1.370271 27.632137 -3.825129 
19.640921 -2.853986 -4.340350 
22.008018 6.555862 3.500305 
-12.791836 22.267263 -4.761953 
21.648245 14.700060 15.718360 
-17.635374 2.167007 13.545794 
-6.978451 20.386259 11.285911 
-20.547171 22.708956 9.983444 
11.420086 22.507862 0.375387 
-28.251425 -9.405736 -3.370493 
-3.822481 28.120974 -8.211801 
14.453963 16.731255 -1.623993 
-5.031545 26.547512 -3.009893 
18.977724 -9.918260 1.761405 
-25.532684 -7.523404 9.009654 
21.143642 -6.741002 -1.479736 
27.663670 -11.411212 -2.031935 
-19.404837 -2.633109 -5.456088 
-0.069746 29.873234 12.158205 
-15.330146 4.863846 -7.644589 
14.141775 12.975591 9.027002 
-0.490446 29.286768 3.255948 
19.094315 14.173471 2.064709 
-19.842529 8.601383 9.230430 
23.006323 9.042932 -1.251803 
-0.267381 30.496538 8.815279 
27.566870 -17.284941 9.619453 
3.450996 19.638847 12.839931 
21.133894 -14.872360 -2.636293 
16.245321 16.300190 6.237521 
-15.172889 21.869499 5.683300 
18.178190 16.101892 8.693985 
28.515949 -2.226132 -2.817880 
-21.677944 -0.793412 8.381351 
12.597917 26.690794 -1.206882 
12.530513 22.732618 -5.706294 
7.426894 23.212355 11.443852 
-18.483904 -1.404793 -4.238372 
5.563532 24.336920 7.468231 
-26.203770 -9.754428 4.517370 
16.926851 19.392851 5.156945 
-5.383574 27.784712 -0.343597 
-22.706785 -2.218409 10.612845 
-22.065109 9.771788 7.549301 
-21.195770 -6.659662 4.325806 
18.754393 4.769108 10.358438 
4.176571 29.092640 3.077162 
27.209358 -13.705810 -1.836227 
-5.134318 30.883085 8.115457 
-28.115318 3.539324 9.025833 
16.480413 10.114671 -1.986710 
23.665182 13.251593 6.588953 
-23.425398 -5.854465 -0.917828 
19.550566 -15.325551 9.978125 
-16.137928 16.485254 -1.044906 
0.664919 25.563313 -0.720155 
16.160892 17.659546 11.975255 
-15.146063 18.565804 4.620139 
21.328783 10.684157 7.489563 
-21.238970 -16.117327 7.487101 
13.756323 7.840233 13.758218 
-21.431831 21.518353 13.935386 
-0.423904 30.664171 7.876832 
-20.124666 6.452922 3.491677 
-1.330827 26.594772 7.142294 
22.091913 -16.742418 2.144669 
-25.156111 15.221176 11.124575 
1.078027 27.481852 -3.076229 
23.152906 2.463095 3.723702 
24.654482 8.295330 -4.360352 
8.891242 24.531517 10.158742 
20.569639 17.662718 -1.612293 
5.294225 27.365559 -3.776308 
19.364223 19.052244 5.724348 
-5.543630 29.243446 12.664845 
-24.422796 -12.321398 3.950840 
-27.991680 -14.946065 2.909404 
23.206728 -4.093036 -3.309255 
10.923153 24.594213 3.252967 
12.755195 16.557446 2.557873 
28.177301 -10.417366 3.407468 
-19.215664 -13.570380 9.692041 
21.587618 14.485723 -2.257837 
-6.414226 28.265762 -4.096763 
24.721220 -7.931018 -3.429059 
-14.810914 21.204021 6.451582 
20.725697 -5.455327 -0.704318 
-19.220409 16.282661 -1.748608 
-29.674053 -10.656160 -0.675967 
12.756235 14.908854 -2.413198 
-30.585995 -3.968727 -5.426077 
-22.067076 -14.644584 7.128850 
23.655970 11.106295 -5.043458 
-8.457439 28.602245 14.514731 
-28.438570 3.093605 -6.694108 
-22.289318 3.141564 9.886633 
-20.284218 11.391988 -1.700882 
6.271844 28.677065 2.679166 
0.798691 23.918018 7.623096 
-20.578310 -16.199577 -2.562336 
24.034025 3.111455 8.096112 
18.596954 -12.086313 -0.255193 
21.095882 -1.729411 10.682530 
-6.731915 27.032019 -9.143271 
-22.778025 16.215954 3.573377 
11.673713 23.430149 12.261059 
9.993964 23.311777 -3.590174 
-12.227882 17.380274 1.808012 
-31.232435 -11.839755 -2.672231 
-6.910872 23.481153 10.654589 
14.198364 21.249819 12.862097 
28.066658 -3.535945 3.057525 
-20.305265 2.612908 8.363128 
18.912132 3.046115 -1.936254 
-0.706631 30.636795 7.118314 
-27.608103 -9.275933 3.954482 
-20.251535 -16.203444 6.918529 
26.565863 -5.298063 9.750916 
-29.550838 -5.347263 6.952152 
21.907391 -4.188951 -3.583836 
17.871180 23.204243 -5.893229 
9.633350 26.640966 -5.368659 
-16.282839 24.419754 8.840771 
21.554369 6.012819 10.719203 
29.748180 -8.912782 10.179811 
28.734455 -1.426902 13.009867 
23.451874 11.675716 11.183075 
6.840197 19.457548 -7.558253 
-15.236126 22.714827 10.060746 
-25.856312 6.398893 -7.323399 
23.035053 -16.522949 -7.315443 
16.011230 3.780797 -8.018209 
23.051729 2.473488 -4.275192 
-29.557467 -15.955429 4.397311 
15.548147 6.878134 1.779578 
-23.716066 -5.791742 9.972163 
27.880974 -4.635049 -0.557156 
19.547390 3.521799 4.450036 
16.698277 0.596399 1.867708 
28.287775 -14.590293 1.219701 
-20.130823 13.585158 -1.476675 
28.163324 -12.296346 5.516623 
15.750725 1.810016 11.166041 
-31.516430 -11.774910 -3.904097 
8.072158 27.704502 0.621520 
-22.551249 7.843323 0.688890 
18.930933 17.279982 -3.880428 
17.847406 3.957990 -1.729828 
22.537064 13.279758 -3.406688 
19.203686 11.481302 -3.480880 
-13.218894 16.188208 -0.881598 
-18.582531 -3.557714 -6.010504 
19.502621 -13.771376 -3.558565 
12.900376 9.632422 15.341153 
-31.671587 -8.913200 -5.522752 
-19.201773 11.170011 3.626422 
-22.763350 19.064829 15.623931 
-5.279549 30.129633 2.371708 
-3.641059 28.570574 4.118631 
21.542431 5.106349 10.524080 
-26.683279 2.122762 0.799600 
16.270123 24.410608 3.718249 
20.395325 -15.164860 -5.154001 
-5.023059 22.431423 -2.669570 
13.815120 26.177105 -7.760185 
16.834574 -0.823590 -4.212617 
16.407299 -2.122210 13.399291 
18.117191 2.819015 2.937940 
-26.088018 -13.752178 -6.695175 
21.443821 10.983788 8.304605 
20.609776 0.379488 1.295976 
7.401595 17.044931 14.232777 
-16.640100 20.639420 1.391451 
-14.081755 20.711021 -4.428217 
2.189490 19.422968 14.451407 
16.001024 25.312199 -5.686926 
-13.554742 20.077278 2.632176 
24.933979 7.424506 14.263248 
28.649969 -2.128204 -3.772955 
16.488554 0.763671 0.045976 
-17.550432 9.603356 3.929584 
-6.343228 18.752022 -6.155904 
-28.814476 2.042011 14.545206 
12.905416 10.617439 11.701507 
23.740194 -10.023274 -3.927813 
-16.426472 8.305998 -2.989730 
-10.513436 14.032700 -6.140470 
28.967964 -3.922456 14.650783 
-19.656694 -15.169696 9.744235 
-25.740484 -12.635361 10.835329 
-32.013145 -8.880010 -8.721766 
-6.670709 28.691101 12.988937 
-24.734661 -14.119744 10.603123 
-25.625700 10.820422 7.119032 
16.521088 14.182163 -3.214480 
23.451611 -13.160960 -0.427984 
-1.473106 28.331514 6.030662 
20.233671 16.627762 -3.215072 
28.394037 -0.313248 13.172710 
15.243182 10.411123 3.446827 
-15.461525 4.879440 -5.771806 
-11.263862 19.701006 1.524087 
-20.779253 -5.859337 -1.867905 
-17.928789 3.183467 8.583060 
-26.336288 15.187814 4.974378 
20.872952 1.974347 -4.662983 
-13.652635 8.697291 -4.820065 
22.521563 16.522690 6.521180 
-12.010043 17.660646 -0.571010 
29.260647 -12.903154 11.359959 
11.301473 21.793873 8.149815 
17.386160 -0.752083 -2.199307 
22.378693 11.299036 0.632080 
-27.746964 -7.057384 0.319698 
-4.491057 25.293716 -1.745179 
-27.755283 -14.808414 -4.520109 
16.206161 16.104589 7.035356 
-10.579276 24.498581 2.102201 
-18.391352 13.641139 -0.361544 
13.572272 20.174660 0.619423 
24.715956 7.418353 -3.189935 
-2.083003 28.843060 9.732031 
6.274971 26.066711 4.105628 
25.847853 -16.399149 -0.588646 
14.758111 19.678711 2.609128 
-28.065044 -13.900271 2.236828 
-24.541077 16.162764 15.434007 
-24.990246 10.096307 4.783733 
-25.114384 7.440672 8.325767 
2.594472 24.225836 -0.544628 
-25.535074 -17.505455 8.422143 
-10.203777 25.663052 -9.181849 
23.450779 -14.589082 0.209867 
8.139271 21.545631 -4.168353 
-22.807690 8.624529 6.989147 
23.649847 -13.786819 -3.412074 
-22.169571 16.173941 10.209090 
7.977650 22.633461 -2.941713 
-16.593304 19.145538 0.367327 
24.729359 -4.742488 0.447969 
11.125790 27.613235 -4.900397 
3.396051 23.439392 -4.400783 
5.343760 26.982241 16.329819 
-3.082038 29.254873 -4.657755 
16.896803 -1.460095 1.566475 
-21.491608 7.120720 -0.584545 
19.792171 -6.799407 2.009642 
15.222850 14.438244 2.650206 
-20.546234 -14.772631 5.404312 
24.964245 7.146008 -7.914258 
-20.290888 20.572147 10.923059 
22.608442 9.569228 3.721312 
-16.434864 22.649010 3.681182 
17.819023 4.831759 1.844910 
-18.281445 9.069913 5.843535 
-20.900572 4.141370 10.786268 
9.557199 17.597797 10.513405 
-19.847212 23.269207 10.239655 
13.128888 26.093855 -4.541448 
19.213816 7.739919 8.203678 
26.692755 -6.621502 -1.544855 
-30.453938 -14.285007 6.949931 
22.084803 10.081003 4.270032 
-13.451166 12.629457 2.977434 
-20.705000 5.600269 -1.430951 
2.872882 20.827665 10.536880 
-24.040695 -9.566521 -6.635772 
22.416056 -10.993608 11.463838 
21.661219 -16.589710 1.475544 
23.083807 0.608786 -4.479555 
-11.991742 15.409500 15.489735 
-22.176588 13.430346 11.705345 
-30.307678 -15.215568 7.309416 
19.464592 14.585335 -0.259716 
-19.597826 -11.324230 7.533463 
20.966566 -17.914885 8.353480 
-16.790739 16.904501 -3.027394 
24.396111 4.804557 6.245159 
28.546881 -0.183114 11.797620 
15.813019 8.259788 2.413964 
-26.117033 -5.383325 2.753327 
-21.566231 7.942809 7.597695 
-19.052183 -2.682022 8.931691 
23.836098 -17.799438 1.445913 
-5.330379 28.545731 -5.053082 
-13.740176 10.075456 1.792638 
23.860575 4.400843 -1.333279 
17.350653 22.227112 3.558507 
-10.247091 28.690304 5.560509 
-24.115595 -16.959940 -1.084868 
-24.791731 -13.250105 10.758141 
-22.636160 12.323734 8.793891 
15.410896 2.468151 12.478903 
-16.093409 26.690502 4.023563 
-21.978525 -11.681455 1.050438 
11.160694 19.669048 10.376522 
-27.970135 1.890717 2.283577 
23.054415 -6.993695 -2.813758 
15.690507 13.137360 2.081911 
-21.897463 -8.613774 5.280832 
28.146915 -8.715532 3.141987 
1.786321 24.781937 -0.489655 
-30.775330 -14.501842 -4.676149 
16.726376 25.397501 -1.142084 
-20.376619 -15.289214 13.564776 
-17.506868 11.039684 7.607914 
-14.220551 24.742342 4.932612 
17.619492 8.645732 6.972240 
-28.873447 1.984949 -8.947530 
28.489363 -8.343499 10.492369 
-17.044302 5.618400 -3.358629 
-13.617046 8.635676 -5.657145 
24.044453 -16.988714 0.345385 
-21.352186 -1.088546 10.265516 
-20.942951 -5.166787 1.388359 
-27.338953 5.087523 8.577245 
-15.570807 23.617767 -5.285833 
-26.182468 -3.204325 8.297523 
-10.100038 23.523422 -0.896525 
15.687808 1.638980 14.880051 
-18.050207 0.836806 12.279335 
-16.359493 2.338940 -7.585238 
-21.612587 -2.906089 -5.478675 
14.951872 19.580700 12.911484 
17.370630 19.135695 11.776031 
6.456938 27.756464 10.632878 
4.043199 25.795647 5.958278 
-10.054585 14.875632 -5.713757 
15.138346 11.291032 -0.656114 
10.955024 24.702141 -1.659806 
17.243002 -2.024382 -6.869979 
1.712705 23.490280 7.594278 
-25.071722 -6.745024 2.995624 
20.184425 -15.821306 1.206592 
-27.198553 -8.801641 10.196351 
28.562153 -0.114146 10.725319 
-5.675427 27.692947 5.585119 
-20.444590 5.493320 8.893505 
-14.856127 6.369397 2.108726 
-28.416700 3.410652 9.811502 
-24.036743 18.085680 13.132579 
18.858278 -5.471396 5.060156 
-1.744712 29.577583 13.593555 
-2.853278 28.084524 4.079115 
14.136263 8.071874 11.391756 
23.018156 12.793797 9.860260 
29.757761 -12.225036 14.154852 
13.697182 19.173079 12.340335 
-22.478653 -13.250143 -6.298593 
6.816095 26.212858 -4.572270 
24.359238 -2.562284 4.286024 
-23.543240 -3.588208 2.513063 
-27.434477 -6.755954 6.826802 
-28.045183 -7.259529 6.975605 
6.792021 19.269344 -8.638436 
-7.616522 27.784714 -6.100460 
19.684563 -14.848350 2.663996 
15.803546 10.312249 -3.014544 
-15.348820 16.787912 5.155103 
-18.691397 16.926100 -2.338176 
20.198586 16.645147 1.829622 
-1.531075 21.158226 -6.323937 
-21.963318 19.886389 5.942894 
24.079708 -13.247735 5.045796 
-4.984172 28.631186 -1.817364 
25.773211 -3.285881 -1.864933 
24.602657 1.577743 10.692399 
-21.378710 9.748566 6.136286 
-25.326576 -6.069065 -2.561491 
-1.948493 26.741020 6.357700 
-21.335194 15.716722 4.182971 
-25.742918 -15.056989 3.594191 
-30.556709 -1.747072 8.624144 
16.854376 -0.883779 -5.444404 
18.196638 18.381350 5.872813 
27.992064 -7.232206 7.562985 
-8.767004 23.522320 -4.670517 
-2.857248 27.955395 9.394979 
19.311359 19.716204 11.292886 
18.473633 6.423732 -2.330771 
-11.393147 12.696650 -8.856694 
-10.163136 28.636385 12.010824 
20.496223 -3.556908 10.303096 
22.219463 0.071842 -4.654387 
6.893779 21.621981 -1.913417 
22.627560 9.259782 1.612376 
23.074005 12.557381 -4.605994 
-21.936775 9.924053 8.653028 
15.560399 21.417612 -5.416272 
10.952671 14.401679 11.963561 
-25.571386 -19.302961 8.417991 
-11.001617 21.385502 7.780502 
0.855401 29.559555 1.257349 
12.345334 10.696047 15.401023 
20.393774 -12.025679 3.553554 
-19.514847 9.555891 4.956560 
-30.320148 -6.085932 8.124740 
17.797375 17.550091 -4.206117 
-27.138557 -2.869701 1.371228 
16.972956 13.088031 1.064210 
21.413124 17.317423 -6.163414 
8.948621 27.245092 1.301314 
-21.784800 18.593765 9.529657 
-20.651724 4.197667 -1.982180 
20.809515 0.866675 10.360326 
-30.950294 -5.957037 10.579035 
-19.565292 11.305326 -2.587248 
0.037647 30.906618 5.224441 
19.307972 7.208592 10.659982 
10.842374 26.098408 13.581121 
-17.272511 9.671164 -1.846244 
-26.081730 -18.525362 5.135624 
-9.540555 24.368860 -3.734115 
18.842951 21.308258 7.403717 
-16.943712 25.529858 4.658061 
-5.210920 20.121725 -4.406500 
-24.833731 -18.328455 4.787576 
-27.014154 9.249522 12.333967 
27.133419 -12.529215 12.381906 
-19.076836 -4.036502 8.861536 
-24.548325 -6.462114 2.263585 
-21.487459 1.186863 1.507640 
-25.948736 -7.974775 4.330697 
18.421545 -8.723585 -6.504083 
11.730402 15.287877 -5.038319 
25.267128 -12.987234 0.892671 
18.130976 -3.519589 4.308278 
-31.781548 -11.699642 -5.307992 
13.631562 19.041004 1.768109 
-21.514463 19.060902 4.664000 
-20.480284 -6.053493 6.290614 
-18.056711 1.989272 -3.459260 
23.051146 -9.141766 -4.016701 
19.865734 -9.129560 6.220148 
20.368015 -5.810438 2.591514 
15.738618 7.040869 -1.069471 
14.407934 20.893875 10.710999 
12.719296 26.405655 8.717730 
-15.061696 14.983759 -1.161402 
-26.512949 13.633406 4.018974 
23.516457 -17.653290 7.209006 
-12.565073 20.434759 8.264612 
22.337379 16.595324 8.454540 
-19.618279 9.961524 8.633090 
25.943968 -16.433681 -7.254480 
6.966377 28.407938 8.865630 
14.458023 13.119800 9.901188 
-16.753599 7.382579 9.311112 
-30.904587 -13.626571 12.695981 
-14.224805 24.869560 -5.493926 
11.549819 26.195585 0.341099 
14.986277 14.417473 -3.725461 
-18.348682 8.802026 8.099704 
24.865400 8.379886 12.352100 
27.267788 -12.221068 10.245953 
25.873724 -14.416190 -2.387302 
15.567406 24.663614 -8.593290 
-16.125454 7.022743 5.403706 
8.124871 23.717842 5.909720 
-15.212527 21.314524 -3.209635 
-24.211464 -5.655430 -0.814733 
-25.023348 4.566238 1.901889 
-17.129360 10.175201 3.516942 
-20.466051 -9.600172 -7.830709 
-2.072980 23.674877 -1.584776 
-21.145035 10.013369 -3.024495 
-17.478319 17.900049 10.172778 
29.902866 -10.805651 12.944210 
-21.823446 2.122493 8.060573 
-13.915160 18.632839 -1.883126 
7.296210 28.550467 -5.653293 
-29.888992 -8.241391 6.740713 
19.252270 6.770820 8.423330 
23.513033 -17.632828 8.099388 
-6.459384 21.610817 0.339131 
8.378127 27.351599 3.606591 
16.804884 24.124853 2.079753 
21.784885 7.074452 10.731876 
17.165739 22.580135 2.379354 
-10.012838 25.660149 3.057556 
-15.128490 17.833988 6.148837 
23.290899 15.338242 7.022311 
16.457094 21.950050 -5.444392 
-20.950956 15.091827 11.281033 
18.133062 -7.577085 -5.315410 
-15.503285 24.079453 2.161915 
14.927871 7.567588 1.882460 
15.498964 2.398818 14.924497 
22.597826 14.373857 13.460988 
-14.757817 24.741570 2.368031 
-26.319727 9.212193 9.434448 
27.810762 1.584200 12.050619 
15.868531 0.877111 14.835417 
-21.126961 -7.011721 5.987025 
22.578615 -4.775720 7.790883 
-30.504177 -0.856805 6.572118 
25.282488 -17.361403 7.983682 
-30.935886 -3.601031 10.502987 
20.058889 -15.338613 -2.958785 
22.216045 7.865751 1.232821 
26.915659 3.388089 -1.845725 
-13.119598 25.661369 1.265989 
-23.562880 -11.318291 3.363576 
16.519444 23.829624 8.817595 
21.519133 -7.233175 -2.374680 
-25.574087 7.155570 6.918515 
-25.352304 3.851384 5.029794 
-27.522707 3.233495 6.539902 
-9.978403 23.763184 3.969857 
28.250059 -12.081026 3.608237 
-23.198584 -8.721539 -6.076018 
-17.616619 16.829126 4.485736 
20.471642 6.298576 -0.848660 
17.685558 9.274550 7.924736 
18.079670 -6.433648 -3.329188 
-15.781518 17.867844 9.588019 
-31.184208 -13.249722 -3.525919 
23.036585 15.153069 9.026371 
-8.775369 26.592730 3.982981 
24.034470 -18.801149 11.188696 
29.301012 -11.831689 1.128309 
-29.767677 -1.083176 10.239382 
-26.017149 12.267462 2.872339 
2.135177 24.653692 12.033627 
19.148054 -7.142292 0.387547 
9.548350 21.085947 10.821424 
-2.797713 29.893999 -1.908969 
-9.957387 24.668980 -0.403733 
-23.433939 10.054104 -4.177334 
21.119396 -15.856952 2.998377 
21.220390 -10.793200 2.521773 
-29.734333 -14.858761 -0.716451 
3.482119 30.498638 8.805588 
-16.672493 2.751217 -4.841400 
-23.872892 -17.569448 -7.009332 
14.748870 22.874155 12.740267 
-19.010380 9.103105 7.796629 
-17.829954 13.546093 -1.295849 
0.190777 28.618734 15.505198 
18.439730 19.189627 15.964080 
-27.947350 -1.302585 -3.528474 
-11.801071 22.456974 7.771780 
-17.079027 17.632339 -2.684548 
-14.247621 19.077938 8.030796 
-6.575182 30.916945 5.465868 
-12.064062 17.277580 10.983372 
26.486023 3.407078 15.074185 
-15.508870 20.562220 4.759218 
24.318117 8.287619 -2.750829 
-10.222876 28.685793 11.139480 
-28.377899 -15.426250 -1.051785 
-9.856080 17.247622 15.618181 
22.457825 -7.488077 4.914211 
-16.185720 6.012785 7.733611 
-23.274569 1.274156 10.046453 
-24.913752 16.876835 11.511920 
5.617877 27.918592 14.603886 
-15.842577 21.521608 9.525469 
11.395918 26.587420 10.072288 
17.899265 9.313142 3.757710 
-24.579462 5.186302 7.181863 
20.270241 16.388424 -2.207822 
17.901365 -13.884999 8.883408 
-12.551937 11.574980 -3.138522 
-24.448406 -17.181316 1.881828 
-26.782316 10.626528 12.407420 
29.387617 -6.238049 14.514076 
21.015081 3.227377 2.759134 
-24.547773 -1.868911 10.867807 
-25.981167 11.814579 8.519028 
-30.532448 -2.473647 7.415706 
-11.174520 23.236092 10.468826 
-1.764283 20.632650 12.791735 
-19.114523 -9.358023 -4.096438 
4.059503 30.640856 7.193694 
-8.526670 27.602554 2.871380 
23.924500 -9.383558 4.469635 
12.564520 25.181368 -5.372168 
-24.074785 -15.392453 -5.611120 
-14.461327 27.225874 2.962885 
-17.329189 3.667571 9.246601 
25.280268 -15.854820 6.242611 
-21.271252 8.317741 -3.210185 
24.687622 -5.475531 10.255595 
7.230129 21.382473 8.896671 
5.227236 24.023499 10.591956 
-19.916048 -15.258948 11.414862 
-26.125771 11.529098 9.477145 
-27.211744 -0.642195 2.982446 
25.352562 -11.407866 0.117070 
14.748033 7.493484 -5.462359 
-27.018024 3.839004 -2.568476 
23.429945 -15.861295 8.416941 
5.913193 28.447744 13.053058 
19.512066 18.918730 13.937303 
13.118930 15.172047 8.489780 
-13.691615 27.042694 10.700936 
-28.622309 -18.396576 10.165341 
15.986452 26.142191 -3.888674 
-17.178486 12.220562 1.856129 
-12.456439 23.390945 8.453370 
-17.482397 3.625576 7.148897 
15.462689 20.323153 2.776051 
14.986829 16.959387 -4.465035 
6.768519 22.601679 9.953122 
17.541576 -9.957347 14.193436 
0.339531 28.336943 3.547113 
28.062271 -1.249175 -1.484131 
14.244825 19.482666 0.010726 
2.478994 30.514057 9.725533 
-18.020447 -2.382916 1.251995 
18.895950 3.692177 2.414969 
-20.143129 10.417222 4.059490 
15.051015 10.150904 9.011114 
17.880554 7.909245 3.326766 
22.210861 3.949558 -1.523540 
-8.318762 27.074039 12.297886 
-24.829018 -14.863519 3.343441 
-22.446344 11.597940 -4.063412 
22.357424 15.566997 11.760817 
-13.114691 15.394141 12.009806 
17.688070 -9.580257 9.516526 
20.057003 15.414012 -0.676998 
16.730068 24.900623 1.526865 
-5.435546 31.003281 6.507556 
-10.529377 24.311878 10.577207 
-20.095901 17.670155 7.536470 
22.653030 -7.440912 9.928279 
-25.907549 -6.408554 1.096718 
13.004235 15.947223 8.316792 
16.688316 14.633189 -1.015006 
-22.989199 19.338556 14.440482 
1.555939 22.863966 8.216027 
17.469421 -3.536978 -2.748685 
-25.935667 -7.426715 2.282773 
17.562601 16.729609 4.967871 
-14.042968 13.619799 -1.253211 
-7.397846 27.909204 3.471483 
-0.592565 28.127401 -9.039165 
-3.738157 29.235504 14.597515 
24.367161 5.041219 7.190070 
-26.692762 13.595307 8.619637 
20.465063 18.078245 -0.123909 
8.361861 19.913229 -4.162312 
-9.712782 15.805889 -4.448859 
23.493488 11.150971 -3.521082 
27.724159 -15.672043 10.979630 
-14.506954 7.509437 -4.191014 
20.363050 14.834294 3.509031 
12.441196 26.831139 7.968612 
-13.799331 25.358156 -2.940061 
24.357573 -16.313519 -2.107261 
-19.046589 11.300103 -0.232236 
-8.746060 27.035099 -7.203993 
20.624249 6.195290 0.973906 
18.812721 -13.605232 9.658671 
22.483921 -16.787096 3.009078 
17.559433 -12.884405 11.116525 
22.137703 -3.454178 8.258186 
-30.819447 -15.049252 12.432953 
-12.397626 25.898180 -4.266357 
25.384909 -0.967969 -3.597284 
24.057274 9.192293 -2.497549 
-15.340827 5.470892 1.627277 
-1.689071 26.847624 -3.968195 
23.142775 12.306247 -8.093658 
-14.440561 19.718283 8.679105 
-29.428604 -0.371653 14.394221 
15.217155 25.751440 -6.842759 
15.083497 7.819543 9.657517 
-10.025065 29.422235 5.315819 
-28.124876 -6.379890 4.279029 
-26.497984 -4.390503 1.348187 
-21.390482 10.802242 -2.095144 
-16.521696 18.238871 4.484868 
-20.901714 -10.628554 -7.125112 
-28.519609 -11.992000 2.201841 
-10.251360 24.351225 7.358258 
13.741793 21.383606 -2.703653 
6.368462 25.455154 9.397526 
26.148426 -13.178477 -2.664449 
-30.544872 -8.953591 -1.173839 
-18.130962 16.605612 6.817849 
1.028999 29.690605 2.233800 
-20.370903 19.761293 10.830591 
15.960000 26.032785 0.883674 
-30.322565 -9.009487 5.428424 
-21.706320 -1.448713 1.505290 
-9.620606 21.579433 7.953079 
-20.962746 11.357064 -0.276964 
-18.517488 17.850937 -2.089264 
-5.579298 19.608582 -5.192798 
-19.678883 -0.102676 5.266224 
-28.810488 -15.163423 -1.807223 
-26.893726 -9.510066 -5.374939 
-22.038054 12.186054 -3.746771 
28.381117 -15.520057 -1.107073 
8.378128 23.471989 9.397148 
-30.552031 -8.611122 13.886665 
-22.135941 12.120713 -4.821420 
17.013660 1.385414 -1.814498 
-19.875082 10.736507 -0.571495 
23.253210 -12.214075 4.090811 
-29.283022 0.956332 3.222902 
6.904544 22.239841 8.118134 
-5.151827 27.162273 -1.722385 
-19.385729 2.868019 9.699450 
22.541031 2.865104 3.431701 
-20.194649 -12.839632 4.475781 
-12.252834 16.980904 0.789907 
25.642136 5.703492 -4.102769 
0.599145 22.991770 9.109570 
29.341888 -9.915065 8.032150 
21.411724 -7.686866 7.977860 
-20.474958 -15.731778 -3.203713 
29.056505 -11.995178 -0.663622 
-6.118978 23.798920 7.364167 
-4.052221 27.534559 12.724464 
-24.772436 -4.459946 -3.849401 
-14.385382 16.772617 8.117307 
-5.520029 23.217829 -2.466061 
20.090935 -5.124211 -1.452754 
-0.633222 25.927691 -5.084248 
23.152689 15.542950 6.228372 
9.932505 14.101208 15.587558 
-24.277353 -2.224189 2.976245 
-20.355024 -10.000601 8.642002 
17.193527 23.157402 9.740809 
16.276304 18.947161 -3.955547 
28.223743 -2.019396 9.711390 
-0.461975 25.347406 -4.163126 
-3.499868 28.565084 -5.705048 
25.761469 6.077848 11.947637 
-30.689171 -14.305702 8.407783 
-16.695017 21.890972 10.124635 
29.494291 -11.121516 9.309772 
-17.454208 16.244566 5.007254 
-27.261263 4.636858 -3.215584 
25.708439 3.723594 4.813943 
21.154730 -0.330562 -4.751145 
-16.685461 6.917568 -4.333099 
26.787710 0.603937 3.155322 
-16.763172 19.807428 8.339657 
0.613262 21.118034 10.711877 
25.006783 7.768836 9.937693 
-18.906137 24.100527 5.717007 
23.040623 14.103731 9.131728 
-21.900358 11.657722 -9.057496 
18.608093 20.518667 4.533625 
-22.005943 -15.716694 3.214764 
-2.623329 29.542852 -4.069149 
-11.300104 28.036129 9.005398 
-18.434986 0.262774 11.270946 
18.495073 22.024069 7.012952 
26.561392 -16.234221 1.947536 
-6.936984 22.318029 -2.338422 
-22.494795 17.867756 7.753479 
19.196182 -1.684038 10.038134 
16.388744 16.238537 7.856449 
17.669987 12.263357 3.368375 
-27.525993 -19.004889 11.478077 
17.973675 16.693357 8.111635 
-21.840548 -6.211929 -2.308145 
-24.427759 -7.625372 8.444805 
-16.287670 17.677874 5.081319 
-14.069499 21.967381 -4.761699 
-13.220114 12.089664 2.146073 
-7.964143 18.851891 14.056999 
10.952688 20.033308 -1.677127 
-21.654041 10.817966 0.312415 
24.202028 7.490863 3.911829 
-30.910786 -12.267223 12.699643 
28.410172 -15.186852 10.876904 
26.614548 -2.508960 0.419233 
-19.246815 -4.948302 -1.860948 
22.325293 -7.645228 6.319846 
-26.103376 5.474115 -2.599574 
17.706827 -0.994212 -3.195591 
8.986753 28.194792 -3.422544 
4.677915 25.308538 9.319374 
15.759943 17.270407 4.760097 
-6.892554 25.190660 4.493979 
-27.569399 -9.409125 2.796259 
7.810653 19.722731 -5.125531 
-17.214964 8.518288 4.279963 
12.547737 16.698797 10.356709 
-18.715977 -3.571312 -5.165478 
-25.369881 -15.629459 10.178240 
-1.218276 30.164190 6.593997 
29.761909 -12.627647 -5.725573 
-11.479608 13.417702 -2.584938 
-0.920589 27.324669 1.712730 
-18.802362 18.023073 -0.445061 
13.886988 25.947138 6.797310 
-6.135081 19.517384 14.177025 
-26.794985 12.318233 5.115892 
-22.838501 -14.113442 -6.120512 
23.259892 -9.527855 11.286572 
25.642433 3.381845 3.188607 
-18.749533 20.680885 10.926547 
-0.798278 29.202446 14.512699 
-3.831479 30.140284 10.635335 
-6.472518 24.396263 6.962013 
-28.843580 -8.479319 -1.601599 
-19.332220 -12.277882 -2.953167 
5.036027 25.719847 -4.114610 
-7.715375 21.998461 8.671445 
-24.416077 -12.062388 -7.171932 
-5.469522 30.642990 9.604781 
-24.687542 -18.129862 1.051647 
21.419596 4.572346 3.366529 
-23.552599 -7.859479 5.239953 
-14.710023 24.256073 11.305322 
-7.195568 22.242138 -4.359190 
27.416544 -16.444359 -2.165232 
-23.566849 14.178555 11.703419 
-29.062374 -16.075621 -1.394580 
5.103756 28.427685 2.187717 
-20.956858 9.211142 3.724846 
-10.154425 26.937153 -2.507911 
-20.883984 -10.829943 -7.920573 
-19.979071 21.480438 10.921246 
23.017094 9.677216 8.015842 
-16.805376 4.248563 7.698835 
-22.405497 7.778460 10.549106 
-24.932692 -7.055233 -4.548045 
-1.764262 26.918684 1.018971 
20.629574 -5.274845 7.531651 
2.501479 29.157917 3.253832 
29.030670 -3.938770 10.322361 
19.235815 5.918370 3.746673 
11.464290 16.918438 -3.615842 
-16.148449 6.281460 5.698327 
23.051115 -2.645134 3.488283 
18.004686 18.812288 -3.802469 
11.981282 25.323818 -2.339525 
-24.964293 -8.061379 3.189839 
-6.314865 27.693218 2.987126 
-19.547731 -3.338721 8.678059 
16.016401 6.655961 4.898101 
15.205639 24.928545 4.818092 
-8.846920 24.152357 8.300605 
16.827744 -0.924041 0.769918 
-18.664141 0.265294 -4.991491 
24.284807 -2.879190 8.578634 
-8.755523 19.402332 -1.625605 
-4.636374 26.487949 12.513258 
9.714210 27.832994 -2.984201 
-21.002193 10.076226 3.213039 
-21.017202 21.637522 3.606733 
-0.932936 30.114777 8.309742 
14.198545 9.595931 -8.215151 
-27.868013 4.933558 9.996244 
20.820877 18.043676 -2.458112 
26.337233 -7.834101 4.696658 
-18.025969 8.895903 7.216802 
26.278582 -10.359249 4.762554 
2.672240 20.463764 11.295023 
-9.552449 25.162207 -3.781080 
-14.474614 25.005690 1.648411 
28.282303 -11.253400 3.415468 
15.305415 18.790359 -1.021822 
-20.322372 -12.502775 9.676708 
-15.198692 5.664898 -4.578698 
-15.724325 13.364767 -0.770648 
20.453569 16.642187 10.361020 
-25.976618 13.457313 2.904044 
5.154616 20.304966 -7.557184 
19.856644 19.662075 7.683002 
-6.276003 19.927624 12.798617 
-21.225151 -13.340102 3.313353 
-28.405699 -10.254696 -3.436292 
-19.796473 -11.801855 9.226168 
-24.930170 5.343755 0.047704 
-24.308399 -0.344929 4.065692 
-16.475796 7.015778 13.546198 
19.780752 -8.481083 -1.975626 
17.626764 0.075568 -3.561924 
18.713863 11.719084 -0.796176 
-27.265541 -1.202100 1.892933 
20.413359 -8.731335 2.646145 
-19.604771 -5.416865 0.077506 
10.593614 23.741186 10.223134 
-23.416632 3.168558 4.352920 
-29.370140 -1.604505 2.397938 
-29.163034 -3.460885 -2.288532 
20.244926 -8.407492 7.759383 
16.390612 18.295725 9.716764 
-21.391817 -16.911243 -1.816131 
-22.452065 -15.878185 6.381562 
-25.271248 16.579679 6.761546 
19.885107 -7.078104 6.042444 
-21.915577 -14.138213 2.590056 
-3.009952 24.764347 -0.318798 
-17.511646 8.792894 6.425560 
22.266027 13.282990 -2.563967 
-20.952797 2.532120 7.129514 
26.189266 3.219537 6.293849 
-28.286297 -1.318731 8.671641 
-27.365263 -0.379216 1.883808 
11.646927 27.542318 6.247526 
25.100302 -4.312547 -0.116948 
11.068100 24.784605 1.299216 
-26.259691 15.210643 9.075021 
-22.255434 2.522514 5.355782 
16.605825 11.221362 3.356364 
-24.067886 -2.347401 -5.195769 
-10.973395 16.388218 15.557167 
-18.470434 23.095713 8.551337 
8.612963 25.955181 10.254642 
-14.255357 20.742405 6.916676 
-25.307478 -16.615688 3.505099 
-17.949190 14.661854 -2.711440 
-22.223902 1.624330 -5.529232 
1.417036 27.056314 10.923602 
-23.756113 8.711834 -9.018166 
-16.030144 6.383981 7.007402 
-21.070129 -14.927375 -0.255011 
-24.215900 -11.361889 3.887485 
18.095560 -12.678987 8.661171 
20.322430 12.157412 3.628622 
23.421671 -11.590117 -0.942333 
-26.840937 -11.407542 3.349519 
26.399967 -11.144451 12.223859 
20.754251 16.029024 -1.349635 
22.283361 15.371055 12.759384 
17.013958 -5.761978 13.212174 
22.555960 5.896988 3.050472 
23.947622 -10.535233 5.024486 
6.981638 26.134510 7.422003 
24.688032 -9.788119 11.713723 
-25.039484 7.390741 -4.563898 
14.989636 19.376074 5.278450 
9.357413 22.372381 -3.644440 
-26.058241 -5.919869 -0.847963 
-17.585890 6.097048 10.856040 
6.363243 29.552967 3.491729 
20.226793 18.301062 -3.101280 
0.825687 24.131966 -2.306838 
-5.177017 18.922405 -8.889822 
15.220659 18.595554 5.908987 
22.937216 10.088515 0.267012 
-26.536592 -14.365563 3.815428 
13.612622 13.559056 -1.789659 
-16.687300 1.481930 -7.676653 
25.277317 3.394531 6.872746 
-16.718693 1.454365 -8.668338 
-29.239388 0.402839 14.442606 
-21.936716 -13.192725 7.689453 
14.277073 15.710293 9.759688 
5.381660 28.997944 -3.765021 
-24.484116 -8.707596 7.138976 
-16.837992 7.048481 4.408305 
22.593616 11.908890 -1.628954 
-24.962210 1.757049 3.601149 
25.426132 -4.310898 1.876696 
16.544167 24.460257 -7.298631 
21.888840 2.527489 7.078020 
10.119789 22.930805 7.005213 
21.381975 -7.633303 6.267150 
24.103304 -17.331968 6.653927 
19.835073 -7.577119 -1.363598 
-4.582831 25.439976 -4.831553 
16.351463 2.400299 -4.059358 
15.083486 25.354568 -7.961232 
-20.776999 -9.535928 0.714840 
-28.840527 2.798168 5.610258 
-23.901325 3.460102 8.035691 
-5.156633 23.920895 -4.109163 
26.582382 3.818957 11.470351 
19.615110 10.046373 -1.659254 
25.654034 -6.620752 8.683307 
28.946774 -9.561870 1.848626 
14.325881 6.694998 12.401642 
11.213526 22.056732 11.592078 
15.764211 4.720941 -8.049047 
19.530890 2.357831 6.360163 
-12.068104 24.640348 -2.296900 
-21.999319 -9.019048 3.189899 
22.607983 11.814259 7.744171 
-25.824865 -16.658730 -2.966425 
18.583916 -10.377192 0.156327 
-17.089514 25.317799 5.485928 
26.173903 4.070266 -0.420528 
8.339880 20.415588 8.909855 
-14.668640 22.405050 5.984082 
-24.437609 5.022000 1.657675 
20.444414 -7.544596 6.468683 
-9.058468 30.367176 6.380945 
-20.427458 -14.325523 9.424798 
5.208422 27.101530 -4.775695 
10.393873 24.319500 5.853693 
-23.039030 -6.488253 -3.404379 
-14.490393 24.939466 -3.015590 
-18.426702 2.652277 8.948604 
-26.860983 -18.944565 7.576115 
-17.811749 8.869526 -2.320399 
-0.687131 28.501539 -3.308936 
-13.594492 21.124002 3.593100 
6.352541 20.728554 -4.603670 
-19.000034 -7.212596 11.579494 
16.280201 20.183989 4.386866 
-20.755983 13.116765 8.325407 
-23.798586 7.998537 9.568448 
-5.191879 27.348940 12.817497 
-18.786331 -5.077688 11.206140 
21.159353 -1.733956 1.684252 
-30.380613 -5.092933 8.122851 
6.724487 24.221830 6.268224 
20.438358 -2.162184 1.903780 
23.146996 -11.091114 11.730479 
14.382253 12.010308 4.489733 
3.765057 24.021259 -1.438597 
5.155297 20.599850 -6.533704 
5.214026 30.252647 7.578495 
-23.528629 -1.168270 -5.457163 
-26.423096 0.399487 10.690360 
-11.374613 16.631876 -0.598894 
3.591036 29.672255 0.131627 
-21.078585 1.554858 -5.607790 
-26.706102 -15.881449 1.824814 
4.794326 29.876225 9.935938 
9.108542 19.712950 -3.618205 
-19.701370 11.561415 3.023024 
18.784891 5.644003 2.686912 
-11.838234 15.043375 3.125750 
-11.148592 25.182165 1.828928 
-24.018158 18.195007 12.063462 
-21.984125 21.757904 7.199231 
14.914077 13.199934 10.774421 
-3.363815 25.422205 7.176048 
22.862934 9.329986 -2.337270 
10.888589 24.288456 0.702123 
18.527174 -9.831023 -5.661489 
-20.136507 16.113039 -1.900208 
-21.604742 5.675343 1.426864 
0.489418 29.200636 3.227269 
25.240314 -4.559689 1.125820 
18.404758 -2.762565 -3.360214 
28.245577 -9.628651 4.454540 
18.628838 -9.321126 1.340244 
16.458815 3.412337 2.349213 
-18.108738 18.916752 -7.587274 
16.644371 12.653874 11.395202 
-9.001822 27.593895 16.251026 
3.944574 25.096447 6.326471 
27.088573 -4.570714 10.235711 
-6.843737 24.703400 3.342316 
-24.163853 -4.917887 7.712758 
28.333870 -0.998872 -2.617503 
-2.557961 26.069759 -6.172043 
19.993711 18.326561 8.844357 
8.353515 24.667593 3.787741 
-22.930763 -10.403967 3.110035 
-20.769773 -6.095093 7.921811 
23.114880 12.956481 13.632592 
17.904497 -3.166888 -1.915871 
13.610766 14.523032 8.470239 
20.159121 -15.800077 6.396997 
-14.375158 24.800701 3.155834 
-5.489399 24.288330 7.300971 
-15.735410 12.550653 -1.224823 
10.454325 24.216478 -2.708147 
11.529472 25.170694 2.236962 
-12.775264 26.495344 16.154102 
-12.809744 28.181908 5.910764 
-12.535020 16.351423 11.529449 
-7.888046 24.778166 -2.541756 
7.148142 19.289322 10.395481 
1.067061 25.986332 12.478344 
27.626221 -16.141930 -3.596225 
18.538889 15.892277 11.582353 
-18.146791 13.693219 3.684287 
20.689432 -4.240558 -3.306344 
-6.346462 25.363754 -2.507325 
-17.049976 9.220886 8.502532 
-24.277092 2.357269 3.598209 
23.266083 0.285297 4.066201 
-27.277662 -1.900273 1.491876 
16.608185 6.061794 -1.469378 
-22.965189 -3.921786 1.877825 
-22.726833 -17.160563 1.615382 
-5.600732 27.572020 1.580141 
18.261391 10.828773 8.606813 
3.302212 29.167496 13.828961 
-30.601961 -6.939889 8.692020 
-10.310951 25.362818 2.322874 
26.110830 3.911357 0.705417 
-29.643661 1.729804 6.588445 
18.026894 -1.217967 -3.967383 
-22.482819 10.317125 9.777878 
28.759823 -8.790885 5.414098 
-13.996532 20.901798 9.079596 
27.573612 -7.215504 6.203340 
-21.216045 -7.361614 1.787803 
-21.972830 11.826258 11.464939 
-28.760809 -11.338127 10.363070 
-22.983946 -5.962792 -1.712921 
5.530066 24.646420 11.003293 
28.388983 -0.715785 7.840825 
-18.010794 12.972692 3.229272 
-5.361270 28.550570 -4.265575 
-31.051962 -10.587971 5.262353 
3.038272 29.100670 -6.701407 
15.392169 9.699383 -2.638337 
-13.033679 22.242170 10.388699 
18.045675 20.085636 15.187450 
13.422144 26.951050 -2.153966 
-8.502748 24.554487 -2.082683 
-22.349783 2.600666 4.371375 
26.662388 -1.418050 1.891952 
-0.662165 24.014063 -2.480893 
-8.417653 28.127491 2.254717 
-22.364357 20.372175 7.853167 
18.849382 9.856850 5.278073 
-18.117193 8.707654 -4.267652 
-7.920075 26.651306 -9.158852 
-26.316122 -16.749708 -0.302796 
-25.065031 13.030513 2.405016 
-22.102581 9.647433 1.621914 
-1.008815 25.230211 -5.449615 
-25.756954 2.204361 9.266349 
-23.985521 9.130616 -3.957787 
-22.040737 -13.257245 1.142432 
-24.883953 3.763520 4.367026 
-10.751761 13.628575 -8.867953 
25.723783 5.996087 12.918430 
12.686014 12.950127 -8.338923 
-19.235168 4.635939 11.119328 
-19.320187 23.882843 6.509394 
-19.536045 2.695089 6.913474 
-19.872131 14.574786 -1.141142 
16.905016 13.846244 3.554922 
-17.351851 2.964395 1.464365 
20.100586 11.827635 11.533584 
15.917612 11.858533 3.079981 
-15.443623 10.157585 15.144130 
-14.990559 24.364422 -5.022868 
-9.612477 16.291367 -3.738021 
18.165689 11.654881 3.140957 
-17.997696 3.896972 5.637784 
-29.044250 -8.818236 0.720546 
-9.687892 19.606850 -0.371340 
21.106535 6.387320 8.599067 
15.029131 14.168052 3.563061 
17.896463 15.371778 4.813987 
-20.986271 -10.492933 3.340840 
21.643980 16.613453 -4.937416 
-10.238028 23.524954 -2.858643 
-21.037321 -15.416305 4.217338 
17.630219 -7.774722 9.592296 
-21.324278 16.810570 7.217612 
13.232650 9.939827 11.423221 
29.526869 -7.404300 14.444643 
-4.719050 26.224878 -4.773352 
14.426435 18.799540 12.517341 
-20.774843 10.021253 6.832343 
-29.442392 -15.941051 -2.740229 
-16.159441 20.308428 0.206251 
-29.461969 -5.341607 -1.980696 
-29.566658 -6.249610 7.040196 
16.534962 24.835428 2.572583 
-16.638430 5.760742 12.826464 
-23.327917 -17.583536 -1.074568 
23.778624 8.943062 4.198390 
20.105799 1.253708 -4.740853 
-1.778104 30.105721 -0.197664 
16.769918 -4.671215 11.448083 
-29.409210 -13.246558 -1.762994 
-31.325724 -10.292463 -3.092326 
-15.030384 10.214373 3.043827 
-14.103737 11.599251 1.880927 
4.869262 25.189045 5.581826 
26.211786 -5.742960 9.036197 
1.743979 27.634638 3.427320 
22.953096 1.692092 3.771692 
-12.109451 25.596634 -2.413182 
16.200737 4.730600 9.408590 
27.114656 -13.334508 12.397975 
-28.420294 3.007663 -7.761567 
-32.206116 -10.174451 -8.690922 
-14.926644 21.197577 -1.465134 
21.293894 -16.742949 9.498470 
28.526915 -2.241595 8.105032 
-1.632987 28.228666 8.319902 
-24.547335 -10.385714 -3.797218 
-3.597326 30.667908 3.546835 
3.873543 22.573963 9.818675 
-22.540215 -16.935225 -5.305177 
-21.282787 -17.863356 8.439163 
16.434887 -2.720217 11.512156 
13.285220 20.106651 -1.615018 
11.050520 27.434540 8.112779 
-24.565552 8.148294 -5.983654 
-24.802996 -17.522493 0.284805 
17.186049 16.447969 8.422490 
