-24.437592 6.049210 -5.022019 
-28.079206 -4.945610 6.337130 
-27.254900 0.048670 11.481392 
-5.942376 16.346544 10.547946 
-16.510784 21.424294 -8.917089 
28.002392 -2.534749 -0.295197 
27.158201 -6.557917 0.972070 
25.418646 -1.971607 11.162769 
14.447886 21.330462 4.729504 
30.745483 -9.725032 5.289045 
20.544264 10.284833 10.843298 
-8.155280 28.261053 -7.152079 
31.461750 -16.860035 4.906641 
23.675005 -8.769526 3.508730 
-22.702049 -17.067068 4.180521 
4.445951 21.797903 9.404061 
28.352068 1.209485 5.267338 
19.563179 -9.052316 0.845998 
-26.632700 -1.840098 0.961694 
-24.752844 -18.976994 12.277572 
25.151823 -14.783550 -4.993699 
-14.701151 6.518822 -1.742929 
23.185774 4.345251 3.692241 
12.139809 23.575996 -2.711174 
-26.769732 -0.904980 5.367837 
-5.235784 23.876493 -4.915691 
-16.094225 5.685889 1.693217 
-16.851217 16.668295 1.945242 
28.362692 -23.836874 7.070795 
8.767880 17.243334 -8.735306 
14.359258 17.720551 7.648013 
-24.414730 -4.339368 12.139688 
-14.304106 9.241244 2.985212 
26.836983 -19.370358 12.773486 
22.381639 11.199685 4.027814 
-24.520454 3.478046 1.057501 
-12.875244 19.657385 7.852508 
-26.459703 -8.585644 9.789934 
-21.923134 -3.291552 -4.736435 
28.265810 0.900172 4.472616 
-12.802550 6.962311 7.947350 
-1.991929 15.012669 8.915921 
24.936701 -13.382175 4.945908 
13.045862 15.468418 0.239372 
16.898977 1.345599 -1.553820 
20.922945 0.152548 2.218211 
-23.379955 -2.136969 4.370752 
-9.303350 17.952282 9.104939 
24.265356 -17.766533 12.294567 
-17.321047 11.295891 8.364335 
-31.569265 -12.697357 14.211635 
-23.254959 -2.867628 3.899271 
26.400974 3.438193 0.075912 
-0.602132 20.809711 11.841317 
-16.923084 -6.752432 8.135275 
-17.552084 4.435950 6.765713 
-23.212400 -6.224098 -0.567992 
-2.649284 20.946356 -8.927094 
-9.454694 27.092106 -3.708781 
-8.805978 19.961620 3.586147 
-30.809694 -16.815304 6.369884 
8.877937 20.715050 -2.770378 
17.243572 -0.687429 -4.016522 
26.227871 -25.926481 10.319816 
24.431805 -10.405520 -1.479913 
28.060953 2.317763 -3.195850 
-12.615590 18.301447 3.908693 
2.386250 24.655050 -1.353441 
-24.454105 -7.406250 8.927646 
22.755411 5.806504 3.214911 
6.771372 25.547590 4.474882 
-24.814922 -15.599899 4.994001 
21.727699 5.066003 -0.788286 
30.300898 -2.395849 11.898073 
16.912142 5.019349 0.546869 
-27.663689 -18.919632 10.397525 
-5.354816 24.014286 -1.528438 
27.927130 0.212282 -1.259381 
-26.895081 0.209497 -6.514118 
20.449121 17.378828 -1.115296 
-21.376690 5.915985 7.452112 
12.866060 18.942698 0.533451 
15.686961 8.481257 -0.488282 
-4.310853 27.944891 -0.733565 
-12.129886 16.071482 0.692315 
27.450623 -9.287093 5.160429 
12.658640 18.140568 7.643792 
28.463869 -15.446450 11.875630 
5.814890 14.683254 9.916537 
26.024355 -18.736471 12.692015 
14.756157 15.189457 -2.520584 
-20.699192 -2.258440 -5.098788 
31.155077 -4.792992 12.118438 
13.054165 24.276684 1.416656 
-31.750027 -13.773891 14.151100 
27.656725 -18.998030 12.773524 
-5.119214 19.751278 9.234591 
19.573130 -5.588143 2.036376 
-14.328022 10.513654 8.807741 
24.452282 -11.031405 12.323063 
6.898353 26.043737 -5.145813 
16.288477 15.622145 11.790515 
-18.148354 15.626727 4.446832 
-1.484824 25.840141 0.467926 
-7.207113 18.517159 -7.761245 
8.813374 22.977329 -1.231544 
-18.062838 -13.079837 12.304684 
-12.276880 13.565218 12.361210 
17.012083 18.835028 5.179429 
-10.691430 20.816643 -3.953631 
-31.052311 -11.912669 10.640679 
24.150736 -7.724887 4.831815 
-21.535896 -6.898329 1.103454 
22.056686 11.523205 1.803932 
24.463783 -12.828408 -5.316703 
21.716808 -9.206618 2.370708 
26.257944 -23.377197 7.980060 
-9.614594 28.152269 -5.421164 
10.289006 25.427208 3.129786 
15.844917 20.864563 -2.741589 
22.977776 -17.203531 -0.708210 
-18.441637 11.581230 -0.984441 
-22.792740 -17.175510 12.512711 
-14.619525 4.987822 -5.423737 
20.099300 15.597301 -4.047982 
-21.959461 -16.527529 -1.857568 
1.878783 13.736060 16.021549 
25.964252 3.751237 -2.437396 
-5.635149 21.726492 7.214612 
1.803782 20.868254 8.171249 
21.492884 6.105134 11.546886 
-26.735767 0.027091 -7.595078 
11.839882 20.236013 6.888199 
-15.234324 17.817284 1.966133 
-6.287661 29.122505 -5.300817 
9.655826 22.130817 2.393286 
23.077137 -14.879156 -4.650952 
16.553017 2.140269 1.015549 
25.997007 -22.927277 12.106716 
-15.937880 0.276376 8.901908 
8.140512 19.768919 12.305683 
16.597446 11.671514 6.304832 
1.820088 18.920511 6.532343 
-24.035336 2.974030 3.018702 
-3.556743 23.039259 1.305039 
-3.497750 29.398340 -4.267834 
30.461414 -14.752612 0.098803 
-29.131159 -15.497972 -3.436054 
18.795391 9.260502 -1.419710 
23.700588 -7.751870 4.155508 
31.678591 -15.864071 6.240689 
24.418159 4.778907 10.489923 
-4.678531 18.654940 6.609143 
-23.581573 4.224789 11.067347 
23.066349 7.525662 -2.572826 
20.070236 -10.694742 8.931844 
29.713287 -3.628193 -3.168868 
21.016005 -9.518725 -2.944557 
-4.987119 24.382212 -2.241548 
-23.130571 -6.187630 4.985329 
25.060125 4.544053 2.861288 
20.457382 0.361707 10.013261 
-25.387194 -17.182928 0.115879 
-17.081118 15.135547 11.784894 
-8.092733 23.515593 -1.263721 
-30.024971 -9.362531 -5.664318 
-15.708888 2.409662 8.277761 
22.544727 6.319571 1.100856 
31.714314 -14.724652 9.034651 
27.984316 -23.528419 6.280251 
14.171669 25.007303 -1.900506 
-12.078703 22.011106 5.120243 
22.984837 10.615921 7.345245 
11.736111 20.870626 14.461452 
5.872128 26.246210 -1.324480 
27.009195 6.335737 10.337120 
-25.784277 2.794779 9.382913 
-17.148891 2.940923 10.438427 
31.079380 -14.909145 11.234049 
14.585169 8.433290 -4.723127 
20.454655 4.833663 1.982786 
32.471642 -11.157290 15.009563 
23.285982 -6.155475 2.538022 
8.901417 23.391573 -3.955896 
17.194489 2.566165 1.931048 
-29.404537 -5.358215 14.634724 
32.357906 -9.973022 14.108837 
-23.366484 -4.348410 -4.001220 
-18.856537 -2.942688 4.295439 
16.651236 19.986286 -1.122490 
29.081985 -1.634049 -2.386147 
29.920536 -18.913221 12.576756 
-13.690373 17.467108 -0.558736 
21.618162 3.839651 4.225767 
21.959332 4.030127 -3.902227 
26.198114 -20.105225 5.896096 
-0.830909 29.356970 -2.857995 
-20.730093 -17.109636 5.976912 
-13.417426 16.514175 -3.224862 
23.336977 7.045888 -0.114917 
26.117538 4.941370 6.030768 
22.333618 -0.597727 -5.026371 
-25.310692 -4.174404 -2.450335 
17.093126 19.079578 14.015667 
-24.382397 -8.667648 11.782298 
25.902796 6.356518 3.794869 
28.420652 -10.784199 1.574743 
-20.056223 -9.468766 11.132147 
-7.517008 21.875780 6.860471 
-20.290279 -1.297235 -5.159016 
-4.420441 27.919941 -2.620332 
-6.490306 16.687765 11.013887 
-31.006514 -11.380730 9.946215 
32.004082 -7.496950 11.229404 
-29.151472 -5.560467 9.905383 
8.715035 18.876404 -5.230078 
20.766981 -8.098096 5.242006 
18.785723 -5.224820 12.656364 
27.051224 2.678935 8.896487 
26.659283 -18.239662 -0.215847 
4.288183 29.313692 -6.246610 
-12.681348 13.619566 5.794232 
24.255039 0.846713 -4.309126 
21.461758 -7.492718 1.343280 
-23.245951 -12.222950 4.379869 
-20.974440 11.062086 -1.082156 
-19.259001 -8.988358 0.890784 
-23.266800 -3.572464 -4.222921 
-23.088133 8.723410 -6.861900 
-24.846634 1.871538 5.329275 
0.867922 26.152403 3.707970 
-31.073162 -13.788888 10.839414 
1.240540 28.380156 -1.384844 
28.714216 -7.313679 4.270736 
-3.605660 21.904894 11.946651 
23.123966 10.247061 5.022615 
17.702723 21.754910 -5.239207 
12.226118 19.750065 10.254004 
-10.351635 15.040073 7.253352 
1.141505 21.214954 11.674152 
-17.600065 -3.285619 9.787333 
5.245008 16.766197 9.789094 
10.792765 19.957123 10.464798 
23.089558 -20.802652 4.889178 
14.376224 19.859568 12.889798 
13.633337 17.956932 -2.095226 
12.015415 19.664351 9.381027 
-2.455969 21.397966 -7.593215 
-23.703087 4.586256 0.282163 
31.818047 -7.746974 14.341358 
-19.937719 10.004060 3.094607 
-15.330972 20.664225 -5.880523 
32.400379 -15.230203 9.162133 
7.780684 26.680614 3.788310 
-20.150494 3.562607 11.183020 
8.228829 23.207590 -0.711115 
-20.240892 -16.185940 5.848073 
25.653316 -17.077658 -2.426611 
-18.332903 15.182067 5.218302 
-20.395451 -4.622012 11.730686 
-14.665524 24.023630 0.357901 
-13.074983 9.407233 -6.017614 
18.891655 11.066832 -2.098941 
-31.186962 -12.237490 8.843428 
1.176031 29.836464 -5.314876 
21.486221 16.720747 9.508326 
-21.506390 -0.446151 7.140211 
25.930466 -1.357990 -3.693295 
-8.179052 23.838593 0.599872 
14.212261 11.880836 0.327560 
-27.088232 -16.301039 -1.210374 
-15.152167 14.840484 -3.263562 
-17.790543 5.171801 -3.564505 
9.619162 17.670099 8.286762 
8.838626 21.039335 15.539944 
-19.930365 3.614157 -3.172023 
-10.031581 23.294069 3.111627 
32.003967 -21.350687 11.441842 
30.426199 -12.652673 2.269531 
27.395967 1.250541 2.880617 
16.890457 -0.284840 -1.685604 
-4.234980 28.701155 -2.443277 
18.424654 -4.620735 -0.856263 
-0.756162 22.037611 -6.512345 
-16.448101 -6.015988 13.769533 
-13.701475 23.639942 2.602626 
-30.670887 -9.395017 13.473276 
22.066027 -23.866024 12.289382 
-23.331564 0.246965 5.867798 
13.645593 24.758831 -0.408683 
-15.541469 5.051540 1.513656 
-13.518923 17.372972 0.589587 
-11.131065 24.857605 1.699651 
-22.134821 -15.130940 -3.118498 
-28.935551 -11.031386 -1.822495 
-20.556215 8.465998 3.581900 
13.623301 16.387177 -0.494169 
17.777538 7.479417 8.050707 
-9.623304 20.125620 13.029743 
-20.075209 9.582472 -3.898418 
-11.383706 24.250122 -4.039712 
16.271076 23.838743 -6.759770 
19.527491 7.414338 -1.497319 
-23.998796 -12.464955 4.371480 
15.652598 18.264633 2.325566 
24.485771 -16.029621 -1.937271 
-10.182948 21.207474 7.481257 
-25.991268 -9.419641 -3.478848 
-13.655115 6.814445 5.587438 
-15.993814 21.063799 -1.911780 
-17.409191 -2.213046 -4.696152 
-18.030897 -12.073103 11.395837 
-19.941000 -13.295569 1.193526 
6.430907 23.016794 -4.464184 
-16.250164 21.763145 -2.419596 
-21.381184 9.886417 1.668194 
-13.917416 18.526062 -0.503445 
-4.089296 26.843679 -0.993253 
16.308561 22.330851 -9.063971 
27.457560 -6.572488 -1.172073 
-30.183805 -8.347580 11.673842 
22.021111 -7.549276 9.593021 
20.649300 13.996167 2.298581 
-23.018089 6.846898 -1.155467 
-10.633921 13.770547 -8.470959 
-17.423464 13.238309 6.966022 
11.998086 20.443277 8.570783 
-20.323946 1.615734 11.055293 
-10.715632 21.652025 1.700643 
-21.313776 12.562681 -3.354067 
9.115993 27.659399 -5.082722 
25.468660 -21.115856 12.521633 
-19.632029 10.642701 -0.900024 
-23.680450 7.908163 -4.431679 
20.309570 -19.442085 14.423575 
14.511760 8.105303 -8.199087 
27.077850 2.443118 -2.242363 
24.932348 4.539313 -1.701596 
17.703953 7.473071 5.056133 
-7.691690 10.718424 14.013038 
0.915176 14.410830 10.576706 
-25.758173 -20.243128 6.950194 
-11.332509 15.751526 5.148352 
1.760761 18.257364 5.847799 
-15.263727 -0.626878 1.112218 
-4.776659 26.852980 2.851873 
17.105486 20.919044 3.744724 
-23.582314 -19.773205 6.892206 
-20.961006 -6.834555 3.128791 
-16.165380 23.169260 -5.852240 
12.776811 22.502150 5.188348 
-19.773260 -13.096096 9.130909 
19.603802 4.430961 1.703403 
19.796293 13.655882 12.782815 
3.879030 14.752869 10.894345 
-7.819502 24.791101 -2.591453 
11.863234 18.157614 9.615803 
-21.217653 -2.862426 -2.111932 
5.907748 23.597651 8.178351 
-27.066008 0.483648 -4.631881 
0.228031 13.971608 11.988418 
28.108795 -15.523027 3.620787 
25.281034 -1.056074 -4.042494 
24.291353 -8.589014 4.246215 
5.302264 28.157555 2.073658 
-22.993183 4.999010 10.616917 
-18.376951 -3.900295 4.003862 
-28.341385 -7.518653 0.982218 
28.031313 -4.652365 3.836671 
30.545507 -16.526880 12.019716 
-7.657205 26.056162 4.482440 
13.465178 22.993359 4.794347 
23.707005 -4.437812 -4.196923 
0.555866 29.927027 -3.195997 
-14.046202 13.004747 0.979657 
-8.834923 22.693190 -0.692351 
19.089647 17.140091 1.797909 
15.584002 7.126572 0.657512 
-16.066191 9.817755 2.951335 
21.814709 11.197743 2.704159 
-15.946191 6.478246 1.926736 
-13.081619 15.945411 13.232352 
33.138744 -20.641275 14.501466 
-11.041899 15.590345 12.263505 
-22.522829 -3.177799 4.695157 
-13.862943 18.790644 3.037021 
-24.182980 0.097143 5.809245 
-14.503315 10.050959 -1.929831 
17.919376 20.568956 -8.961994 
3.606415 28.690096 -8.332786 
3.120142 22.001530 -5.612905 
21.612906 -4.237581 2.435854 
25.153198 -5.173895 -1.460621 
27.896990 -19.072638 6.142429 
16.985401 17.532009 2.985281 
5.387996 27.947727 0.572154 
15.146712 22.757248 5.723269 
-19.758415 -7.423450 9.329716 
17.675489 0.432261 -3.064152 
19.721849 3.558559 8.188289 
-26.362345 2.315772 -1.446291 
18.626333 18.853849 -1.593801 
14.743107 14.277627 -5.579363 
-22.666861 9.621602 -7.018521 
20.362509 7.351490 8.379037 
4.579335 18.595345 7.106206 
20.667095 7.662354 4.028930 
-20.958057 -11.695665 10.152414 
-27.146006 -2.338862 11.023354 
20.592463 8.867173 7.011868 
-27.424492 -9.265995 0.461698 
11.605027 19.308949 6.300868 
16.362991 20.425776 -1.928420 
20.649416 -20.585791 14.365195 
-17.670383 -8.008602 8.993119 
-14.463267 5.952670 -0.961293 
22.503571 -13.191420 -5.176873 
17.047649 13.746635 -5.494309 
29.864311 -22.538876 9.460275 
19.439909 2.854187 9.227377 
26.592695 2.773170 3.954095 
-13.263010 8.612885 -6.998269 
11.313306 22.601435 -5.952744 
20.309040 -3.147261 6.915117 
-0.329605 22.360617 12.833678 
-26.498844 -14.804232 -3.166219 
26.244919 5.149454 -3.015379 
-22.110485 0.499354 10.442280 
14.046411 19.307180 6.780916 
-10.585084 12.112701 7.662935 
2.161618 22.920483 11.299389 
-21.470016 4.829424 3.498137 
7.791075 25.068455 4.368573 
6.931647 21.253788 15.635588 
-3.849602 29.228714 -3.227943 
-16.635914 -1.712040 -2.748772 
26.307104 -2.296381 -3.407586 
33.075577 -18.467703 9.875837 
4.542470 17.273073 9.043942 
8.669323 28.228645 -6.534641 
-3.495714 16.519306 7.092270 
-8.206796 17.460777 -7.830338 
-14.436807 6.947192 -3.357519 
-25.305923 -20.986601 12.847241 
21.783094 -3.050108 1.888823 
18.654804 -1.201391 1.628410 
8.029134 19.444965 -5.343947 
6.068996 19.889616 -7.722604 
-30.107445 -7.322642 12.567288 
12.604473 18.689825 12.758426 
20.619833 -15.219221 0.410368 
27.906487 -1.814608 0.035663 
4.074069 22.156219 2.994290 
21.789837 4.064926 -0.504783 
-24.875826 5.064286 6.822081 
23.046297 7.061967 2.728326 
-16.165850 5.583468 5.923035 
-30.050081 -18.463120 13.915158 
-1.192854 26.580256 -4.481890 
-24.270071 -16.232725 -3.123979 
1.484553 27.951551 4.095877 
16.273945 8.077357 3.126195 
14.402569 25.214806 -3.784919 
-9.050746 12.816727 8.431562 
18.324650 4.493445 10.691092 
-5.541879 25.085575 0.682099 
30.016665 -13.294091 -2.387060 
-13.808697 2.082974 15.213149 
21.530090 -15.769671 -1.487634 
17.050737 6.183692 8.790393 
4.960910 22.441076 9.643476 
-18.193754 -14.158695 13.323656 
-19.244904 16.337542 -0.784052 
-14.684636 10.739307 6.871712 
-19.281513 -1.819773 10.714306 
-18.295910 -1.918138 -5.194188 
-7.879929 14.913503 9.671770 
-0.708171 23.744991 4.791086 
10.707058 22.118910 8.645771 
-28.561571 -11.433623 12.457017 
12.135361 20.514593 2.110182 
28.887783 -15.492058 -2.996388 
17.618074 9.418378 -3.623468 
-21.356085 11.626678 14.742365 
18.536085 -4.573104 -3.630401 
20.243692 -11.205500 -5.628068 
17.778728 1.008323 2.622390 
15.074387 17.980410 7.067932 
13.276062 20.228420 11.784757 
-22.181686 -3.114605 11.803187 
25.534143 -11.820534 4.519253 
-1.655005 18.435936 11.068456 
8.866722 22.313530 10.969723 
10.356723 11.372471 15.987617 
9.804213 12.352424 14.552689 
-18.140068 1.418173 10.696445 
5.154551 28.235868 -0.991534 
17.677200 17.794497 10.912207 
-20.565697 14.477417 -3.909035 
14.482744 8.195332 -6.907728 
-17.305134 13.081480 -4.037301 
16.666546 5.653444 7.876528 
-16.940302 11.442433 0.861576 
0.295663 19.303213 5.106046 
15.391418 16.188774 2.553118 
29.800558 -12.350172 9.981846 
20.709202 -1.919374 10.645697 
19.877357 -14.055667 12.715430 
31.092451 -7.769187 -2.994912 
-24.023342 -3.607487 -3.860268 
19.688177 5.592793 -3.114900 
15.545839 18.821836 12.235110 
-13.316768 16.765629 -2.143411 
1.257555 25.927952 1.259287 
-16.266554 11.798864 1.796218 
5.391569 26.390924 0.831931 
15.121620 20.245895 3.852006 
-29.933056 -16.325720 5.103446 
23.345598 -6.844766 4.058142 
-26.195845 -15.867272 6.264687 
5.958672 26.057508 -2.497370 
29.978939 -3.555229 -4.397844 
-9.691031 16.897970 10.907802 
-18.324202 17.848450 -2.790671 
28.851578 -3.976467 -1.298624 
-1.528816 21.841423 -6.878870 
25.646940 7.282859 3.497209 
18.451189 18.423882 12.996857 
21.938124 12.981463 -1.693417 
17.249245 5.723697 4.000265 
-25.274076 4.283121 -4.946316 
28.719234 -25.946463 14.163794 
15.828668 17.591881 10.648296 
-26.006840 -15.508025 4.278090 
-17.019983 10.590960 5.041269 
16.337540 3.244245 -4.454544 
27.999062 2.517884 7.405647 
-22.037354 -10.835193 7.594170 
-11.215137 17.794390 8.835509 
-9.763856 19.714100 10.494326 
19.516417 -8.346911 8.051999 
-12.779976 10.797315 9.415067 
-17.952971 1.404224 -4.709338 
16.262497 3.731134 15.638107 
-16.556229 23.289030 -3.413311 
-18.608717 6.542140 4.382523 
20.579636 -19.976040 9.729137 
-10.469916 10.883777 8.688534 
-8.124397 13.700027 8.127628 
-21.551477 8.681499 9.952961 
-17.468721 -10.091830 11.691323 
-21.695364 -1.675122 4.229889 
-14.261922 13.140375 -3.463556 
2.484120 25.031658 -0.638656 
-11.818616 14.242188 -3.864892 
-27.011967 -0.333914 9.434875 
24.011848 -3.385365 9.865846 
15.007349 22.435612 7.242894 
-22.213026 0.022231 8.465787 
-24.799429 -18.557686 9.987732 
25.199657 2.962320 8.397045 
24.335665 10.457010 -4.566696 
-4.456438 27.132328 -2.362607 
31.781204 -13.354257 -2.683311 
15.594367 21.902117 8.188949 
20.814392 11.024623 -3.460320 
-10.508080 15.872639 11.151797 
-28.364126 -2.006249 11.042336 
28.127542 -5.477068 3.862316 
22.676193 -8.742303 3.203904 
22.863276 12.110995 4.927261 
20.252966 16.764683 0.706439 
3.819563 21.438627 5.686602 
-19.363813 7.544570 11.110012 
-22.525171 -17.093384 0.564397 
-21.351202 -14.842955 9.763459 
-5.607928 21.164064 13.262745 
-9.970177 20.479778 2.907439 
-14.801346 17.712513 14.462591 
18.455204 19.796293 7.598793 
-14.845881 19.239040 3.260968 
-29.862764 -7.912533 -3.255557 
-24.245693 -7.159569 3.418445 
-20.717464 -0.553336 -5.051756 
17.721296 21.681261 -7.027090 
-21.789827 -3.185173 4.397162 
30.671417 -6.668063 -2.931740 
13.032395 22.568119 -6.387217 
-18.621273 -10.101958 7.593332 
-20.404217 -8.790224 2.161546 
-3.283000 30.142399 -4.569974 
-17.224403 8.632996 11.466351 
-18.940229 14.239473 14.810985 
-16.769087 -2.649555 -5.697346 
-17.859066 -6.276674 5.020401 
-24.347733 -15.979581 4.038360 
-15.967449 13.258366 12.468844 
10.792096 24.445221 0.044533 
12.392612 9.733219 15.921215 
29.583891 -19.163132 5.355473 
29.364407 -1.386762 -6.303826 
-12.003461 13.222482 5.893508 
-23.304098 -5.423925 -3.173494 
-20.256992 0.441748 -2.389745 
-18.881277 3.780398 3.606009 
14.090112 8.934742 12.271870 
-18.523170 5.746364 -1.427366 
30.598843 -11.557713 9.830506 
-20.232708 5.190463 0.164830 
-24.875175 -4.782702 -1.762033 
13.468161 24.587669 -5.191948 
24.735134 -17.785318 1.490552 
-11.837329 18.353605 4.352931 
11.975910 24.554571 -2.222831 
-25.853973 -2.787588 1.910694 
24.825317 -14.948095 7.157412 
-23.668129 -4.996720 3.304724 
7.946664 24.602072 -5.380516 
-12.276625 19.072428 8.369137 
-18.538370 -1.993420 7.790807 
-8.626304 24.528708 -5.121859 
33.254978 -17.896976 14.651938 
5.053141 21.690172 -4.793158 
23.537004 -12.417420 2.040030 
-21.546822 -0.552968 4.460394 
-14.651737 10.695390 -0.776612 
16.080427 18.753170 15.842795 
18.116226 16.620537 3.897069 
22.953831 5.351680 0.951413 
25.453270 -23.847927 6.987024 
-17.987720 14.149109 1.964764 
26.847281 7.189334 12.157938 
-5.531748 20.864727 14.215527 
18.502211 18.309361 8.574942 
-16.114012 22.309332 -1.754182 
-15.551359 13.777582 -3.041498 
21.970549 8.256024 3.891230 
-18.752542 13.992827 15.805418 
14.954794 22.677961 2.571242 
21.089663 2.425754 8.129935 
-20.446629 3.184300 3.329471 
-23.844448 -19.722813 9.211890 
-21.404396 -15.183704 -5.126465 
-17.418779 0.017215 3.982121 
-1.201550 17.045317 10.219750 
-17.561335 4.383594 9.410345 
16.085535 19.681963 12.798685 
27.929024 1.955621 9.867361 
-30.395864 -11.783866 6.367131 
17.566164 6.063165 2.483627 
-24.126358 -16.979650 4.395000 
14.021840 13.102850 -3.476965 
-25.147209 -4.257582 1.633303 
-4.177986 15.221951 8.083971 
-6.710316 18.526766 -8.769449 
28.849131 -0.391571 -7.725733 
-17.572796 -8.177427 6.637523 
29.335218 -1.399378 -4.059052 
13.726441 24.270542 0.779183 
-6.437736 27.986095 -4.437016 
-16.993994 2.359496 1.782082 
31.029438 -4.628332 11.239302 
-30.288103 -10.539377 -5.689957 
18.093721 4.923866 -1.232527 
-15.517583 0.107081 2.670591 
19.590622 -8.906016 -5.334575 
29.878283 -25.353828 12.760459 
13.416115 10.628393 -7.106362 
-25.127686 3.621494 8.719288 
-27.493597 -11.090353 4.747356 
10.877844 12.264596 13.708659 
-29.769375 -6.364108 14.575975 
-25.464815 -2.439082 9.119830 
9.462831 21.575628 -1.593232 
-22.410645 10.706163 -2.053669 
23.172522 -10.736423 2.390141 
17.239916 8.449811 -3.866749 
-28.699852 -12.094597 4.717860 
17.612265 10.763562 -1.185586 
-25.563467 4.550639 11.283788 
-17.503168 -5.284222 5.105102 
-16.688669 -6.101096 7.707355 
31.268440 -14.617376 -3.786458 
15.243537 17.187330 6.919109 
25.001974 5.696043 10.729453 
-10.865500 8.623819 10.953951 
-26.410349 -1.503044 10.848034 
20.611372 16.896055 12.087787 
-25.107355 -7.148121 0.799135 
8.803876 27.084398 -3.457031 
-23.892256 -14.748027 -4.163401 
22.462362 -3.920555 2.983404 
19.115105 -7.141991 11.956840 
-27.322781 -14.795053 -2.671795 
21.776974 -5.223687 -3.534160 
17.576624 7.638834 7.074779 
23.715332 -16.730818 -2.674349 
-18.884518 5.666317 4.553976 
23.427460 5.791404 11.471034 
-10.158006 21.658178 -6.268707 
-16.294552 22.507318 -5.397918 
19.085587 -8.661139 12.600111 
17.998142 18.553545 10.602264 
0.433430 25.209120 -1.162980 
15.949119 24.289221 -3.581668 
-27.344194 -17.284946 0.835394 
3.054887 22.808683 7.016586 
30.393677 -20.282116 12.474098 
22.509407 -5.966621 -1.860688 
-10.901125 17.650949 -3.292823 
22.771036 7.469525 -3.389659 
-7.593894 21.178755 10.156598 
27.806501 0.193775 0.071331 
-13.236334 17.311817 13.318105 
-7.942300 18.104063 -7.209142 
17.316519 21.002460 8.091111 
23.914646 11.153985 -5.207803 
-19.289330 5.247821 9.802726 
23.930029 6.544658 -0.385277 
-19.440744 4.516493 3.982566 
14.508635 14.377604 10.125262 
20.447800 2.339563 5.577862 
-19.121326 -10.610509 -6.103126 
-18.565815 17.598501 -3.620936 
-21.823244 7.408540 -2.646104 
18.868555 17.107046 8.413434 
-28.370625 -6.642943 7.389706 
-25.675282 3.589916 -4.021142 
-17.181755 13.186052 8.300903 
-11.219880 17.173830 10.751143 
11.377460 19.089016 7.357939 
21.195518 -13.492955 1.410571 
15.431770 13.273374 10.881886 
20.425493 -1.947629 -5.207995 
28.168896 3.709717 13.108575 
26.166927 -17.179594 5.318118 
27.388653 -14.641906 5.070935 
23.214369 -18.776970 12.175786 
-27.399359 -16.007643 -2.111813 
16.942562 20.889774 9.404294 
-3.017851 25.886061 -0.061232 
-13.871202 15.072268 2.251202 
-30.690504 -17.435179 7.130576 
15.864941 11.908414 10.946415 
-28.055367 -19.480433 9.806142 
-20.647789 -18.169996 7.084681 
-25.264496 -9.646796 4.808994 
3.667653 25.346138 -2.294368 
30.066456 -13.321397 2.753340 
20.003695 -4.647521 9.068947 
26.468861 -9.300879 -4.099262 
-20.462509 -8.791319 8.965470 
-30.222141 -10.402772 -0.259948 
-28.468840 -6.306758 8.271320 
-23.536470 7.757674 -6.699268 
0.102968 21.236374 11.843601 
-27.442009 -16.228800 -6.610535 
30.442156 -15.779048 -3.663456 
21.002140 -0.365761 -5.184543 
-23.241268 -9.123070 -1.148725 
29.315998 -12.855561 9.519923 
-8.783710 28.381332 -2.764193 
-19.674633 6.055152 7.584915 
21.953770 2.809690 -4.411237 
0.957420 14.705656 9.603717 
-3.696438 23.293455 2.150253 
22.341490 -16.773108 1.502223 
-19.847555 11.493687 11.237291 
18.677557 18.793694 -0.677009 
-16.535700 13.988849 12.088555 
11.841860 23.908764 2.982710 
-25.343119 5.248230 12.436741 
-6.706553 18.185602 4.872407 
-20.402885 12.961330 -1.849239 
-7.081588 26.833910 -5.735497 
23.610256 3.301381 8.155160 
12.736801 24.082022 2.126734 
-22.845207 -20.972902 10.891198 
20.415361 2.911613 4.103125 
-27.327553 -10.433112 8.450958 
19.773277 17.010265 1.363356 
-15.145074 3.294893 -5.820015 
22.405165 -5.236773 3.129258 
9.799438 18.526659 5.263496 
28.915281 -4.018895 7.811276 
24.664339 -4.165684 4.947099 
6.570545 27.500437 -0.987184 
26.459421 1.419451 2.827875 
-14.638881 18.963249 -0.184584 
10.139882 16.030922 -7.564699 
22.769171 -17.207420 0.439428 
-21.321348 -16.288385 12.065086 
-18.977142 18.170172 -6.520066 
20.145958 -10.732188 8.012457 
6.302669 26.397564 -4.640053 
29.692875 -2.466196 -4.747724 
-17.340851 -0.771000 7.116686 
31.993053 -7.607037 12.879095 
-22.867966 5.946663 8.798589 
27.931026 -13.614213 6.186500 
-16.675211 -1.753637 -6.783746 
18.835407 15.590781 3.148659 
-15.678654 1.000427 5.769672 
-20.079906 15.025517 -2.460550 
-13.182317 11.069556 0.074300 
8.982431 18.757650 5.628846 
-7.158695 21.123251 11.778936 
-27.755146 -7.198726 9.598594 
-29.985781 -18.426508 8.227954 
-16.690786 12.914246 9.289948 
-16.309456 -0.131324 -7.614757 
-16.640541 17.886309 2.210016 
-9.863960 8.241161 15.591893 
26.363867 5.720149 7.541837 
-26.560846 -0.902503 1.073937 
14.911407 18.052681 11.239390 
-0.608362 14.738343 8.846775 
1.263599 28.758253 -0.459869 
24.803534 -17.633196 -1.160676 
26.382215 3.254414 6.762829 
-17.062428 -4.390162 5.844395 
12.825547 13.851623 -3.464140 
22.953833 2.638137 5.278630 
-11.384111 18.799324 4.873595 
7.000618 17.297476 7.996338 
2.669315 19.199625 9.479590 
1.367849 27.756062 -0.914448 
17.047102 17.082779 8.598062 
-20.766363 13.789333 -3.505773 
-18.036640 14.727924 4.182407 
30.790667 -14.243355 -1.545750 
-28.702843 -16.201145 10.896737 
-17.151066 -6.618325 9.796228 
-17.661324 -8.206487 7.974649 
6.282291 22.804928 12.039255 
0.910684 27.053905 -0.827891 
29.673685 -17.648190 4.458219 
-14.845246 11.569359 5.519462 
-27.653805 -0.662681 11.747913 
30.839911 -14.378051 9.487536 
-16.022120 -4.507200 12.481266 
1.292609 20.967789 16.408119 
-19.210005 17.150003 -7.577264 
11.085651 21.555634 12.682419 
-15.130821 22.452833 -4.208905 
22.230402 0.540134 -4.935292 
-17.901314 2.415790 -3.013103 
-27.177118 -8.129688 9.426759 
25.717634 -14.405255 8.923748 
0.080576 18.086342 11.022447 
15.489523 19.687117 3.225878 
-17.356535 14.278853 4.030577 
10.611027 23.014917 4.388583 
-12.986181 7.565738 6.378762 
25.733391 -12.598238 4.706969 
-14.486579 19.516481 -4.368078 
5.318003 23.081175 9.133516 
19.403246 17.581638 4.301686 
13.851045 14.595126 -3.900342 
24.451384 5.231898 11.173737 
-6.554166 16.052975 6.531559 
0.276103 22.562101 10.706318 
15.705896 20.567375 2.637429 
-9.248435 24.031281 -0.740108 
15.960797 17.267214 6.186465 
-6.518395 28.372206 -2.440502 
-23.334484 -6.889280 12.125834 
25.201624 7.199870 -8.174354 
17.884548 -4.073301 1.664821 
-25.873402 1.826749 -0.378612 
22.840561 13.019279 -5.741429 
15.636582 20.765621 4.305262 
-21.468210 6.530193 1.126456 
-11.019608 14.648130 12.097389 
7.208882 22.752562 10.416437 
-26.835564 -0.894300 -0.010712 
-28.375126 -15.288499 1.932650 
0.167024 16.349281 9.537262 
-7.174124 25.333267 4.355141 
2.751120 18.765579 6.836492 
23.987209 -3.747930 8.736370 
8.713667 17.290434 6.379349 
27.985237 -2.498210 6.680990 
-10.242050 9.299133 11.254980 
-8.307983 17.531317 6.041363 
-22.724535 -19.687216 7.396120 
-28.036894 -16.744911 -2.139800 
-31.222923 -15.386814 8.885659 
-27.660257 -11.052268 12.294676 
22.074574 8.196305 -3.915447 
7.292359 27.086201 3.206210 
-24.200220 5.723489 -7.946501 
23.230330 -9.528047 12.223830 
33.066502 -17.108397 10.352116 
28.371477 -8.624800 4.844974 
-30.149977 -7.320128 13.513548 
24.222275 -12.714814 4.471596 
19.998005 -17.337263 13.590635 
-17.107546 5.535645 -4.069798 
-27.536217 -12.007285 5.019603 
22.788223 4.261206 -3.598997 
26.189856 -14.471081 6.459345 
29.913778 -9.405533 2.128665 
-22.688992 -13.320558 3.918878 
-16.383156 0.055358 -2.756795 
2.863629 22.973660 10.767343 
17.727041 18.326666 4.967037 
26.021381 -11.563843 5.433899 
-19.654316 -1.307373 9.287169 
-20.687668 -0.745451 5.337137 
21.746798 -7.091604 -0.433464 
3.243554 27.918800 -5.017069 
-19.122412 13.574923 5.871444 
2.924510 22.590406 -4.385926 
21.465218 4.255916 3.373136 
6.272445 27.217211 -0.120636 
-11.286580 10.106362 8.607728 
16.774126 1.695487 -4.523984 
-28.072487 -9.818838 11.650503 
29.699295 -0.813029 9.670906 
12.295379 24.551107 1.149133 
16.382053 14.942941 -2.860983 
-26.610428 -13.977328 -3.333497 
11.112672 14.382275 -8.568952 
19.943163 9.821143 9.760671 
25.946331 4.227701 -0.375525 
-24.677765 5.289770 -3.807054 
21.263798 13.645051 12.918835 
-11.373132 18.951145 8.119630 
-14.908732 15.260503 13.394136 
-23.146482 -5.782455 3.105693 
15.573020 7.883355 10.165775 
-22.587914 -9.036844 3.478661 
31.193851 -8.078694 -5.624000 
15.821168 6.597311 -0.147826 
4.866159 25.822109 0.526062 
11.832823 26.329954 -3.083956 
28.757954 -3.957128 5.193180 
16.251183 6.691698 1.945132 
22.963125 11.408550 0.145365 
-21.440201 -9.406160 11.413663 
-8.630390 18.960939 -5.031655 
-26.407675 -14.953074 6.413029 
19.494999 10.628719 -0.885796 
18.614122 16.919155 16.381218 
-13.306392 24.920385 0.478556 
27.253481 4.994545 10.082938 
-13.036096 7.712873 8.029385 
-27.101326 -4.669723 11.898592 
-17.414448 -4.148784 10.628369 
-21.750841 -1.181401 3.426020 
21.842520 -7.648798 2.103216 
16.997551 16.085768 9.193640 
23.068340 9.577460 9.417103 
-20.670643 -5.209492 -4.538290 
-31.051525 -15.284230 7.394671 
-14.675428 13.436787 3.042508 
16.586067 10.639811 1.693713 
23.439314 7.837822 1.728084 
-25.889816 -9.558531 5.341427 
19.338039 15.933175 -4.955387 
-15.178704 7.351071 3.144070 
-13.617102 6.533776 9.575444 
-17.447104 12.138439 9.830958 
14.283672 8.938770 -5.626987 
17.954254 3.138610 8.241495 
18.324659 20.417404 6.018335 
-12.631516 17.718538 12.286777 
28.534960 -1.894065 6.876139 
10.749151 18.733292 -2.032050 
-18.216633 19.724943 -6.399394 
20.827976 -12.871365 8.626485 
-24.740307 3.384608 -2.149878 
-28.003159 -2.938097 -2.523724 
20.592588 7.049745 4.745809 
-5.237398 16.297956 6.525635 
-6.369166 27.350697 -5.287609 
19.546795 4.879674 -1.065352 
-11.527521 19.976978 5.607466 
20.093107 14.151373 -0.836280 
-21.915482 -8.785829 11.659002 
6.908471 22.592581 -2.423519 
-26.005491 -4.714613 4.180981 
-14.442943 18.855906 2.312731 
26.726662 -20.258778 12.735998 
-15.683389 20.793186 -4.872471 
-12.692028 24.313307 -6.145007 
-14.011512 20.504704 4.078681 
-18.142040 15.062389 -2.109534 
-4.400244 28.195518 -9.360345 
-5.609531 19.866467 -7.679381 
-2.910027 21.154047 2.374970 
23.891939 3.112103 6.486624 
-23.436546 8.543533 10.902353 
-21.386120 7.907557 3.670182 
-15.674333 0.552812 6.533314 
-5.742519 27.197994 -4.116102 
-23.415518 -12.374642 12.165955 
-16.307596 22.732456 -2.479487 
16.109671 20.891535 0.961624 
-16.069407 7.197443 3.266347 
16.362558 5.754649 -0.352137 
19.536751 19.244179 -5.714731 
27.697767 2.742983 -6.631434 
19.728123 -9.893388 9.527154 
22.578312 4.586147 11.280107 
21.170017 -18.160192 11.389833 
22.491026 11.531724 10.159453 
-12.435439 15.529454 1.178492 
-30.216282 -17.149088 5.445836 
8.811419 26.522041 -5.430652 
-21.506388 -8.442882 -0.976723 
25.680910 3.507731 5.257905 
2.685183 21.614292 15.192641 
1.711987 25.167795 -0.940550 
21.097759 -3.367207 -4.989192 
-13.547862 23.785631 -6.384572 
-24.621172 -11.945405 4.207348 
19.514994 -9.364575 8.780555 
29.056498 -5.568391 3.660990 
4.120996 23.020472 10.797687 
16.976061 -1.961255 0.099062 
-20.738306 7.770077 2.960751 
-6.060549 19.852180 16.265471 
-3.571420 29.776968 -1.949190 
23.370163 -23.286846 7.689198 
3.126349 20.980114 -8.945341 
-19.843363 -12.654922 -4.393327 
30.497814 -18.182320 4.298724 
16.624508 6.550766 -2.150822 
19.590050 8.317530 10.325781 
29.524021 -16.350012 -5.136606 
24.452324 2.900475 7.039627 
-9.348454 18.415680 5.001909 
-7.803029 14.900591 7.361018 
29.014061 -6.588244 4.013493 
-11.968514 24.634718 2.390913 
28.984604 -0.694438 8.967470 
4.831029 22.419178 13.216833 
18.030447 6.813060 -1.614232 
-13.364895 16.102116 4.405814 
19.141293 18.077229 -4.384417 
16.583246 12.731738 8.506535 
15.452942 19.453503 -3.869947 
7.856380 21.161875 15.592874 
-5.465962 19.485960 10.502241 
24.132391 -22.748970 6.067706 
2.667209 28.684443 -2.325744 
-20.701775 -5.909233 -1.021992 
23.322342 -3.716765 7.148614 
22.265142 11.714695 -0.872029 
26.975916 -17.660372 5.825904 
25.627346 -8.474078 6.005795 
24.200939 -14.841151 8.138764 
15.415311 16.852707 -5.129845 
-2.722710 24.652918 -2.256142 
22.835352 -21.277740 11.944345 
-16.248705 0.878443 9.922677 
-18.916330 -9.203171 4.495185 
-16.433764 0.821554 -2.508535 
-26.473314 -9.711315 5.944627 
-29.617142 -16.219624 13.190446 
-29.712027 -8.203287 -5.635592 
2.017473 28.143967 -4.665890 
22.158524 9.022387 3.567802 
-23.322559 7.608383 -8.062894 
23.229246 -5.930888 4.220602 
20.528212 -10.137302 2.503231 
-3.719096 22.454605 7.107664 
-23.040632 8.890928 15.480261 
10.153136 27.976513 -3.783980 
9.365625 23.531357 2.829592 
20.364506 0.601764 9.128594 
-28.574257 -14.700772 2.687871 
29.050367 -9.290348 3.094438 
9.254033 16.658415 7.102899 
-19.289911 14.608098 -1.057222 
-7.645667 23.250301 -3.500643 
-18.598883 8.867682 4.471045 
28.999041 0.079265 6.684175 
-12.869871 8.711854 6.525630 
10.962334 20.868992 -3.385641 
15.727539 22.881405 -9.095617 
-16.089100 1.928793 1.834764 
-24.128954 -5.987959 9.379288 
9.659904 23.367027 4.881642 
21.157860 14.523409 -1.746131 
-10.766994 19.441372 8.397953 
29.457281 -20.168552 12.630493 
1.251785 25.722456 -0.270687 
16.847507 4.747790 5.681776 
-28.156748 -2.884765 -5.940094 
16.995855 3.896299 -1.539063 
-19.324471 11.554555 -0.960177 
27.459185 2.357931 4.697610 
-22.362545 10.349212 -6.972671 
23.899990 9.671144 8.962230 
-4.470032 20.390369 5.833063 
-12.844683 14.433249 9.402835 
-21.526930 3.438118 11.282001 
-28.234663 -17.215759 13.192356 
26.837631 7.172272 10.872293 
27.172049 -23.886889 7.462849 
-5.325844 16.138433 8.686893 
-16.506897 13.304128 11.117640 
-1.511578 23.733334 3.129941 
-22.139505 8.297152 -2.563858 
-23.800013 -2.369780 11.745810 
-13.244281 18.343334 14.512314 
10.021190 20.971907 -2.203155 
-13.485878 23.162977 3.563780 
13.175492 14.998620 1.833480 
-21.484922 2.873365 3.453410 
15.481620 8.101926 2.079755 
-20.528454 -2.487068 3.570526 
11.281358 20.466534 9.636337 
-15.664637 1.795605 8.858124 
-18.802998 -9.139594 -3.553123 
-14.825911 16.366997 12.377838 
-13.661444 18.718147 2.259655 
7.359614 27.480185 -9.350104 
22.200781 -16.937265 -0.314655 
23.847441 -4.864985 3.790373 
26.399414 -17.446697 1.912120 
-21.086346 10.865698 2.791370 
31.174147 -22.561594 10.866134 
-28.676357 -4.883097 -3.032113 
-19.205067 11.159327 11.594995 
-2.184672 22.864460 -4.272396 
19.605942 17.427229 8.000411 
-21.567806 7.296405 1.637313 
6.821251 19.339108 12.146173 
30.906080 -7.187981 6.186204 
-20.208355 -14.885718 2.094783 
-7.929856 20.686760 11.741832 
30.656439 -17.101002 4.147883 
-16.214836 14.263248 12.939741 
-0.282381 21.097523 10.507330 
6.777194 22.412762 11.045046 
21.838184 12.423073 -0.967248 
21.263557 8.071982 -4.218754 
21.456572 16.761400 8.679019 
21.719379 -16.724411 9.747213 
-19.859125 5.424887 3.969735 
28.829880 -1.806579 8.286299 
-6.834421 27.747658 -9.326446 
-14.329814 5.759658 -6.320661 
-20.835787 -12.764388 -3.347320 
5.381237 26.138536 1.853707 
29.823759 -6.045647 4.170540 
22.435255 4.734197 2.467599 
-23.513855 4.936311 -0.787574 
-18.363459 3.033981 2.832358 
17.401705 16.796675 10.213710 
-9.793713 23.593512 2.363115 
-30.992369 -16.715996 7.948679 
15.362818 18.490845 1.409529 
28.756512 -1.499675 7.551824 
-23.470875 1.161197 -3.891091 
30.753849 -11.519203 -1.544313 
22.655478 -22.297298 11.654385 
-17.951853 -3.742990 2.024686 
-9.339291 21.094275 2.563125 
-13.515094 8.468441 4.040081 
-22.830982 -15.058601 12.568645 
-18.013020 14.957433 -4.739937 
19.611872 -11.462703 -0.009898 
21.765604 -2.405248 3.433626 
26.914103 4.278010 -3.316965 
-4.404907 28.088228 4.608690 
-5.743006 24.228985 -0.821101 
-14.910594 6.564364 2.250286 
31.357996 -8.907917 -1.979122 
25.224655 -22.420012 5.376755 
-30.410318 -8.351108 13.489422 
-3.254409 27.281675 4.672808 
22.955864 11.738953 5.741325 
-16.420801 5.378686 7.156039 
-3.686463 20.769773 2.182349 
25.019051 -14.614241 6.047963 
-3.630974 19.952700 9.391886 
21.512417 -0.758738 2.229272 
-15.650095 16.706835 -5.033843 
16.468603 0.029506 -0.669452 
-1.529877 16.143280 7.371957 
-26.582125 2.095921 13.870116 
4.934990 25.743401 -1.172353 
-16.672726 -4.641603 7.348100 
26.864941 -17.615217 -4.023762 
28.302046 -23.853321 10.028036 
-23.937927 -6.034588 0.396383 
-18.428423 14.985612 13.939780 
-24.483698 -12.838978 3.844922 
-15.775943 1.530269 -7.716686 
13.504184 20.292189 14.751050 
8.363443 18.457937 9.110797 
-27.633488 -6.588691 3.914433 
15.379055 8.989010 1.686514 
18.479015 -1.981699 1.440213 
-9.854640 21.943146 4.541972 
-21.231623 -18.876112 10.777119 
-13.459160 7.348164 9.870786 
17.010822 14.843570 3.800419 
-7.627211 19.138870 -5.995687 
-5.412322 21.770470 5.440296 
-20.379679 15.202633 -5.199018 
30.822361 -8.615515 0.323564 
19.367468 4.415089 0.165176 
-14.203370 5.893879 0.092819 
-22.907084 -11.078315 6.232569 
-16.922878 18.276669 5.577061 
-10.631358 15.413712 -5.480916 
0.828948 21.072790 3.897306 
17.181734 9.414355 -1.097263 
19.243687 7.213628 -4.529230 
19.607191 14.069199 -2.627662 
-13.234445 3.294103 13.643274 
2.869568 19.147608 8.016320 
16.453062 18.871424 13.085427 
18.647863 5.363858 -2.563391 
-23.637138 -17.001017 2.797340 
22.405922 -14.411871 -4.208379 
22.576475 12.656865 -8.496827 
-31.567507 -12.632669 13.060201 
-4.641251 20.682381 -7.146880 
5.910083 24.788498 -4.605570 
-0.765700 22.429644 -5.490106 
18.333824 7.638952 4.104045 
21.533157 -20.878269 7.118703 
20.858559 -11.573483 6.399052 
-17.987350 5.623571 7.937685 
4.633015 29.034134 -2.527731 
-26.195620 0.572194 0.405969 
23.951880 -13.371292 11.807041 
25.033312 7.364052 2.423962 
24.268639 -8.845083 -4.690302 
-14.338531 17.014000 -4.068451 
-18.504854 18.776119 -7.549936 
-13.381586 6.791798 8.826260 
17.634546 3.357578 5.818537 
-20.767223 -1.241253 -2.516997 
20.124960 17.559055 7.258407 
-16.227545 7.444472 -4.808521 
-9.456056 20.760296 -2.006893 
22.558880 -4.115729 -4.602302 
18.293682 12.077404 -0.546296 
-8.869007 20.503826 12.341226 
2.278722 17.415117 9.797567 
19.699337 -11.714259 14.836844 
12.951905 22.816231 6.419160 
28.420324 -13.110038 -3.629658 
-28.195778 -15.095751 5.850810 
13.133688 17.195129 8.983904 
32.819393 -12.192771 12.884432 
13.598246 25.304317 -2.870028 
17.292219 16.664097 -2.613789 
-12.411710 18.405945 15.208722 
-20.141735 -18.712637 12.605590 
25.840965 -24.641096 7.117834 
-10.389494 18.852634 9.489002 
18.372196 18.247448 13.825683 
6.795102 27.154024 -4.683890 
-22.652870 -15.063384 -3.786846 
22.121311 7.860116 8.763684 
-24.640055 -11.087202 11.939888 
15.312295 23.763479 -8.356397 
-29.868961 -14.547278 -2.478836 
20.420580 18.136904 -4.217554 
-7.876364 22.005562 2.643806 
-2.867973 26.504183 1.179596 
20.672476 15.865070 -0.874091 
23.594442 -13.396596 8.703206 
27.339790 5.756187 12.310699 
-30.415623 -17.885204 8.697070 
-17.376390 12.330804 -2.286422 
29.963535 -0.740888 11.593788 
8.239691 28.069746 -4.847593 
-6.194190 15.057711 8.084176 
19.377111 3.453153 2.680260 
-7.041386 20.607744 13.904395 
-22.564489 -10.173084 10.175329 
-14.142787 6.707728 -0.829015 
21.258949 16.369015 -5.122732 
-27.844301 -5.405172 5.075394 
-25.393541 -18.186529 -0.075099 
-12.644223 19.754208 4.879255 
-24.211363 1.059677 -3.543364 
17.037088 4.702301 -1.219764 
29.832989 -2.341196 10.090427 
22.729254 -4.730167 9.306163 
-19.012251 18.313583 -5.575864 
-21.120810 -3.779527 8.967103 
-28.113802 -19.054092 6.076097 
-22.438158 -0.471661 10.044532 
-26.022713 -11.836169 12.505699 
-21.507149 12.132872 11.367947 
22.051796 10.526063 7.740280 
-18.133345 14.181182 -4.607482 
-8.886663 16.318514 -8.629869 
-30.242502 -8.910605 -1.657244 
-20.631397 -0.757093 7.153299 
10.548645 23.377882 0.233196 
-17.412844 19.416197 -2.803950 
27.699474 -12.909939 12.005645 
24.266075 12.031143 11.730068 
4.149680 19.222147 7.778291 
16.585146 16.644920 -5.413549 
5.355360 28.875921 -6.801626 
24.458334 -22.177895 5.499796 
22.723471 14.291039 12.080015 
17.302813 -0.913927 -4.900538 
-19.470179 -1.337569 7.965558 
-20.727339 9.225344 3.353481 
-19.756439 1.105712 3.769413 
12.478829 16.123013 11.413699 
-21.299965 -17.328247 5.456655 
15.206109 11.385394 9.806684 
-25.233786 -12.951817 -4.110768 
19.577181 -8.818637 -4.481844 
4.591412 23.717073 6.019677 
4.929643 29.407103 -5.003273 
24.431822 3.217768 -3.511245 
-18.050707 15.444126 8.123554 
25.628378 -20.274670 12.646490 
18.718019 -3.122229 1.832619 
-2.218832 23.617502 1.475872 
-11.273704 19.734598 -6.403847 
27.257879 -7.676224 0.766802 
29.571554 -23.492815 10.367979 
18.740622 5.360153 -0.766737 
-19.635916 -7.666800 -0.975043 
17.626680 10.657744 11.307517 
-25.425722 -9.683105 8.079953 
20.555460 -2.991479 8.954313 
25.909752 -9.610979 5.706015 
-17.480154 -5.018918 -5.162514 
27.373260 0.527271 1.160747 
3.189079 23.202793 6.073299 
20.152609 -10.681310 -1.826319 
20.164494 8.416218 -4.504532 
-23.301292 -3.107648 9.049123 
-30.135012 -14.386521 5.616109 
25.613512 -3.534377 7.524574 
-2.890789 22.975885 6.602639 
26.133900 4.918736 5.039839 
-9.549247 26.224955 -3.043336 
33.166710 -20.668375 12.478325 
26.829273 0.687062 2.756551 
25.360483 -5.482858 0.380239 
-16.346357 -1.468640 -4.600768 
-19.368830 5.570924 8.894683 
-24.685265 -8.063948 -3.494580 
-24.834339 4.994960 -6.333957 
23.222927 -11.632316 -5.486291 
-21.481762 -13.358868 9.257334 
-28.596392 -11.091387 3.531288 
27.906235 -17.033804 -0.294470 
25.491783 -4.004727 9.748863 
29.231525 -1.495218 -3.155026 
14.958064 20.095451 -2.760598 
-28.524820 -13.888237 13.154587 
24.437269 5.442866 2.515390 
21.362286 0.951691 -2.295347 
0.779512 22.625053 -4.979033 
-14.656637 20.953337 -6.259241 
-15.518624 12.601299 6.923357 
-29.588196 -14.367805 5.023574 
25.632767 -15.645176 8.640924 
-28.008802 -17.954693 12.838874 
-14.758510 17.936790 0.291885 
29.906710 -16.524277 4.257222 
18.173532 0.036103 9.822156 
-20.964930 10.318227 11.501248 
-25.717022 -6.894638 2.531744 
23.972504 11.841225 9.927304 
25.729187 0.314944 -1.312822 
-15.414238 0.905465 8.009930 
23.328110 -12.837066 11.848971 
-16.136637 -1.405295 -2.082778 
-31.007257 -16.496382 11.893018 
32.837009 -20.362303 8.839298 
20.088566 -7.772782 10.719576 
-26.352909 -5.844940 12.034520 
13.919139 13.705147 -4.068410 
-26.688053 1.603144 -4.462844 
14.047692 19.804998 3.791137 
-16.071650 2.073525 9.997016 
-13.836713 15.393210 11.017532 
23.264936 -15.804111 7.112519 
-25.120655 4.467409 -3.790988 
-17.130272 -2.935280 -3.419870 
-19.176023 -16.615807 10.717749 
12.733362 25.742725 -8.078419 
-24.541563 5.343516 8.213058 
-2.857577 22.025558 12.348095 
27.821428 -7.803316 12.288737 
13.047710 21.344238 -6.497621 
22.747557 -17.140219 5.388048 
32.649502 -19.674860 11.477249 
-17.650499 -0.299597 2.132118 
18.892651 0.959396 8.122066 
24.454340 6.036945 -0.761399 
17.747416 21.763882 -6.105544 
-15.067640 3.791896 7.633584 
-3.817793 27.670183 -1.507018 
20.901163 2.883705 9.745465 
18.281296 18.657482 9.781491 
-15.046462 13.130057 -5.614025 
-29.786139 -9.492504 -7.011121 
-20.090630 11.032799 1.880966 
22.741846 0.631126 11.175857 
24.607759 3.486207 6.337213 
22.798899 -20.092752 4.543973 
5.895884 20.278555 12.111032 
-20.162380 -12.622263 -2.225233 
-21.527166 3.768797 3.041887 
27.074879 -5.404643 0.406370 
-19.771215 -0.074195 4.241257 
-18.785240 -0.039052 3.788773 
25.084089 -8.770456 12.432801 
23.990314 -15.113350 10.847990 
-17.531334 -0.294757 4.742566 
17.518227 13.795268 5.168200 
26.252151 -14.815194 11.539098 
-30.490604 -10.545321 9.049201 
15.445643 13.027273 -5.490373 
-9.241940 25.607832 -4.340477 
-25.465271 -20.523663 8.193588 
-27.643951 -7.959945 8.793223 
-19.258917 1.697275 2.438190 
-22.376644 9.428425 -1.008320 
22.633312 15.474417 9.715771 
8.880797 23.211102 7.681946 
20.338348 13.373764 -0.013151 
-23.081347 3.319244 11.156383 
-26.025202 -7.344044 11.929415 
3.825500 24.891937 -4.143335 
14.377873 17.372002 13.100190 
17.336781 4.897143 -0.341263 
-14.083559 12.166576 7.175858 
-1.497471 21.966118 1.929900 
-13.218853 19.028019 3.504899 
16.857670 18.610529 -1.465323 
8.860276 23.483486 0.379940 
25.802570 -14.524376 7.344614 
-11.649203 15.968848 8.388812 
-4.093029 19.603483 3.606762 
-3.524409 21.542749 -6.286200 
20.542757 -8.796412 -1.932506 
5.581361 27.529894 2.558010 
21.655008 -12.918464 -3.991416 
-19.797235 -16.866062 11.339482 
29.663897 -21.417158 4.974504 
19.899054 -8.875473 -7.187827 
31.800997 -13.175097 -6.961337 
21.862768 -2.190983 10.903129 
2.007479 29.187120 -0.119668 
4.610957 27.451057 4.695682 
14.442166 24.403111 -0.447581 
-20.796259 -8.674094 11.518537 
21.637184 -12.078129 -4.182307 
16.440086 18.710592 0.559104 
-8.554483 24.662878 -1.746551 
-9.848018 13.886554 11.015306 
10.317643 25.856018 -3.337019 
-8.099477 28.406767 -5.325339 
-14.512643 6.588082 10.132798 
22.969236 11.690007 9.116482 
23.971016 12.667089 13.167740 
24.651093 -14.317240 5.146879 
30.095083 -4.503980 7.426239 
-4.756730 27.585003 0.816919 
-17.028440 21.963322 -5.261562 
28.651911 -11.555863 4.248517 
-16.542929 4.012316 -0.852696 
7.028575 17.737494 6.117704 
-16.532307 14.651008 10.251566 
17.870308 8.153716 -4.571110 
-18.678099 -3.338469 1.864894 
10.535832 24.719185 3.797775 
5.669973 22.552027 10.323296 
7.703807 25.408922 -5.482805 
30.893627 -4.118480 12.935258 
-26.854891 -7.332557 -2.113450 
15.522671 20.225536 12.346447 
19.301437 10.657902 -3.632191 
-27.727152 -4.186393 -1.244487 
-0.388411 13.770990 12.967173 
-25.234701 2.046681 0.950694 
-21.542669 12.006907 12.491762 
-11.507636 23.508497 -6.232029 
10.827359 27.500563 -4.076114 
-18.846043 11.761630 -0.132290 
13.107955 14.284032 1.006431 
-16.918797 -3.294559 -2.734313 
13.435213 14.263390 -2.111350 
23.848103 1.829006 4.167774 
1.455445 17.485456 6.283015 
-0.592252 27.123013 -3.264381 
7.191076 23.759541 -2.841459 
19.418306 -2.135423 7.904477 
17.267895 20.135233 4.102502 
-12.348327 19.179539 10.779208 
31.514437 -9.166008 -4.253834 
-10.601357 19.196281 -6.163427 
26.849752 1.674314 11.077583 
-24.403931 1.242071 7.220400 
-19.453905 -5.979878 11.550339 
13.105940 21.839214 8.992701 
30.366354 -4.811250 -7.462850 
-20.922701 6.309356 2.124745 
-13.088460 21.641682 -6.697410 
-12.462666 10.760407 -6.337697 
3.741500 22.014523 3.735331 
13.618415 10.796489 -5.003873 
-4.995958 13.820391 9.755306 
-25.425402 2.627868 8.619686 
29.988117 -14.316645 -2.324592 
-21.414171 -10.613604 9.422142 
16.056797 19.723799 1.579040 
21.046774 12.107363 3.127462 
-10.999594 13.340644 -7.610655 
4.027826 17.354637 7.010829 
14.835165 18.837208 -3.497443 
22.676542 -13.463652 1.754899 
-11.960004 21.778622 -4.171508 
-14.926806 25.428562 -4.829216 
-13.135308 9.631375 6.669942 
23.428984 -13.684957 2.036562 
22.001659 14.034234 12.955103 
-17.763159 20.512506 -5.468509 
-19.900217 -8.355071 0.786218 
6.456274 28.853264 -5.399065 
-24.696075 -1.362889 -3.673013 
-14.044448 13.027828 12.469036 
-28.544472 -9.776768 10.933946 
19.047838 19.587168 -7.710271 
28.360929 -5.023177 -0.471656 
-24.412504 -10.723845 5.533360 
-28.336983 -16.419111 0.879466 
20.443350 10.316949 4.222907 
16.868761 21.761496 -9.031128 
21.759550 5.840369 -1.027099 
-13.872440 8.079888 0.477904 
13.892496 17.223850 8.084182 
3.167313 24.558687 -1.288713 
22.695269 8.967052 -3.659568 
30.416538 -21.466972 4.713081 
13.940445 12.464858 -2.618318 
32.843029 -12.207899 13.881378 
19.746567 10.869603 8.303864 
-2.937874 21.488873 10.039802 
-21.617123 -19.363846 10.158230 
-23.967230 -3.051607 3.595762 
20.754330 -17.886538 8.583352 
0.389171 26.872517 1.997506 
26.454998 7.135925 6.362248 
-19.583994 -15.388239 11.219453 
