20.354626 6.055495 6.050303 
32.684158 -5.511880 13.886233 
24.121927 -5.526014 10.259752 
-14.858471 20.049910 5.691518 
4.446308 32.234222 13.509310 
19.114391 8.089617 2.991483 
17.175264 27.477987 6.941687 
21.260281 -8.587692 13.946757 
16.536774 23.605862 -5.931462 
5.937115 35.656719 10.050831 
27.272945 -7.191653 7.931271 
27.561176 -0.895164 3.816599 
-28.352255 -5.019390 6.743904 
3.985667 32.667213 8.602046 
-21.428225 6.467395 6.697836 
-19.105431 1.120365 5.958705 
16.337446 14.683092 -2.413971 
-5.426731 27.542742 0.056642 
-16.665712 10.578201 -1.069912 
-11.939119 14.992682 -1.943249 
-30.481834 -7.532437 10.349047 
-20.785751 13.035532 9.955832 
-1.536019 21.771320 17.723919 
-16.196529 27.966009 5.495021 
-3.059095 34.829239 11.313269 
25.267624 -12.763666 5.735919 
-13.650112 12.648852 -0.922875 
-6.286801 24.784950 10.917281 
-12.669571 27.043114 2.300418 
23.356094 -3.262176 12.183788 
26.808863 7.324071 4.622277 
21.457504 24.158821 8.361838 
24.272776 -6.600897 11.207415 
21.933142 18.208536 4.921664 
20.422337 13.280624 -2.650861 
0.043274 31.161665 12.724746 
-26.853628 -1.844115 10.412138 
-16.839935 0.476039 15.387890 
26.040472 -4.861492 8.935637 
24.261591 19.406544 7.236901 
20.383827 19.032207 3.670659 
24.814510 7.915959 6.566108 
-14.915848 22.131725 4.935940 
9.757755 27.275778 -7.385382 
-18.680292 6.500533 10.800424 
31.076622 -4.646756 5.557439 
-16.151205 5.574939 5.743134 
1.576192 34.009567 7.761565 
7.934407 36.154572 5.614464 
18.212692 14.807315 2.228110 
-19.474354 18.435078 2.576661 
-21.770676 15.092925 0.972870 
18.492029 5.816941 2.815062 
22.795769 8.578800 6.117119 
-9.064157 28.332861 6.013800 
6.778766 23.848099 -1.424785 
28.291838 4.230371 11.558197 
-25.017166 5.567183 6.606122 
-10.663783 26.886282 10.392503 
0.576858 30.463608 14.704289 
5.624432 30.014757 1.667761 
10.685237 29.794682 9.596581 
20.287325 0.860578 7.820992 
20.928616 -0.145237 6.946792 
16.538645 17.142782 -4.245036 
27.528372 10.641279 10.016909 
-25.246763 7.250707 7.375654 
26.853567 12.381721 8.508058 
28.036442 6.051090 1.808048 
-20.777094 7.233540 -1.074547 
25.550001 -3.736944 13.164432 
-3.807623 31.076296 8.733282 
23.646282 -12.609464 -1.874865 
20.674416 -1.905323 3.391081 
17.774912 13.947088 2.440578 
9.978253 28.530479 0.172554 
-17.627062 -0.465131 -3.735911 
-21.997763 -12.170900 -3.718755 
24.996078 -13.319135 -3.377983 
-14.425422 28.095631 4.834316 
-18.278864 3.334712 8.090095 
-9.368260 20.633490 1.477328 
-24.108435 8.487184 8.837026 
-16.383883 25.443907 4.700986 
14.498802 27.656710 15.128461 
-20.331957 -11.337633 6.898110 
15.415549 22.000574 0.625572 
29.014669 -13.417585 -3.348817 
-20.457918 -5.270195 13.750531 
3.044807 36.357044 8.889499 
-14.194767 21.218060 9.262801 
26.832676 -13.513608 6.712636 
12.175767 18.252510 0.893248 
-28.823122 -4.232129 5.347798 
-24.478178 -3.174048 9.170823 
3.425903 28.694359 -7.553745 
17.093328 23.099062 -1.858636 
-5.263842 23.098656 0.092698 
-20.023016 12.930618 -2.586721 
7.419044 20.320284 -3.356292 
31.952440 -11.273812 10.811728 
-16.811466 0.475837 14.540206 
-27.390051 -10.686392 6.712949 
15.103788 31.309734 7.889454 
18.121929 16.460693 5.968582 
-14.835119 8.117439 -5.649374 
-21.396797 -11.316596 1.523053 
-26.946785 -13.010868 4.204151 
-1.547462 30.005938 15.913592 
13.822695 17.982561 -2.835890 
19.989155 3.325341 11.591146 
-10.027118 26.067469 -0.968166 
22.769636 4.443137 5.725360 
-25.017330 9.529017 -1.967407 
25.634348 10.851557 10.743018 
-21.620674 -3.743165 7.525481 
-15.989798 16.745787 4.219593 
30.939156 -5.190473 3.334513 
-1.889456 29.680847 7.881270 
16.417204 26.682468 5.851149 
16.723494 9.769854 2.983587 
15.117980 30.365664 4.349719 
21.777166 -9.787874 1.636956 
-26.599318 7.124948 -2.245986 
11.695204 28.278870 14.929068 
-2.579119 29.330215 -6.249355 
19.617617 12.811560 -2.578332 
-26.955513 5.976669 -3.282565 
26.210999 3.609702 11.406125 
-19.889521 7.444368 1.894053 
6.187116 29.908411 -3.081649 
25.436464 6.968441 10.368568 
22.894394 9.793354 6.402911 
22.527719 15.800812 -2.938694 
-27.217327 -13.725842 2.076188 
-19.698633 6.319074 8.500092 
-15.867501 23.667311 -5.831270 
27.344995 -14.206238 -1.063754 
-16.907831 1.912134 4.930553 
7.792473 28.210255 0.234516 
-0.686247 29.937611 0.312246 
28.957937 -11.877371 3.622437 
-28.918888 -4.935990 6.065678 
20.961737 1.738744 -1.688360 
32.715687 -10.977411 14.991968 
16.545286 10.927254 1.985839 
-16.136147 9.249893 3.184792 
21.366348 11.709444 -2.886914 
24.821344 -4.806803 10.191772 
24.029137 4.355465 10.698789 
-10.652920 26.376917 13.378239 
13.119262 23.970442 12.630947 
6.564481 21.824451 17.674757 
-5.185730 30.151064 -0.128242 
10.389189 25.568937 2.859145 
20.331118 12.224373 -2.929468 
-28.468906 3.903165 14.013161 
-15.148338 7.340044 -5.575587 
-6.592053 28.990114 13.593377 
-2.194287 22.131746 -5.077355 
-17.495537 -3.136001 15.880989 
-1.334184 28.891232 0.389541 
27.111856 -9.169815 8.837464 
12.884700 27.705153 8.869358 
16.121841 22.778706 2.449672 
-11.462965 15.691433 14.507242 
28.433090 -10.450455 16.021423 
-4.808825 29.592983 -4.652062 
25.179012 17.277483 14.753487 
-29.591068 -8.831592 3.368908 
26.207760 -2.186719 12.966698 
-17.243361 1.410974 2.067380 
4.014625 30.889263 -1.035149 
-22.377123 14.330028 -0.307624 
23.985336 13.822160 1.964252 
24.907867 6.066940 7.181273 
10.144961 23.808212 2.991498 
-21.360699 3.554812 6.615803 
-22.597178 -11.738680 3.513078 
14.188273 15.983887 4.054973 
21.350101 3.195482 6.646869 
-22.167999 2.149859 -1.819075 
12.959166 25.041979 -1.212561 
-12.774071 17.509588 -0.210908 
-9.432571 27.801481 6.968607 
-20.439577 -3.318642 5.737625 
0.603811 32.699043 14.722360 
-5.155377 22.899895 13.457202 
-17.928371 -5.540996 14.348518 
10.177109 26.894783 11.288856 
-10.739503 27.255033 5.319152 
16.373289 17.853035 10.065457 
24.941605 -13.393300 6.362726 
28.410078 -2.803164 7.553284 
25.771006 4.907213 10.837605 
-10.561756 21.034012 10.720106 
-18.951136 20.100397 9.180287 
-23.786312 -7.516335 7.942868 
-10.304546 24.126457 13.565928 
29.990025 -7.424905 9.590533 
-13.298474 21.379997 4.907413 
28.681717 -12.535454 8.283170 
-14.467782 8.998459 -4.533797 
13.725369 29.514732 13.736745 
-2.645633 28.298820 10.482708 
-24.851826 -0.294167 3.141071 
5.078414 27.029146 2.266113 
-11.050611 25.754229 10.241961 
15.964182 8.381990 -5.524575 
-19.830385 -9.375340 7.241384 
27.682154 -6.212248 15.999798 
-13.735641 18.204113 -3.194838 
-21.616539 -3.600028 5.908834 
-24.106924 -6.056329 8.456134 
6.190601 25.148962 -1.713904 
-18.986944 8.886581 0.770712 
19.976221 19.576006 -2.079437 
7.592417 23.223665 0.656222 
-13.767858 15.969872 3.548041 
20.634293 7.969224 3.192533 
-6.406466 34.407528 9.146393 
32.087971 -4.703784 -1.015400 
-20.642220 -12.799974 17.082092 
0.164108 29.571091 -6.088627 
-9.980736 23.732956 -3.218096 
-28.809587 -6.056043 2.189495 
12.032097 27.283426 -1.303778 
-14.295833 13.233552 11.249802 
26.472214 7.045403 5.701293 
-14.190953 24.017963 -2.795717 
10.307068 32.752464 9.118285 
21.440758 17.642832 -3.392538 
5.408142 21.187542 -5.471039 
13.828507 25.988171 7.391490 
21.204834 22.160000 12.449835 
24.522432 5.271169 8.496267 
-11.649162 31.976894 7.171299 
9.862837 17.793972 -4.986077 
20.804518 20.324348 7.753073 
12.968306 26.775663 3.137977 
24.535242 7.122383 11.851073 
-23.116421 -4.903041 6.511729 
-1.591796 28.628569 -2.167875 
-2.602062 36.045197 6.099274 
-18.691164 6.745840 6.829835 
27.348131 4.487576 13.801774 
25.404846 6.569206 11.833653 
14.491188 29.639429 5.052464 
-12.397202 25.182823 -1.147138 
-18.951124 4.346021 0.927519 
-15.372852 17.731548 10.631944 
-14.498412 12.731681 0.749910 
30.594555 -8.718519 3.235436 
1.718452 34.611481 9.232012 
30.538845 -12.077230 4.917632 
26.582603 -7.605868 16.091824 
6.555013 30.070004 0.291476 
-28.857031 1.262509 9.112395 
-17.255877 11.745908 -2.318256 
18.275862 21.409887 1.979940 
-14.552266 9.179166 -2.525424 
-24.839354 -13.089836 7.364470 
-17.537697 24.593151 11.833914 
-18.220362 13.410043 6.080950 
-27.144480 -2.201204 11.742881 
-22.197880 -10.119974 9.925864 
3.968263 30.722584 -0.230746 
15.014690 30.013395 11.430957 
-11.985389 22.257803 9.152164 
21.239893 0.885303 13.130365 
22.851238 20.452648 17.543386 
3.454094 36.981232 6.257889 
19.453646 1.812932 14.071392 
14.193730 25.253664 -3.012062 
-29.921389 -3.282418 1.012131 
-3.108693 26.293528 11.249442 
-25.459558 -2.882516 12.313119 
28.692608 -13.479098 10.468301 
-14.170003 27.231848 14.993462 
-0.934323 31.101728 14.512317 
14.267797 15.542079 -0.281184 
18.153702 8.464265 2.477917 
-10.358679 25.775867 12.329996 
15.169999 25.585131 4.558405 
16.732862 6.626628 -5.350755 
-11.647818 27.174040 -4.976635 
-26.487318 -8.187967 0.743454 
17.064695 14.059776 6.620524 
-15.040484 10.594144 3.129525 
20.118683 5.414866 6.586515 
-27.152849 -5.290619 1.003355 
-10.561422 21.723007 13.285673 
23.963570 -4.934312 14.609396 
23.852205 18.391798 13.064580 
-19.441647 2.854081 0.736015 
-19.552040 -11.370851 15.885603 
-10.865267 26.495684 -1.620249 
-20.351917 10.686710 6.515224 
-8.061139 29.153412 1.720489 
-19.965918 19.795095 10.851308 
20.951452 13.961430 6.038669 
19.847895 20.849745 9.648604 
11.978085 15.363353 -4.736245 
-3.035012 25.594627 1.929047 
13.010356 23.034399 8.261630 
23.566311 19.789066 8.095993 
9.018741 24.314423 -0.697007 
-4.698780 35.287518 10.294812 
-18.808632 6.977520 1.900235 
22.592613 9.777827 -1.049534 
25.384958 -4.411509 9.638755 
18.330057 26.750219 11.089986 
32.754238 -10.139750 10.025640 
-28.290627 -0.567589 8.813700 
-15.667181 5.864853 -4.005082 
21.649437 8.255279 5.522276 
-3.440623 21.379925 -6.878635 
2.148788 30.537476 9.231970 
-16.940802 12.960082 12.628653 
22.899639 -1.824699 2.914212 
-15.653841 28.746258 8.556032 
-18.553383 4.776435 10.386264 
-10.288483 21.975574 11.801279 
-7.792414 24.935053 1.827099 
-7.162545 19.212633 -5.450163 
28.720882 -3.844906 11.108682 
31.822252 -6.348637 -4.019968 
28.951481 4.744417 -2.510544 
-0.969891 26.883717 1.428552 
16.787292 11.443959 15.791156 
-10.101283 20.377663 -1.509597 
-17.619707 9.009719 6.430717 
-22.704594 13.159611 -6.176313 
-2.967435 26.344660 -0.608530 
22.491339 -10.639720 15.883548 
30.037991 -12.353403 14.291186 
3.634498 26.180094 -1.197897 
20.507553 8.937347 1.742949 
-20.459850 11.837848 10.159834 
29.933084 -13.240892 -1.032693 
-18.045210 4.495224 10.930409 
11.040905 24.335747 11.337856 
14.398990 28.349358 6.876800 
-9.586301 20.296223 -0.790422 
13.903898 32.078060 5.307844 
-24.500877 12.111444 7.381320 
27.864777 -3.994630 15.236584 
18.341148 10.663895 -2.267193 
3.769532 27.366400 10.761291 
11.965989 27.669950 8.804034 
-21.124729 1.148896 5.712924 
-5.106131 28.747065 0.647821 
15.820648 22.627678 6.512078 
17.925016 8.776344 15.986781 
2.506062 29.187088 6.336656 
-28.139435 2.399666 -3.761508 
-12.893977 26.363289 -5.367772 
-12.988811 12.697959 -3.085926 
23.492210 -9.173660 1.727346 
14.143617 25.429495 -6.263862 
-3.247812 36.997978 6.369931 
11.667641 32.505344 7.419650 
22.963644 -6.754684 10.424450 
18.664858 4.762828 6.293347 
19.448807 -0.388023 2.654886 
2.769833 29.864954 -1.338880 
-12.094896 18.330147 11.501843 
-17.676208 24.172823 14.856089 
-1.625131 29.492138 -2.252090 
-27.485857 5.167736 7.433086 
-21.986732 9.453619 5.237758 
-16.583698 27.235661 11.469534 
-10.438048 25.899448 11.443910 
-9.927698 20.887922 2.423345 
-11.174580 20.589630 -1.783221 
-22.548470 -0.464685 -1.125156 
-14.441722 22.205164 4.099899 
-12.721133 27.131302 -2.087152 
21.170677 4.112598 10.823979 
-17.480316 23.208656 13.036246 
-8.223012 30.188627 15.333000 
25.299526 11.413909 13.057327 
-22.827202 15.841939 8.785207 
-29.725801 -2.538575 -2.821769 
11.928279 19.649479 -1.111516 
-23.680801 -3.203937 10.310374 
-8.044598 29.332491 -1.910671 
-20.047184 -5.871431 12.131683 
-17.999338 0.789894 6.676188 
19.011820 12.370294 -2.298505 
-26.920076 4.658864 -5.373322 
20.705420 12.412298 11.657636 
-10.039019 17.007549 -3.427314 
-21.583881 10.886352 4.877452 
-14.503329 25.046009 -0.524763 
4.732378 28.763008 13.838500 
-12.736700 21.228125 14.142428 
24.743206 -4.114445 6.972647 
16.913368 15.699729 4.746292 
28.779919 9.120580 15.984418 
23.426800 20.356596 12.754513 
15.664082 9.513113 -1.688757 
-17.847628 3.194180 10.437272 
-16.889450 27.776831 7.720249 
-28.040302 -5.582189 7.627499 
-8.717924 19.550945 14.021006 
-18.035345 6.881489 8.548792 
19.497276 -0.008037 6.219322 
-25.379261 2.107561 14.451475 
18.374605 15.293048 -0.680989 
-15.247640 15.118958 1.861380 
19.100517 12.994737 10.338119 
-27.934811 -12.237930 10.839080 
-23.062418 16.519705 8.261407 
17.224440 10.255861 0.337248 
12.304460 14.763395 -6.160701 
-17.106327 9.280508 9.790402 
-18.694164 2.275407 -1.852167 
30.853828 -6.246610 3.166643 
24.143085 19.177404 10.809010 
-4.020882 30.930389 5.966414 
-16.152575 24.020611 13.712276 
6.503363 31.416218 14.075505 
21.988581 -2.261215 4.713341 
18.370268 17.961613 8.163337 
-15.907737 5.130604 4.928999 
0.140091 31.167446 -0.512951 
-14.275179 13.764002 7.675112 
20.341955 23.625450 3.847819 
19.199480 13.546387 -0.494289 
-20.199738 20.325232 15.843613 
2.982415 36.943649 7.345417 
18.951649 7.740511 2.107989 
-22.067591 18.445696 10.598064 
29.745846 -5.892949 15.877925 
26.714844 -14.110481 10.879636 
22.659924 13.007494 9.436054 
12.139344 29.281630 13.070395 
0.514767 30.457790 4.047422 
12.755181 21.605125 5.150001 
6.458148 29.037733 4.200198 
-20.953320 -11.013971 -2.709660 
9.142575 29.944754 13.399074 
24.820978 17.963789 15.024193 
29.542864 7.536959 15.891349 
-10.722264 20.641319 2.363644 
-16.697687 5.589349 0.867369 
4.963589 26.950890 10.318041 
5.571929 28.426651 13.731649 
-14.137986 26.812199 16.426186 
-11.718275 15.736241 -1.408406 
13.138997 29.409838 17.800779 
-19.101597 10.619585 6.065061 
-24.437185 2.497597 8.130087 
-11.945370 25.353102 -3.167165 
32.510704 -5.898826 0.286841 
33.250854 -9.440690 16.821144 
15.247111 14.821787 -3.400017 
-14.772491 26.610544 16.019661 
-12.407505 28.380196 12.290963 
24.848103 18.513903 5.771222 
-2.378100 31.476360 1.381732 
23.795446 19.005602 11.589788 
-19.869160 -4.871793 2.439235 
30.613552 -11.875029 6.163356 
-20.143415 18.268379 -2.497849 
15.763072 30.171297 10.119795 
-17.005924 -0.746072 14.258311 
3.206434 22.417313 -3.759820 
3.010933 31.815607 6.293394 
-27.893715 -5.844531 4.341115 
22.022522 -9.629898 13.798206 
28.661650 4.439630 2.770260 
-13.339218 21.242672 3.331716 
21.924776 -9.055277 13.226636 
18.195747 3.872217 3.296299 
-28.500807 2.572929 8.156819 
-28.041323 -1.157096 2.413427 
-29.515638 -1.648921 17.382536 
-16.445234 14.241584 1.168572 
15.955787 24.559847 0.629036 
-8.909446 21.836092 11.753981 
-21.684225 15.846016 -2.171327 
-20.080936 -3.185108 3.839679 
-19.593763 9.096473 0.300879 
-19.443623 6.283605 5.611798 
5.047651 34.476734 7.440001 
-30.389071 -11.016703 16.340513 
-21.183945 -2.103691 1.879206 
1.506899 29.287884 1.987894 
-22.576426 11.552066 6.013115 
19.199303 8.514879 0.213638 
26.435238 -6.490554 8.806010 
17.591909 22.277796 6.569435 
9.489403 33.441101 6.828413 
-27.485727 -8.009032 1.289005 
-2.916035 29.359949 7.723090 
19.336575 20.443468 6.798507 
-13.918551 13.774529 9.840958 
17.688000 16.635929 6.862790 
-4.889614 29.993574 13.554578 
-17.535505 22.050499 1.062148 
0.239506 29.952375 15.335750 
-17.247982 19.158463 10.998413 
-19.574972 8.763081 3.369353 
-26.696426 -13.160010 3.308456 
-8.052032 19.490408 14.910842 
20.609545 20.097696 9.021005 
23.661001 -6.243855 9.711102 
-27.414259 3.114392 14.082699 
10.002217 28.134975 8.595817 
13.560288 28.854525 14.894566 
-12.968143 15.476125 11.340701 
32.124111 -0.594110 15.098679 
10.497591 27.259188 8.680199 
-4.023055 29.104906 8.223215 
23.188692 -4.972844 1.940060 
23.881824 4.465000 6.228080 
-18.695883 -4.817805 -0.970105 
-29.712725 -2.523856 15.526026 
-15.508751 21.679800 8.315274 
-18.580723 7.924368 5.327458 
26.125734 -3.716134 14.811225 
20.115955 -1.407441 2.958475 
26.037891 -6.020793 11.403471 
-21.052303 4.306557 4.889944 
-26.800722 -13.246736 11.893824 
31.009937 -12.091449 -3.467553 
-22.366585 16.641834 14.829680 
-9.298041 20.306156 0.618174 
31.021364 4.708103 12.907574 
4.885066 35.465157 6.307395 
9.049728 29.934746 9.733597 
6.272371 30.624386 7.269926 
25.926998 -6.614049 7.467869 
-9.761335 17.741274 14.904458 
-22.224216 14.784877 3.111128 
-18.928345 20.796227 0.198288 
4.014882 34.185883 7.667120 
20.594339 19.374052 11.654080 
-27.544222 5.163354 -1.659683 
-0.448316 28.697721 14.667698 
15.427194 28.670574 15.926367 
-3.045395 29.808876 13.202844 
-29.233160 -9.692698 7.190291 
13.703581 24.366972 13.020494 
7.816405 32.448517 8.391083 
-17.989956 3.764966 -0.758902 
29.528986 -3.022177 11.698928 
0.174233 31.071108 0.827064 
27.326962 -7.345562 8.777601 
-22.861177 13.402499 7.976865 
-10.830139 23.747812 -3.347471 
-17.280436 5.333819 11.549563 
9.475831 22.203066 0.119071 
6.384939 35.559845 5.952881 
-19.365488 -7.364336 -3.096943 
-21.312878 -9.781016 7.196443 
-26.896364 1.482136 0.471446 
-20.886427 2.569408 4.488851 
-21.242687 10.892788 -2.023753 
9.983362 28.064440 -1.026104 
-7.128506 29.195547 12.511527 
10.267681 22.408545 -2.265349 
30.317575 -0.225503 -4.620547 
-24.546520 -6.156288 -0.147668 
-27.055941 -10.448313 15.790630 
-17.322149 10.686876 5.524035 
-22.266560 9.164171 2.936391 
-27.847029 3.774332 -2.946674 
22.610535 -9.200665 8.923997 
11.709434 19.602886 -0.264663 
22.875824 14.204289 4.364797 
16.185102 25.942970 11.521418 
29.043497 6.777473 10.784317 
-20.905075 4.949485 -1.990104 
9.011646 36.782181 6.476496 
-5.103502 28.575998 8.789407 
-16.645006 3.270718 -0.016174 
-2.160828 37.063374 7.327761 
21.936260 -9.058015 5.036200 
-3.936556 21.769871 -3.489324 
0.148463 24.044369 14.047032 
8.490937 31.602211 8.150421 
24.684134 -4.859161 1.227030 
-19.057020 19.811749 3.620011 
-25.771837 1.816267 6.473173 
-27.149000 2.262975 7.142321 
-5.715971 22.039379 -0.858893 
-7.342309 31.543165 11.504456 
14.658385 18.605110 1.688888 
0.207473 31.734802 7.030726 
20.265350 6.772477 11.808339 
28.901194 -8.960298 10.076312 
27.382595 -1.110919 4.597495 
18.458981 12.491839 -1.144440 
-13.038440 21.297747 0.540241 
24.801342 3.348334 0.766534 
-24.157757 -7.327561 15.801715 
-24.782585 7.915246 11.074908 
8.712462 21.913086 15.077972 
30.120899 -6.168430 12.595611 
-22.593222 16.951733 9.987378 
7.248491 33.155853 13.416957 
-25.450397 -2.470983 11.519345 
24.122677 -3.787415 11.535064 
23.805336 -10.728424 8.505442 
29.545467 -0.518999 2.317281 
-15.047411 10.584441 0.667345 
27.587912 -12.263985 7.010346 
19.276922 21.045824 2.190181 
-8.941770 24.597506 12.002235 
13.371896 22.957312 -3.142854 
9.481722 24.800871 -0.247646 
0.355707 29.211807 14.717678 
-25.141108 -0.483217 0.695426 
23.459795 14.441217 -4.200468 
24.514334 -9.685051 1.728027 
11.161066 27.612848 8.432850 
14.823022 17.733753 1.350872 
-24.419212 12.174696 17.654980 
20.027813 -3.569866 -1.728424 
-13.160180 13.636352 -0.970258 
15.426139 25.469507 1.097783 
31.142590 0.364359 11.390483 
33.188515 -9.214513 10.861252 
-20.254528 7.460948 12.566250 
-4.332285 30.919901 17.942553 
-13.277074 20.363138 9.963637 
25.724993 -13.561834 6.451962 
26.913824 -12.518832 3.299362 
16.369549 7.489919 -5.436168 
20.000193 18.921555 -2.798249 
22.364130 11.759780 11.958941 
-23.334366 -14.411875 1.344233 
31.462978 -4.874998 10.037971 
-27.675304 -4.583155 7.516273 
30.466648 -13.207109 13.181084 
-4.577844 25.472713 0.737123 
-26.349169 -13.164871 4.991726 
-3.364315 29.254915 -0.893948 
25.747042 -1.262195 0.250439 
25.518154 9.469395 5.568797 
-16.004843 21.389875 -2.001257 
8.493520 21.425085 16.289736 
17.785660 27.399471 10.563625 
20.265516 22.849396 3.812056 
-24.315344 0.994591 11.584094 
-8.083174 25.631950 4.794161 
19.225489 15.697377 0.949243 
26.125540 14.749427 12.521543 
-21.980839 -7.436761 6.229734 
-21.097006 16.764074 13.113092 
-21.216574 -1.491122 0.252488 
-0.252978 25.493702 1.470787 
-23.942589 -13.680329 8.730348 
-20.820263 -7.951820 7.358150 
23.392025 -5.452941 14.205535 
-16.722771 20.677238 -0.757333 
10.397342 28.123564 1.026336 
-14.182364 24.120245 15.726580 
-15.979990 22.088442 -0.007257 
9.291299 20.907681 16.277515 
7.748964 29.795578 4.890317 
-21.589806 8.233405 0.402685 
26.290554 -1.640373 6.652811 
18.916561 15.048454 3.041185 
-22.474594 -3.675463 7.236215 
-3.441624 36.309254 6.020216 
26.984350 7.045155 7.833010 
-8.804213 26.030422 6.967880 
16.302322 7.567757 -4.158670 
7.299926 27.270294 0.576983 
-18.309134 10.467000 6.555130 
-16.827774 22.308876 10.330137 
22.368208 -7.272330 2.290236 
-27.176388 -3.727226 1.305260 
-20.242004 12.303837 9.469101 
13.186410 29.752157 16.499453 
15.500292 31.362165 6.787372 
14.070113 26.238266 -0.742572 
20.650854 21.044333 10.842306 
13.588428 17.947676 13.625523 
-15.242226 16.181829 10.233520 
-28.761864 2.257664 8.986709 
19.821075 5.144590 -0.906841 
-4.885754 29.512529 1.526732 
7.571488 29.479912 2.790518 
-13.120559 16.249512 0.418610 
-2.948199 28.507652 1.065011 
-17.727274 5.911405 6.305839 
-10.405406 22.917521 -0.409080 
-25.845560 8.187108 -1.172439 
-28.761446 -11.065469 3.522421 
19.407240 7.996367 7.571767 
27.182503 0.635240 2.213163 
27.512733 5.459451 10.954136 
-28.770840 1.473524 17.446600 
27.051968 12.783939 16.126575 
-9.766675 25.375420 -2.769593 
-17.379959 10.040659 10.853259 
2.502026 31.749729 5.663009 
22.556168 -2.778082 8.771474 
-16.596685 6.281930 6.101006 
29.078211 -12.932247 5.479793 
13.065774 28.842144 7.758962 
-24.342808 3.928929 -1.373520 
-28.514542 -10.312483 7.806471 
-8.568370 28.144218 -0.681818 
22.334967 10.919007 12.921828 
27.061123 -1.335308 5.411010 
-18.819130 8.172595 2.809209 
-15.941495 27.753695 11.552020 
7.901544 29.733141 -0.550156 
21.815104 19.134624 13.202253 
-20.511122 -9.551251 -3.965294 
19.999624 20.508013 8.698075 
19.964504 7.193939 7.790299 
22.739998 -10.501109 16.863123 
-24.945927 -14.347798 0.273730 
17.416132 16.543465 12.697648 
18.568861 9.931582 1.204374 
29.951206 -5.703930 8.625454 
-27.412670 4.135693 13.287901 
-24.593889 3.584813 7.769402 
32.887150 -5.548619 15.716154 
3.764871 31.693317 5.082936 
26.569164 -14.852602 4.690341 
-30.664236 -5.660694 3.368751 
12.872426 25.195135 9.322692 
24.508299 14.637062 7.864817 
28.760933 2.387172 6.186544 
25.722836 1.351394 -1.339560 
-5.764765 20.345390 -5.132603 
29.112558 -1.430755 8.140072 
19.136538 16.785645 13.611635 
-24.989365 7.754908 4.493224 
19.802334 16.757402 -1.136711 
31.781525 -8.375042 7.194172 
19.429466 21.762386 14.110592 
4.199724 36.283096 5.812072 
-27.464128 5.077058 -2.451113 
-10.520191 32.655006 7.657537 
-14.328097 11.757430 12.471173 
19.950602 -2.457344 0.538164 
28.419321 5.108969 1.221024 
-19.549883 18.110554 12.050133 
-2.661710 31.518490 2.224357 
20.117426 21.819380 4.641443 
1.109363 31.139215 0.262326 
31.773247 -3.474072 -1.049217 
-20.345490 11.610208 -2.539239 
31.687147 -3.414024 12.780050 
17.028378 19.142906 -0.207884 
-21.437040 3.498773 11.160469 
-21.172476 -10.908927 -3.836988 
18.219923 2.340359 -3.827965 
28.186852 -8.863930 16.248306 
-21.836420 11.716384 11.093903 
17.431984 14.699739 2.371201 
16.159739 27.222322 9.113224 
4.931347 32.670727 15.338445 
-10.590644 28.952957 16.216002 
-25.090570 -4.047484 0.234558 
-30.075293 -4.560433 15.189604 
25.485310 -4.350654 14.945838 
-4.970792 29.613621 10.539010 
-4.537208 29.503902 9.897829 
20.349743 15.327504 4.872028 
-9.388697 22.843246 3.606029 
-14.168515 16.320517 9.093429 
-24.004946 11.940629 -2.778768 
-23.244547 8.668571 1.006148 
13.924938 12.336292 -5.917641 
9.339117 29.167807 -1.317520 
19.456779 12.253741 6.549049 
-24.806984 11.174493 8.016497 
21.559656 -2.543280 11.525208 
-23.214016 13.682907 -2.810557 
-21.345108 18.763407 15.304358 
12.106002 26.380901 3.543468 
-26.309181 -2.337009 5.478495 
1.256969 23.170906 16.120422 
-14.327762 25.948610 13.641772 
-14.371971 29.139278 8.214500 
27.650785 -2.593929 10.368285 
-10.336192 22.223614 3.969114 
24.636755 2.351062 14.066797 
23.469469 -1.978238 10.943618 
27.442326 -13.328609 7.380328 
24.835836 -4.136363 13.072649 
23.848755 -12.417665 13.737552 
8.012591 24.324081 -1.780165 
20.009300 16.461813 1.926353 
15.909901 20.278828 5.235349 
-27.936213 3.057585 13.028356 
28.172474 10.925909 13.508299 
-22.500788 11.824083 3.406991 
-12.778105 13.482444 12.717935 
17.200430 21.696625 0.289890 
15.057822 10.253991 -5.710368 
-7.774601 25.398197 4.037097 
24.416174 19.015100 13.044294 
-30.464914 -9.583667 14.792975 
-17.612827 -3.079964 17.277102 
25.701471 15.927127 13.109200 
6.617913 23.180199 -0.907034 
17.438944 21.520813 7.253451 
-16.626921 22.009712 -0.484170 
29.947514 0.587841 6.279190 
28.424625 5.649885 -3.259257 
2.282446 29.188164 -1.758870 
-15.323301 25.101154 14.072448 
-1.253433 30.345068 9.453408 
-9.082886 29.697357 15.945421 
-10.547733 32.389435 8.721987 
22.594885 6.751864 9.993815 
18.998667 0.609361 2.524582 
10.037772 23.248405 11.843081 
23.767153 -4.397885 3.519732 
15.233244 29.467781 4.827218 
27.155083 7.621897 2.271197 
-14.512257 13.251373 8.469740 
-20.969599 -2.105593 4.826000 
31.734735 -11.320647 -1.418131 
17.217163 9.121161 3.096228 
12.149660 24.054951 -0.567605 
6.973104 29.560738 4.809425 
-24.598989 -2.805628 10.835776 
17.946421 17.513548 6.670859 
6.108789 27.261553 0.004520 
23.513636 -3.670992 10.296268 
-19.521845 -6.729738 11.744319 
-7.859752 25.575937 -2.123682 
-12.000314 27.052856 4.797835 
-27.473198 -6.764403 1.150672 
1.689388 26.340157 1.183441 
4.532295 24.102905 14.247102 
31.266228 -10.175208 7.397074 
23.315687 6.920132 7.297374 
-24.489239 -4.354100 7.682240 
-17.745399 19.709715 -3.275594 
20.294624 9.557461 1.191295 
21.693764 6.171216 10.121150 
-28.179548 -3.978262 13.943339 
-4.958987 31.611298 14.081255 
-17.809017 18.453682 -3.205200 
7.150800 29.763247 5.831037 
22.749512 15.038770 7.096030 
-21.535334 10.852498 13.365867 
16.380833 17.568727 0.398709 
-3.820179 25.806452 11.657723 
-29.313026 -5.596700 14.631560 
-21.808538 15.594965 -4.035663 
22.137579 19.949776 10.864226 
30.907471 -4.107842 9.429436 
30.759478 -12.088109 12.741845 
-22.958000 -14.537118 3.372670 
-16.719357 1.327667 15.198589 
30.786226 -12.067469 11.961555 
-0.298161 34.647869 12.055924 
29.269772 2.527358 1.448833 
-20.938753 -12.110496 10.360954 
12.952625 13.974032 -4.735309 
-2.781866 30.221134 -1.212143 
-18.480612 13.541935 -1.810183 
-15.697846 22.095175 2.003527 
-23.568277 12.892426 -1.097825 
4.960020 33.866405 8.045491 
-4.204947 24.258183 -1.585876 
26.330757 6.476592 12.439154 
-15.249752 14.939050 10.445910 
-19.620806 -9.515781 9.457100 
-22.762094 -3.604069 9.867783 
-5.613928 29.860886 6.585499 
29.172434 -13.219543 11.083230 
8.356288 30.296329 12.266502 
19.459089 17.653118 13.555532 
5.997508 30.755648 5.583643 
18.783644 1.000415 3.178533 
13.850809 18.318308 3.833961 
-18.714708 9.259971 -1.487373 
31.030594 -2.150000 1.254825 
18.535473 16.788040 -3.823268 
-19.050327 6.412285 -0.611165 
14.887320 26.954590 10.955227 
-21.567085 17.778786 16.890001 
15.682113 21.921133 -0.285487 
-12.404242 14.941442 12.851695 
24.850861 -3.741886 11.998423 
-24.763472 -0.251494 7.267761 
-21.936771 -2.780133 10.160847 
32.196259 -4.397902 1.225690 
-23.308586 -11.005054 7.997495 
-9.290972 25.297623 -1.410842 
31.451490 -12.330569 13.730319 
-28.470901 2.516150 17.467674 
-28.990211 1.310702 13.129292 
-6.458535 23.566923 -1.002879 
19.199394 5.960287 1.784245 
10.138150 28.622122 5.830647 
-28.981045 -2.480285 13.427476 
-25.645679 -13.614924 9.497026 
18.224485 15.007963 4.902852 
4.076074 27.424892 1.256528 
-29.629595 -4.051939 -4.542623 
-14.092901 28.993704 6.141235 
-6.990332 24.610298 11.559460 
13.582851 20.547626 1.891061 
15.072995 25.255653 -2.370973 
3.565440 28.968243 13.356627 
23.774218 -3.146913 7.989512 
30.669758 -9.577016 9.177895 
6.555450 28.529518 10.298366 
23.241570 -11.262942 2.626410 
25.910532 -13.874371 10.778189 
-11.678457 14.654718 -3.811535 
-26.074852 5.369188 5.041916 
-23.903326 -11.157805 8.573401 
20.072126 8.312168 5.600163 
26.038054 -10.713703 2.108955 
-9.054958 30.997446 7.237854 
6.097998 29.904957 4.743235 
-3.694460 29.302118 1.830671 
17.306534 13.950320 12.514863 
22.051788 -10.475066 5.349336 
25.349157 -1.621521 0.834853 
-6.060492 23.613485 1.091319 
-21.564493 19.309086 8.821136 
-13.814157 15.179816 11.710935 
15.449912 25.471018 7.353994 
19.190212 1.188278 -0.010020 
0.884871 29.291721 9.967290 
-18.465405 19.284019 10.773234 
-29.805340 -3.501920 14.950851 
12.487224 23.917648 8.276637 
-0.104676 35.090302 7.036216 
-21.154718 -3.033695 6.238122 
-19.963018 -11.350117 6.101363 
-14.244852 11.237350 14.454645 
24.784025 16.645582 11.103663 
-13.733131 12.134712 12.871197 
9.352517 21.991026 14.253603 
1.678862 31.041857 4.796554 
-19.971064 -8.434219 -4.070879 
22.118843 21.887854 11.651975 
-28.481623 -11.106307 9.869429 
0.064118 30.057924 0.711901 
22.329056 13.196515 7.534377 
16.129889 12.682186 14.851303 
30.276081 6.203355 13.990356 
-27.396860 -0.834279 11.603303 
-22.058353 13.839743 4.573132 
-18.251242 6.692369 9.304805 
-7.427521 27.895235 -7.529333 
-14.591316 21.723867 1.497735 
24.227201 8.862446 3.551983 
-22.824203 12.524038 1.360777 
-18.777063 -10.223557 13.638033 
27.204979 8.501627 8.289853 
19.621323 7.388333 10.208016 
13.513527 24.319521 8.478687 
-30.640289 -8.353857 17.242022 
29.575413 -1.138882 12.711247 
31.638279 -3.631867 -2.528546 
28.307745 0.970748 13.760132 
-13.158504 12.719913 13.208634 
-19.000368 1.280947 -1.729666 
-18.438700 -2.736522 -4.615407 
-20.912748 16.998196 -2.896371 
19.978800 -0.201137 6.812297 
-12.406232 22.474905 -3.020222 
-25.741598 7.786868 1.307141 
-3.767739 26.413052 1.215787 
20.855627 22.303919 4.790021 
-13.812438 23.583584 6.796142 
-23.687651 12.600447 12.342458 
-29.694248 -10.789705 11.294923 
-22.504349 13.311695 4.066079 
21.850185 15.227990 3.015115 
18.425846 18.366718 -4.077033 
5.478492 32.864922 14.192976 
-25.229378 -12.786233 2.208689 
19.261293 14.070370 4.722636 
-2.823529 31.412344 17.466013 
17.810778 19.243851 -4.021924 
29.379629 -9.892789 2.790660 
-2.340067 30.085999 -2.173697 
14.053438 18.989882 11.450398 
-15.618902 16.514433 4.928977 
30.413225 4.971605 17.155834 
-9.886943 21.403725 11.036840 
-1.009619 30.008965 -2.082353 
32.245167 -1.561051 17.000738 
26.639849 -1.883252 4.666564 
5.651977 24.155472 0.062932 
-22.678455 -13.444618 5.103879 
-14.856746 11.443621 0.845452 
30.740038 2.981899 7.758699 
-26.558493 -2.462273 6.261000 
20.736809 17.786779 1.664024 
-30.821661 -8.996213 2.949728 
4.088291 32.851776 14.895586 
21.200806 -7.864446 -2.629523 
18.422750 16.281897 13.349214 
-12.644256 20.762371 10.820372 
18.746866 13.103183 1.174149 
-0.994854 23.344795 -1.820924 
-22.701092 6.450881 12.118506 
-20.473616 -12.984969 12.705795 
-8.525289 28.781412 -4.229028 
16.502924 21.758179 0.936056 
-13.781428 26.104082 -1.382869 
15.406909 21.226433 8.398158 
-18.600920 17.260105 0.826203 
23.585873 20.201868 14.447718 
-16.648586 11.019073 9.742729 
-9.803073 29.087755 16.879238 
29.922775 -9.912952 15.998069 
4.969455 29.514519 8.763934 
-26.902847 5.623056 0.063623 
-6.331212 29.799404 0.592952 
23.196772 14.545222 2.066352 
-22.292173 6.811193 7.818949 
20.065054 16.471842 4.899569 
-12.386929 16.463503 0.607923 
-8.334269 28.457884 9.710807 
0.411496 26.455685 11.283972 
-19.588427 -10.686290 6.557269 
-13.317277 21.795488 -1.279680 
-0.638555 36.801228 8.153833 
-25.092318 -0.877898 13.982401 
-27.382774 3.360520 7.637753 
24.418808 19.184364 8.181793 
-23.637035 12.855403 -2.384060 
-28.207977 -11.870410 10.134323 
20.929773 20.044661 5.883989 
16.754814 16.957130 9.797553 
10.032744 34.455769 10.202138 
19.261843 9.026628 5.232525 
-13.987247 22.713154 6.289051 
-20.484158 -8.006915 14.363895 
-3.628230 30.492680 2.720525 
-7.098280 29.327038 -3.990997 
14.994452 17.079638 -4.006641 
-0.643288 29.611357 15.480437 
24.888569 -6.017483 15.364890 
-2.470774 28.256502 14.524478 
-20.543741 9.421120 1.461200 
24.023836 -13.929605 3.384214 
-27.868818 4.409368 10.572025 
-12.499282 28.331259 13.752079 
-25.875462 -12.505194 15.082708 
24.552959 12.220609 9.863854 
-11.319816 24.528336 8.855687 
-26.017338 -3.204754 14.213603 
10.285667 26.028225 8.379548 
9.382600 28.730764 9.691770 
28.282356 -10.562575 2.550290 
-20.878895 14.887733 -0.492350 
19.590872 21.346972 10.783949 
-13.669152 14.825663 9.900553 
21.529547 23.467922 9.036724 
25.927135 8.973941 10.400895 
6.620024 30.073637 -0.692649 
-17.561472 23.775005 10.416725 
-16.598146 24.282274 15.544530 
4.100078 34.423168 12.063630 
-20.709875 -8.962590 14.497954 
-18.008451 17.657125 0.021507 
21.829790 22.980028 12.415652 
-11.386482 26.356018 9.624438 
20.322876 18.672802 -6.500295 
18.037779 8.590555 1.628633 
-22.158323 10.894617 11.443069 
-8.896609 25.442406 2.632223 
-17.452835 25.475569 5.422328 
29.569418 -2.172674 3.247250 
-6.222147 29.966841 4.650384 
-24.761936 -15.445842 15.772102 
-23.794924 -12.311079 1.436773 
17.823624 3.660040 -1.759002 
4.230947 31.462212 8.343339 
5.138189 29.639433 -4.898407 
21.876150 -7.069054 4.428595 
13.353964 26.270042 10.984156 
-20.167023 -0.284457 10.886837 
-23.248476 -5.850276 6.358677 
27.652050 10.962129 8.505651 
-0.484727 24.265511 13.391512 
9.109244 29.252718 5.803538 
-19.590246 18.727066 13.765093 
-17.177099 0.287439 3.754778 
-18.952782 3.556257 5.023365 
-29.609638 -11.398557 -1.782394 
28.016756 -6.335842 8.565610 
-23.957457 11.986126 -1.909735 
20.569307 13.662925 13.363890 
-10.063787 24.202417 5.844097 
-3.769769 28.866699 5.996108 
23.555994 -0.520088 6.050191 
-16.255974 3.434830 3.569384 
-14.928368 25.061081 -4.238358 
18.986813 5.335452 13.685759 
-5.494077 31.765022 8.569872 
16.505520 26.975124 7.274925 
20.494919 6.495133 11.092346 
20.325058 -0.309305 -1.102705 
7.824744 28.046329 9.221762 
7.284600 36.553436 8.413692 
28.719973 -1.890490 9.137673 
-5.242799 24.180460 -1.933292 
24.874823 12.377538 -2.770111 
19.888414 26.207829 4.890934 
9.544280 22.401625 0.970865 
22.081011 7.591421 12.685946 
-3.587393 29.007393 9.561030 
-27.616968 -10.998606 8.279012 
11.421941 26.520815 1.685543 
8.536961 22.851351 13.746599 
29.427063 -11.109542 13.102256 
-29.340179 -11.290241 11.819672 
20.490410 -0.304168 8.198647 
-28.720589 2.685080 15.768991 
-25.792755 -11.030705 5.712876 
-6.078359 20.294447 16.001358 
21.074263 12.148954 7.795702 
-7.122026 31.883608 10.742325 
-21.470398 -12.516459 3.165635 
-7.244913 32.707172 9.545333 
28.049152 -7.949936 5.026497 
-20.007877 5.163044 7.964382 
-12.208955 26.884289 7.342616 
-10.059138 23.525187 12.828493 
-25.622818 -14.584511 3.383814 
32.293907 -8.062150 9.093469 
-15.014625 20.596415 0.325776 
-1.334602 23.004976 -2.610975 
-12.665959 19.218632 3.046632 
-15.621616 9.255149 12.725184 
-17.863152 -3.262865 12.734526 
-25.274494 10.467705 15.481349 
24.522120 -8.939767 15.573934 
-13.726364 26.775860 5.996159 
-20.715656 1.902327 5.321737 
-1.166097 31.866840 16.657154 
22.496372 -3.523966 4.679147 
20.691290 25.915665 10.803824 
18.126192 27.311596 12.069706 
26.409042 -3.326038 11.600716 
-10.418277 26.984865 6.881093 
8.026994 19.441463 -4.992652 
23.518839 10.737090 -1.282313 
27.043198 -14.570934 14.715775 
19.613888 6.220764 6.432105 
-13.012674 13.696573 11.487853 
-16.265991 13.482358 12.853420 
16.869265 26.794773 9.859063 
-14.910610 21.997490 2.172059 
22.665798 15.086295 13.638200 
24.614824 13.561223 7.268201 
-17.767365 -0.467311 -4.831976 
-29.606894 -9.190503 8.441660 
-14.860938 10.193254 14.431882 
-23.405064 -13.342745 6.449833 
-20.139938 14.987037 13.151574 
8.789847 28.895159 -4.154190 
-19.077551 4.090186 12.811376 
-24.918329 1.159735 14.427558 
-3.685217 27.348925 11.119182 
-21.810625 18.987890 10.012337 
-27.764011 -11.510180 2.877507 
25.520098 13.407476 7.261810 
12.673025 21.833565 -2.877675 
-16.248108 4.813607 -1.008907 
-20.224009 -8.690345 6.750103 
23.195631 14.141310 9.598070 
28.124981 -13.804240 7.660528 
-17.865095 6.373577 0.869822 
-21.936796 5.104008 -1.880537 
-27.900782 -11.849394 14.306954 
-23.644630 13.886454 15.330413 
26.795952 -11.872091 9.141669 
5.675014 22.161844 17.687706 
15.461635 15.487513 -3.751992 
29.296867 7.840552 12.618982 
-10.670735 22.753250 4.988057 
-22.563372 -4.076313 10.478643 
-23.370564 4.119579 11.562881 
25.998720 -5.760539 9.058575 
-19.689405 -1.590200 1.517333 
-23.118616 14.999884 15.179577 
30.525991 -8.456273 9.190300 
19.500616 14.897773 13.663545 
-16.026003 5.447282 -1.640945 
-5.289457 28.850018 -1.526636 
-22.113152 11.273017 2.281015 
-7.304559 27.231152 8.360830 
-14.918870 21.386583 9.032862 
22.187456 -10.144382 10.583092 
-22.295589 12.508323 11.808291 
-20.907091 7.271029 9.900656 
22.142252 -0.918574 1.865298 
-19.594463 -8.335146 -0.776594 
20.494280 25.139694 4.394961 
-27.333595 -12.044073 7.614683 
27.267031 1.052820 -0.749395 
8.401230 24.334021 3.375784 
-25.415262 3.379745 7.291399 
-19.796600 -8.454478 -3.085378 
15.269823 24.567087 7.419808 
30.336349 -0.159318 0.731012 
15.019458 22.512520 13.483121 
12.688145 18.801861 14.169496 
22.259720 5.208965 10.705147 
-10.740313 29.141140 15.294606 
27.931492 0.235867 0.565260 
21.702631 2.489138 6.026428 
11.418508 24.643467 0.265476 
-19.703207 1.042230 13.349327 
27.006098 0.519635 13.901048 
23.868393 -10.797793 2.268038 
26.838408 13.614574 13.780970 
-8.244407 28.981798 2.590727 
-14.846148 17.171789 10.427384 
4.163978 22.759905 -1.869330 
20.508204 3.521975 0.725602 
22.484903 -4.727950 3.475589 
-17.849323 19.616779 10.243877 
-2.932127 26.490023 2.377958 
-18.025013 -1.140331 4.977238 
-22.943584 7.988426 7.811238 
-26.287169 -1.989976 11.926593 
22.115551 -7.976660 6.585956 
6.003512 23.481817 -0.310165 
-10.172490 25.720459 9.620275 
23.217693 12.458598 10.845264 
27.345335 4.068017 7.040265 
-24.626677 11.161687 13.421546 
13.956565 16.296307 15.815723 
-28.835442 2.708235 14.403791 
-30.840187 -5.896895 1.990502 
28.924011 6.011256 12.163395 
-10.670624 30.729635 12.116994 
-2.675068 32.530655 8.969052 
8.702481 18.827152 -5.201540 
32.116135 -9.157339 5.896799 
-24.320679 -13.787111 11.730365 
-8.417275 28.537947 -5.217271 
12.097358 30.125784 12.726830 
22.950249 -10.548328 2.356141 
-23.535463 -0.581473 2.850034 
-22.623512 9.589728 1.647162 
30.470797 -12.986190 4.030771 
-16.945101 15.051496 4.622377 
22.236616 -10.495181 4.534050 
21.804159 -5.363117 3.925195 
22.048126 -10.713561 6.287192 
24.553133 -3.893767 10.337671 
-25.836660 -13.180351 13.398270 
-3.776423 25.885145 0.503781 
24.718157 4.939585 7.671018 
-16.065422 9.052268 1.283864 
-29.375584 -4.560095 3.923799 
23.375898 1.031363 1.178680 
10.313698 25.474838 11.233028 
-26.045280 -1.885254 12.928181 
-29.315775 -11.816811 2.960772 
-18.764194 -3.500372 0.654199 
-0.304281 26.313223 0.272716 
-8.694839 27.930025 12.928905 
-7.005712 30.961428 14.398761 
-22.438839 -8.840260 2.006057 
-17.809843 -0.087584 12.020152 
-13.645140 21.786564 6.026423 
-12.511553 20.929119 2.867687 
21.310171 13.001743 6.415225 
-29.257870 -8.648643 7.487398 
22.058525 -8.073418 13.174429 
-22.345083 -4.875019 9.148514 
-18.214733 -2.730356 -2.178368 
17.022930 25.399036 4.927703 
6.340341 26.917889 1.468071 
-23.916180 -1.643005 6.520632 
8.253881 28.804195 -4.909259 
-21.485027 -0.502173 13.726780 
-5.926736 27.273138 6.326719 
-18.357033 5.753628 -0.383597 
27.967402 -0.381857 2.737252 
12.349293 20.810837 12.336855 
30.262981 -6.835839 15.989493 
-19.462257 -6.400119 4.832063 
-9.357280 26.344456 6.500149 
-21.869926 13.568366 6.746822 
5.416133 29.339127 14.606893 
-9.743122 21.737898 3.077924 
13.339267 13.618382 -3.318917 
20.063690 26.448984 6.004281 
-17.732992 10.890906 -2.688478 
22.086222 -8.441200 10.867312 
20.062511 19.801407 6.501256 
16.085911 22.526873 0.180849 
13.895408 18.736752 3.145376 
-7.850624 21.064096 13.308839 
-23.115332 -6.559641 7.611191 
19.900070 15.908657 6.346375 
28.519531 10.058768 14.076355 
-11.841757 14.320251 16.192167 
-8.444833 29.711620 8.739143 
-25.450134 -13.419831 4.592250 
24.375093 -7.034109 1.199883 
-7.119493 27.776173 -2.988913 
12.947478 32.578064 6.525186 
-17.486147 1.075187 11.981586 
-20.727573 -8.687662 1.113555 
-22.736158 -13.342736 -1.992667 
-21.972567 -5.413053 0.260325 
14.767309 25.480234 10.829886 
16.856129 23.070591 14.349811 
14.607385 25.364809 7.466074 
14.887996 20.488045 4.280166 
-0.559453 30.008516 8.774920 
8.771394 29.151285 -3.276958 
25.580193 16.769815 8.487806 
-30.080145 -3.437981 -0.019275 
17.300919 14.913072 -2.530533 
20.015160 21.364323 5.445496 
19.666584 3.605145 12.612888 
11.668895 30.279463 17.005003 
0.286297 35.107525 11.326990 
20.010376 -0.938482 15.162944 
-0.827220 30.362539 13.200824 
23.722019 10.519266 1.300061 
11.362885 26.133924 9.474574 
-2.341904 34.277836 7.949384 
21.674728 6.376686 8.326128 
23.075020 -7.817732 8.551208 
30.672350 -0.324408 9.997246 
29.088564 6.035706 8.224312 
-16.481068 21.338268 6.150776 
-14.999174 25.123381 -3.459737 
26.960829 -13.644453 9.463053 
29.054682 -14.015437 5.237808 
14.017354 26.489273 4.767720 
-23.607409 -7.701530 10.889831 
7.480649 22.135569 0.245955 
-23.273905 14.415810 17.697166 
23.103876 12.092566 6.075503 
25.935835 9.505091 -5.584681 
-12.282765 15.311559 -0.579289 
22.895990 2.635897 0.676210 
32.543446 -3.546531 16.955206 
27.517916 9.358975 8.414279 
22.034649 -2.492458 3.821308 
28.925425 0.319355 6.257147 
-9.060528 22.246264 2.863435 
-17.432119 27.027843 7.791017 
21.345020 21.927921 7.347260 
17.022697 29.395555 5.437490 
12.690886 25.815714 8.651279 
24.036327 14.849895 11.113562 
16.761627 14.188755 9.879978 
-30.118349 -6.603795 10.807174 
26.849443 13.541114 14.860657 
-23.423426 -9.680381 15.562826 
-12.976188 27.575314 16.231392 
25.185717 7.080651 9.312460 
24.493904 6.761470 8.854198 
-21.884043 -1.301008 13.567895 
-1.966371 27.724052 1.060798 
24.153101 5.071430 0.763890 
-6.079394 30.802185 16.478621 
23.251764 -3.602928 11.140374 
-23.835873 -3.985139 10.293018 
-18.371889 9.507508 -2.284678 
20.934700 -2.312096 2.488109 
22.544147 3.645167 6.990070 
-20.309181 19.934357 10.122749 
-26.148132 4.064116 14.197205 
-12.514379 24.067694 15.331206 
-23.619238 2.514293 -1.546989 
-22.452562 -11.118364 7.623362 
-20.480690 16.003860 13.733109 
23.570202 15.297173 13.412693 
-21.476028 12.055244 0.648078 
-24.119490 12.752908 14.817545 
-14.511758 20.824409 10.533424 
-9.627692 22.998878 10.590454 
-0.178256 28.064289 4.431165 
18.532509 6.671735 15.031027 
28.655888 -8.999957 2.123843 
-13.176680 17.559807 -2.961694 
32.409176 -8.856502 -2.020471 
29.816204 -10.889399 8.785371 
-19.646900 -8.020177 5.579038 
-22.570230 -12.685348 8.708231 
-7.003670 31.110437 12.376319 
-21.929710 12.335721 12.530021 
-12.795686 21.284689 -0.834181 
15.169843 15.209198 13.581544 
-4.218276 27.062508 -1.497738 
-25.950104 7.374778 2.991647 
-10.940423 21.058771 3.381409 
-9.673893 25.822811 14.627293 
-18.713938 -3.893079 -4.504700 
11.718948 30.643324 15.389909 
-24.771004 4.932139 7.312834 
-20.065556 11.525756 0.786368 
-21.803019 2.592210 14.147507 
9.134995 28.916945 -0.466507 
-26.383953 6.490877 10.910242 
1.023781 28.693457 12.943000 
21.496918 -8.248436 2.471987 
-16.030359 22.054342 14.680400 
32.903439 -8.427274 13.612264 
-30.468323 -6.877723 16.173172 
-9.390351 19.314405 -0.030260 
-18.529249 10.807593 9.459155 
-27.499317 4.687644 12.463593 
5.205363 28.235186 -0.186393 
26.383202 8.668269 -5.501421 
-18.778179 -10.161054 12.752475 
13.790729 24.069103 9.279401 
2.318282 26.372725 -1.055227 
-8.849191 20.458609 -0.438320 
-3.407805 27.654100 13.478327 
19.184845 21.276619 -2.687900 
-22.820435 17.447124 8.398861 
10.090139 25.421017 1.324774 
26.254749 -1.297750 13.396766 
29.681747 4.038206 13.420314 
-17.313173 2.961754 0.818909 
-1.352728 27.073650 12.715636 
-19.478443 20.250519 6.456215 
-3.219976 29.835489 -4.824941 
22.485720 18.409197 11.367010 
-11.372918 30.567741 11.574998 
23.897743 19.526770 9.109616 
27.488102 10.895386 6.404346 
22.533028 7.449324 -0.182995 
-22.996107 2.359937 7.436722 
16.740543 16.590876 5.300351 
-5.121736 30.819901 13.156448 
-16.386299 8.102254 11.345668 
20.329140 24.664694 17.008503 
-9.535255 27.065857 7.395164 
13.186357 22.131296 6.897175 
20.434660 18.069818 4.091742 
23.432632 4.391098 8.103454 
-19.529415 -3.775679 4.280163 
19.283636 27.361553 7.405653 
-11.454351 28.918949 14.798311 
19.385136 19.971992 -3.007048 
10.802487 26.471706 3.122569 
25.040899 -4.057134 3.659525 
12.058799 32.687901 5.816701 
-15.761094 23.617805 6.207138 
25.454519 -2.585973 3.961851 
25.592197 -1.285746 6.710411 
26.054365 -12.065023 15.318004 
2.220913 31.806204 6.427412 
22.441132 13.431603 12.049537 
-22.463924 9.951694 11.221196 
-6.918153 25.481041 3.939346 
25.351564 5.265476 6.810124 
-21.177849 -6.092066 0.618625 
-19.456591 -11.463822 12.856623 
-6.365987 24.395441 2.429779 
21.906681 -4.228491 11.713133 
22.159264 -8.809150 3.808921 
-18.999601 -1.831201 4.136724 
-20.129759 -7.539546 2.052898 
-4.126594 29.588184 7.615514 
-4.615335 30.867922 8.862095 
26.311813 -3.712818 3.831201 
-15.118184 13.143532 3.108717 
-14.139976 19.273907 5.334437 
-17.751102 26.333033 7.631002 
6.739780 29.788153 7.057261 
28.808077 5.005896 6.705171 
-16.829130 21.444527 -2.161989 
19.617193 7.577820 9.240148 
-18.012236 23.519278 15.456644 
-27.039488 -4.338577 3.758341 
13.740217 28.621992 7.289353 
18.803822 17.615150 9.020481 
-0.409061 26.706472 11.100596 
28.923128 -4.108802 15.317211 
26.221165 -6.893986 15.932560 
-12.572905 13.260871 15.338814 
19.046345 3.090547 5.826593 
-20.825510 3.413122 -2.043305 
-19.521355 2.981776 4.764132 
-15.788766 12.522238 11.117337 
-26.088926 7.747029 -3.102356 
-24.342211 6.247082 6.227955 
-19.020451 8.521916 4.922905 
21.293446 24.567804 7.643443 
19.914553 1.090231 10.020520 
-14.129915 28.775145 9.409584 
14.088085 20.921541 11.240018 
16.678972 20.737749 9.963305 
1.636547 31.913933 11.281331 
5.786913 37.060345 6.274719 
5.713083 35.276886 6.326607 
-9.269280 28.589813 14.014874 
-16.904072 14.782421 13.534410 
23.622576 14.142729 -1.156109 
28.592348 8.980101 17.255331 
-15.980721 5.979518 4.990725 
18.315924 10.129293 5.301323 
4.878170 34.696140 11.992648 
10.416289 26.400269 13.585126 
-0.751820 27.699095 13.604561 
23.186312 18.731331 13.379929 
18.420851 19.898199 11.824071 
16.982595 5.863723 -3.846617 
-13.262063 28.489006 6.315018 
-17.621021 1.634168 5.919908 
-16.421461 12.129402 -0.649728 
21.862955 -8.825672 -3.828628 
20.416822 -2.014434 15.951412 
-10.892975 27.212345 4.203266 
-23.976116 11.849425 -3.753005 
14.792689 14.936914 16.038923 
-19.758236 3.083114 5.669211 
16.252399 11.090040 3.308013 
13.606261 16.553938 -3.444927 
20.788620 4.861689 6.245410 
-22.540335 15.936131 13.569490 
23.279057 3.842750 -1.919596 
18.639688 11.057557 -2.907644 
19.412605 4.862058 12.551878 
-1.778714 27.049299 9.975516 
0.733434 31.504662 10.982482 
32.758400 -8.805940 2.184980 
13.809334 21.321554 12.136577 
-30.523758 -8.100326 4.932452 
13.962368 26.493904 0.030039 
-3.659262 29.269800 -6.033375 
-29.774666 -2.594388 16.399147 
-28.075493 3.819360 0.237769 
14.873625 19.412642 4.470907 
-16.223534 6.673481 0.126925 
-0.023867 29.458775 9.536280 
4.193408 29.261135 7.176744 
-27.130878 -4.907329 11.992249 
23.391399 14.291640 -5.086264 
22.625875 3.390686 -1.939805 
8.889868 32.078018 14.400106 
-4.133780 27.207657 -0.728152 
8.235245 32.735310 13.580827 
-20.241127 18.766403 13.281537 
20.814928 24.927706 14.634166 
10.122275 31.307638 15.480014 
13.562595 25.919580 8.465798 
19.397177 -1.504905 -0.163438 
-11.234919 29.118618 13.094687 
-27.555017 5.066152 11.049517 
2.372047 31.826645 8.025386 
-20.160440 14.216945 11.578168 
16.665813 30.147385 5.099113 
21.780531 -8.494349 16.913231 
