16.761972 -0.343681 1.364456 
-27.268623 -7.210579 6.231873 
-8.631848 24.070030 -2.696390 
13.566549 30.318436 9.212505 
17.567886 7.503564 0.086231 
-26.680611 6.197745 15.422403 
-19.971413 -9.804811 -3.146416 
9.002951 25.888800 11.993299 
-31.219936 -4.658610 11.376088 
-17.116135 1.552210 11.271658 
8.229066 24.360128 2.491861 
-19.159176 9.215010 -2.852860 
-17.480759 17.056215 4.889533 
29.422804 -7.061344 6.050013 
25.300644 10.056714 6.862872 
-15.522682 13.394254 1.890454 
-10.632048 24.270239 12.544302 
3.339475 30.558208 6.127566 
17.631880 24.883018 14.918553 
18.018541 -3.681618 11.557777 
28.699774 -0.611409 -2.353881 
25.832853 5.410817 5.846920 
-13.679697 19.347874 2.944309 
17.644026 -2.715018 9.667147 
19.428759 22.902512 15.154293 
22.485283 -3.943304 1.023758 
-25.615257 -4.737697 5.720664 
-22.856302 -13.213898 0.654377 
-2.785713 27.550104 0.485553 
-21.187565 -4.271045 1.232825 
23.313858 4.213093 10.805083 
8.882181 26.752615 -1.070761 
-10.293663 21.103260 -3.410862 
25.541016 10.171933 8.635787 
13.531312 20.757355 0.150505 
-16.468166 4.299149 15.259952 
18.863571 11.304038 6.066921 
17.441879 -0.465204 13.756797 
-6.156939 31.841091 5.241127 
-12.054780 20.106848 -2.781571 
26.466690 2.168606 1.914950 
21.959797 12.190338 6.507373 
-14.647506 13.935871 4.409890 
13.174954 27.422291 12.348990 
24.875759 2.107498 4.273995 
19.572733 24.232201 12.692397 
-1.377668 27.655293 -3.604753 
20.811565 -11.270495 4.695730 
-6.112628 27.994114 12.580256 
-20.318657 7.965929 3.001767 
17.235178 0.108270 9.435806 
4.796021 24.556871 -0.781707 
12.522690 24.474710 -6.561052 
16.165516 20.627113 6.207454 
-21.123821 6.281340 -2.012835 
12.305098 23.621214 -3.321934 
5.962201 18.500298 -6.850943 
-20.876175 -10.071929 0.683895 
12.895776 19.077078 3.029818 
-12.452439 13.714082 15.845842 
25.173492 -5.358798 1.697110 
15.547539 23.214376 -3.638422 
19.159781 15.700201 11.435382 
29.079954 -9.217396 5.425872 
26.613729 4.644559 8.141682 
26.158899 -5.177003 5.922559 
-29.745909 -12.653769 11.976045 
21.965929 7.384277 -0.460337 
28.632776 3.196794 11.884715 
19.900326 17.762278 10.837208 
24.727657 5.422947 4.991721 
-31.756025 -8.398316 12.095219 
-7.393298 27.895012 2.200992 
22.613022 0.149077 3.558047 
5.841857 27.504288 -2.324806 
-23.089220 7.999724 11.234112 
23.758177 11.084625 -2.874463 
-14.189862 26.891521 13.859357 
21.688597 10.430307 2.587386 
-30.680578 -5.221368 7.220047 
-22.053900 11.793623 6.335629 
18.933155 -7.004278 -0.949725 
28.147005 -1.676134 7.877975 
-28.052999 -7.060465 5.998432 
26.313566 4.512655 4.071895 
15.607321 4.344056 -3.521043 
29.191664 -12.227063 12.464213 
7.810600 27.198036 -4.296273 
-10.803000 26.110466 10.339057 
-20.007526 -3.099927 -1.797112 
-18.152496 1.007531 3.045334 
-1.204761 25.657940 5.506888 
1.898711 27.515335 0.438601 
0.412870 24.607273 -3.966898 
5.281466 28.393274 16.713211 
7.523031 18.495399 -3.884765 
-22.201956 13.611629 6.525311 
29.591118 0.345257 11.054416 
29.387104 -3.719734 9.498248 
-27.417294 -4.061543 0.689145 
13.818212 25.106062 11.474715 
23.782896 2.400876 8.187102 
-1.591323 27.170647 5.321979 
-15.164006 11.968032 -1.508698 
-15.533228 4.162401 -2.077817 
-19.832806 23.668875 6.461577 
8.985554 24.711727 -0.350135 
-26.014992 -0.628789 -1.467344 
-23.179964 -14.076088 12.883916 
-28.782917 -6.767431 12.763949 
-2.431463 31.072102 3.445306 
27.191975 6.309130 11.018447 
-7.615821 25.548464 9.587214 
3.461371 26.742197 1.058198 
-13.317400 24.773876 5.791869 
16.021351 8.400044 6.356108 
-14.454385 22.367975 1.381400 
-18.547918 17.858067 2.361255 
12.986442 26.025871 9.610308 
11.632526 25.320080 6.301169 
-17.146784 5.860084 10.455371 
-0.554368 27.353598 -4.105930 
-13.055964 23.545942 5.784289 
-29.914068 -2.232742 10.047911 
-14.645805 26.943775 7.857524 
-22.146391 1.545149 -3.537128 
25.999071 -3.839938 5.063770 
-16.018692 5.028216 14.156840 
-14.314715 11.805467 7.188224 
-19.047195 -0.183724 3.100798 
26.986168 -6.207732 8.502331 
-29.616747 -8.940427 5.263083 
-18.343981 6.267936 1.696556 
22.938625 -10.581063 5.872596 
12.579896 18.305437 10.771461 
0.766265 28.583786 7.849584 
-2.901569 28.980520 4.354258 
24.104919 -3.762732 0.415697 
-25.911665 -1.185810 0.791123 
-30.213814 -9.689880 7.297876 
-30.802462 -10.179559 1.506504 
-21.622984 -4.100540 0.604053 
-26.107206 -8.963405 -0.917841 
26.088982 -0.403017 -2.043974 
8.482183 19.960863 -0.646315 
24.374500 -10.172453 7.206685 
19.862017 8.830754 10.883041 
12.902277 24.917706 5.200274 
27.423849 -6.323259 -0.064671 
4.005259 24.869881 2.931591 
24.608812 -5.208664 -0.704563 
-0.904823 26.020250 6.795720 
16.243214 2.207711 0.672154 
-21.144228 6.220855 11.207170 
18.619600 -3.665764 8.838656 
-14.026544 13.948508 -2.294183 
-20.931465 -6.811112 0.669116 
14.540440 8.195594 -1.435592 
-23.566128 -9.385252 -1.124611 
-14.434319 23.846083 -1.179199 
9.144550 31.434383 8.411691 
-20.583351 10.624615 9.666002 
19.942760 4.917171 2.947006 
25.856798 6.915985 -2.532794 
-5.196565 31.619925 5.724524 
22.273664 4.415363 9.333270 
-24.517572 -3.164348 1.571552 
4.307108 24.715788 -3.224796 
-15.966238 22.203012 -4.962076 
9.140274 28.525688 5.772371 
-31.139477 -7.473818 -1.866171 
-11.114178 21.477695 -1.181445 
-6.171135 26.017286 12.332111 
-5.879041 28.183229 3.079078 
-15.261247 15.813284 10.892319 
-20.375845 -7.807477 4.358636 
-21.781620 -9.750071 10.481161 
20.733677 -4.624095 2.776211 
27.459843 2.635382 10.972792 
7.781311 25.599281 -0.027714 
24.364683 6.391946 4.391222 
-0.967277 20.423880 -5.919266 
28.387346 -13.634471 -1.511266 
4.719174 23.651981 11.325987 
-12.206342 15.310063 12.945897 
17.018202 26.039482 13.240902 
19.501507 -6.786560 14.406504 
14.642436 28.183632 11.421462 
-23.998047 -2.553621 3.936822 
-22.841108 -6.094916 5.724983 
-15.388519 15.087373 -0.378547 
24.199232 -13.868935 4.257110 
-0.738302 22.999811 -3.124990 
-19.907242 21.263924 6.653183 
-21.183859 12.391663 8.918829 
-14.500010 26.295679 5.360853 
25.082367 -11.975891 6.626647 
31.251841 -4.293628 12.758828 
-21.001116 14.624219 11.159348 
-3.341640 25.117847 2.879174 
1.556806 25.529987 8.274799 
-8.079473 28.803480 6.974052 
-18.841097 18.417723 -1.350354 
12.670711 14.944966 2.836687 
-21.317999 16.565069 5.504304 
4.748603 27.961611 -1.443681 
-30.086843 -5.880661 12.127341 
-16.414474 20.063725 -2.636353 
-23.643963 3.020976 -2.938941 
20.044197 24.745197 9.343935 
-27.679850 -11.823523 6.476054 
-13.661302 20.201590 2.901603 
29.388983 -12.303372 10.580386 
-10.271046 14.756578 -3.480359 
11.095283 27.291416 8.069951 
-29.654144 -9.592358 1.477135 
-16.643526 10.959249 10.335283 
23.712593 5.996193 6.176399 
20.133141 23.486088 12.991508 
-24.814007 6.550264 6.891824 
3.479828 25.523939 -1.899131 
2.691825 25.551207 12.335652 
-10.930908 25.368416 -3.711346 
-18.377661 18.251795 8.718307 
22.163635 -7.811829 6.564455 
22.065420 11.883304 7.225412 
20.550861 16.757076 -3.877704 
-16.934767 15.886009 11.659838 
26.097416 3.843947 -2.219408 
-23.897779 -13.494781 9.497316 
-24.365278 -15.162275 -0.164180 
12.991537 13.460481 -0.228355 
-11.170116 28.570154 4.473598 
2.387939 26.903097 8.910897 
-14.030741 22.413513 12.579176 
31.695713 -7.674160 9.648344 
-22.781406 -10.498418 11.387999 
28.588043 -8.058195 12.986707 
-17.328468 9.685131 4.990333 
-6.949614 28.173767 -2.165261 
14.691687 22.551596 3.085902 
2.087221 25.345558 -0.395736 
-27.945314 -9.317142 -0.039298 
-16.824636 15.435184 8.923907 
-19.723755 9.918420 5.018691 
17.101421 19.252121 7.135624 
-6.674694 28.703714 4.768062 
24.954149 -6.744101 12.241445 
22.116999 -11.935344 14.066755 
-19.914597 9.290458 -2.509425 
21.404800 -9.510770 7.737133 
1.240952 29.189192 15.660446 
18.450178 -5.303790 -2.517185 
-16.250124 17.065111 5.240898 
-11.325833 26.291859 13.026619 
23.302652 -7.874005 7.473395 
20.456163 4.162040 -3.812809 
29.283665 1.266089 12.845312 
-13.986870 27.518398 8.381735 
10.841575 13.882610 -6.368210 
-2.536055 29.351194 3.503337 
-12.373700 12.232079 -2.071935 
-19.749796 12.441653 3.181118 
-24.159283 -9.080987 4.378874 
21.500153 7.207026 10.841087 
23.075502 5.330483 6.041705 
-0.076706 25.030554 3.022924 
-29.125639 -10.595442 5.635237 
-22.251814 -5.661391 1.294698 
-2.589665 21.597885 15.047716 
20.941246 16.849436 3.733300 
-8.378749 29.008764 7.626034 
-25.845249 -14.984742 0.073074 
20.789652 10.982497 0.330234 
-21.459305 8.121592 8.557056 
-13.254457 12.955500 7.875528 
-9.993913 17.343231 -1.335426 
22.002489 -0.348816 3.110824 
14.503220 18.210533 4.756629 
-2.924045 27.653587 4.703933 
31.464390 -6.403368 8.970183 
-28.759764 2.895088 13.051340 
30.341295 -11.579530 -1.977451 
-15.521270 20.041809 8.726677 
19.564962 -8.703654 0.742484 
-21.520575 12.816992 9.625495 
-23.375242 4.115729 -2.803780 
-1.442984 27.206942 -0.520434 
-24.906567 9.822244 6.885330 
-17.288914 3.203954 9.413321 
28.115099 -8.050220 6.238778 
6.088246 28.332035 16.706053 
13.158059 23.090157 10.834443 
-19.165703 11.499711 10.584196 
19.040783 1.140349 10.482944 
-15.484660 13.563458 0.267214 
13.489355 13.183918 9.140309 
27.363909 -13.419212 2.842004 
30.653439 -10.201788 1.367337 
6.896187 28.265686 16.698561 
27.660671 -3.545308 2.408406 
22.197666 -9.199119 -0.697065 
20.187437 -10.536508 -3.014024 
21.939083 17.010946 6.153004 
2.365587 30.392307 9.105759 
0.185138 21.652220 -2.430969 
-9.025934 16.979918 -3.035833 
-8.476365 26.909916 11.300597 
-16.389683 21.359896 -5.991305 
-27.400505 -2.092865 4.635360 
26.908543 -15.555816 12.615348 
12.496714 18.822247 -0.800310 
2.404829 27.294243 2.039834 
-20.612852 -11.637958 3.152138 
-20.186024 -3.817555 3.997182 
30.456026 -4.658813 11.406901 
23.135435 8.150765 3.117815 
6.930897 28.739918 15.771207 
10.699498 15.909011 -1.577417 
24.969881 8.445998 4.900766 
10.706148 17.482473 -0.513333 
28.201082 -11.872666 4.646339 
19.616795 18.916487 -1.561453 
22.695421 7.582295 0.359088 
-11.247855 19.448074 -1.588695 
-14.522480 16.864040 -0.623259 
-8.145981 24.479336 1.588019 
16.626446 0.928592 1.720860 
-5.893294 27.267876 10.464884 
18.053108 12.725959 8.014064 
-18.714472 13.843796 1.295374 
-26.660013 1.299274 0.305733 
13.870023 22.811340 -2.195344 
13.110359 22.837015 9.234542 
-26.768333 -3.777659 1.189834 
30.001274 -11.016644 10.863897 
-15.022985 18.345810 9.255955 
-17.415098 8.010020 3.631778 
16.401018 22.520315 5.846546 
-16.145803 7.063399 5.243653 
-16.437912 25.377937 14.607742 
-9.032166 19.327930 13.264296 
-27.402407 -2.744252 10.485093 
-24.362282 5.773612 6.655691 
-23.732836 5.485013 4.442276 
-4.410142 29.557537 12.960161 
15.909515 22.131979 -5.821277 
28.050859 -6.469886 4.997408 
21.990524 15.027938 5.045930 
-20.316788 22.590307 7.930942 
17.182940 12.870889 -2.495828 
14.087344 14.186598 0.054208 
0.666356 29.534037 9.930636 
-18.833035 -2.088216 5.509440 
-31.885937 -8.129213 10.280612 
-16.645145 8.364720 -3.190579 
19.541954 18.836878 -0.628601 
9.306617 31.124146 7.616163 
23.481115 -12.108578 11.417568 
-8.378363 25.072676 7.930269 
2.018849 29.513161 14.766339 
-28.582235 -3.911463 10.830452 
8.500668 25.978577 11.414522 
-6.998516 21.440468 -0.239318 
-5.700841 25.287449 8.005774 
1.748852 26.440620 12.220450 
21.401764 12.466930 -1.443318 
26.873470 -5.846479 5.802623 
20.317869 16.794823 -1.800228 
25.760422 10.220135 10.004155 
-7.386106 21.796938 10.809914 
29.476166 -10.377112 4.354667 
-22.234848 16.003374 16.031548 
-16.431816 22.731834 13.615498 
-12.985647 22.108261 -3.536371 
12.244125 15.980257 -1.536608 
-12.467688 10.538485 -4.864975 
-0.237090 22.970480 -0.483971 
-15.420774 16.355474 8.239699 
8.485799 24.511612 1.415847 
15.180155 21.768106 8.202744 
1.578462 28.971075 3.378031 
25.654572 -1.580063 4.056989 
16.107121 22.659859 -3.511217 
-24.429235 -11.576651 4.251053 
-12.054808 22.502584 -1.589390 
-18.283224 7.204915 -2.031692 
-21.471098 -6.103379 4.357603 
2.981415 28.205942 4.603023 
-22.441158 4.161939 10.614099 
13.590242 23.117559 7.953843 
19.592432 7.565721 3.962448 
17.493336 20.861423 12.859677 
-15.525024 7.152087 8.640950 
-20.150442 -6.969872 1.647148 
-8.062572 26.140673 0.204004 
-25.501022 -3.323929 3.108538 
19.226885 -5.784354 10.015429 
-12.202491 28.562628 10.150560 
-17.529217 0.530109 15.023208 
-25.726995 0.359197 2.941708 
-7.333136 20.257044 -1.030143 
19.722118 -8.615655 2.243155 
-7.455920 29.051493 4.842004 
-2.144247 23.278856 10.077618 
7.746492 28.677929 15.719431 
20.421711 -5.326613 1.206214 
20.239780 14.246484 10.998472 
26.140968 2.550984 3.908876 
-2.776677 29.047064 15.987607 
13.568089 24.832945 3.018404 
-5.151977 26.966415 5.761721 
-16.804674 24.391733 5.859282 
-9.431969 18.589073 -0.770618 
-15.685400 25.839777 14.558057 
-23.468672 9.015420 -4.741300 
17.759777 0.647386 8.607099 
22.462927 -0.995672 -3.332329 
-20.324347 -10.449139 2.994494 
16.980261 4.112704 -1.312257 
-21.269878 -11.183048 0.623075 
-19.850906 16.719639 -4.457299 
18.047850 5.814615 10.014682 
1.185531 29.952965 12.783637 
-19.679817 22.915195 5.885615 
-19.862101 -6.981134 2.837053 
-23.830406 -11.378757 11.966793 
4.210639 30.453390 6.560630 
11.031792 26.548340 0.284094 
-15.518393 8.034164 -2.538615 
-25.222414 0.574824 11.820449 
-22.439348 -6.091365 -0.431073 
-18.646137 23.772257 14.666546 
-16.350836 1.106686 -3.370169 
19.529621 8.319789 3.962595 
30.967184 -7.333105 12.346424 
-16.454165 22.969839 11.271749 
-26.192564 -9.691545 13.180203 
-14.171460 14.271044 10.873753 
-17.479080 16.763817 -3.318302 
30.236547 -7.170821 6.056370 
-14.296252 7.705976 -1.304566 
-1.967383 30.657841 2.845395 
-21.241453 9.432102 -0.911884 
23.878302 7.014759 -0.849026 
-8.480636 27.774771 9.855615 
-18.075495 -3.119122 -0.670675 
29.610777 -9.504168 4.747661 
-16.935101 2.803235 15.166173 
-9.059618 25.279074 -0.450950 
-29.067583 -2.725975 -0.057236 
-15.718570 3.403983 2.177044 
24.666334 12.163177 10.497943 
-19.770267 -8.194862 0.281174 
-21.574278 -8.666481 -0.893691 
22.099558 13.999498 -5.094048 
-25.609550 -7.418136 6.127958 
4.023360 23.222601 -2.448949 
-0.882267 26.684248 -4.130009 
-26.231535 -4.042569 10.574913 
-15.842497 12.555540 11.395965 
-16.419891 7.115482 9.662523 
26.289408 -10.348228 6.774477 
-6.867527 31.525009 6.518440 
11.111691 19.465218 -0.705186 
19.672775 -7.785372 2.304288 
22.325090 -2.921471 -1.546040 
24.822769 -10.255599 5.004372 
27.633564 -0.044500 0.136287 
-17.466049 25.917654 9.969767 
29.566774 -4.385796 1.377608 
1.268823 26.924719 -7.718269 
-23.800695 0.721538 4.941147 
20.061296 -8.798078 10.646128 
-8.509912 18.667492 -1.534272 
14.535869 23.577408 1.600816 
-19.267580 17.737616 9.659214 
-23.526375 -7.479124 -1.221822 
2.872886 28.572655 16.734364 
-16.011179 4.303173 1.028134 
-24.637423 -5.033146 -0.675020 
-16.893230 1.160322 -2.066163 
-21.472980 11.404176 1.819543 
12.099091 26.165205 -3.031318 
25.405869 10.820486 12.049992 
-23.921608 -5.451676 -0.863705 
11.826215 17.893398 2.031230 
-19.503382 4.106037 -0.670519 
9.903337 23.379482 -3.123064 
32.127354 -7.358446 13.333527 
13.703522 12.097478 12.126270 
-4.137056 26.374760 -0.075587 
-0.110395 24.300985 1.465662 
21.317196 -13.416551 -1.188688 
-12.419227 25.593235 2.264019 
-23.900787 8.058849 10.982113 
28.384766 -15.113933 12.741618 
-27.942141 1.411676 -2.210488 
-14.932267 12.772161 0.354519 
19.298969 18.234510 1.812560 
3.906425 27.649979 -5.156065 
4.216983 21.658039 15.104740 
16.057383 17.447577 10.084048 
-16.144503 21.371840 9.976332 
-17.986015 25.649824 10.567404 
20.126444 5.015407 6.027428 
17.996958 11.271246 -3.026535 
1.350134 27.771845 -5.680202 
27.286526 -3.359061 10.342219 
16.618946 4.106633 -0.589073 
-16.455584 20.869112 0.595162 
30.092897 -6.463482 -4.248371 
-24.462837 -3.528002 5.473587 
-20.381216 -10.842309 -2.257820 
19.798878 6.570547 -1.453741 
-19.408110 4.119602 7.700374 
23.402807 15.760040 11.598678 
21.825026 7.577084 0.316738 
29.413153 -6.026659 1.544069 
27.747986 -2.658262 6.552995 
-1.991203 24.522921 9.676516 
19.784782 1.190618 8.348601 
-19.148787 3.697398 3.069848 
16.855370 21.391485 8.845810 
-20.700382 17.011806 5.047968 
-21.829615 16.164833 6.176078 
6.793172 23.394035 -1.239988 
-23.152462 -5.586852 8.485373 
-31.036314 -10.202249 -2.416139 
-17.160633 0.777845 11.534102 
-18.500011 1.778502 -1.684640 
22.035484 -9.393023 1.583716 
16.779665 17.823366 -2.903291 
-27.168425 -0.461923 0.725628 
-11.204476 18.005722 0.131240 
16.383244 18.483803 10.653113 
-22.343880 9.106063 -0.133422 
-18.948116 20.149050 6.124216 
13.484422 28.281858 12.862414 
-16.583080 10.929357 9.151097 
21.048420 6.195705 7.620435 
9.083129 22.136545 -0.150227 
-17.874546 17.503521 3.562764 
21.116892 -5.683088 7.433913 
5.808239 26.948940 -6.570834 
1.278880 28.110849 9.936538 
-22.703701 16.373865 12.899257 
8.623760 24.376932 9.735022 
4.155421 27.585697 2.096636 
10.348449 26.432575 2.580607 
9.822691 26.124945 1.959325 
-21.603487 -3.230156 -2.240288 
-11.998085 26.068684 1.522048 
2.051452 26.204533 -0.888049 
-12.323278 26.987078 15.749456 
-30.414808 -6.530017 12.375242 
-23.802092 13.151881 10.624223 
-27.892385 1.224525 -5.210363 
-12.312257 21.152725 8.983288 
-19.051638 -6.973173 -4.352811 
23.095087 9.761030 10.674478 
13.673310 14.206540 2.404295 
-10.104704 24.295387 7.949224 
24.974632 -11.850896 0.261777 
-15.021903 8.278444 10.711148 
-11.791427 22.295946 -3.850203 
-10.212561 22.556982 3.598292 
-15.821496 13.901837 4.682613 
-21.725155 14.440245 5.073752 
22.707647 -2.730302 8.506507 
-24.332445 -10.463231 7.561863 
-3.797101 31.196020 6.609739 
-3.439321 24.546524 12.006629 
27.658615 2.617827 -5.174994 
-22.042597 -4.959250 8.594419 
-16.527607 21.731722 -3.901203 
14.752689 29.917423 6.809371 
-23.299524 1.804494 11.637670 
-13.703066 15.741989 5.745365 
18.866762 7.309701 -0.699935 
11.532625 23.077185 -3.361534 
-25.266529 0.410204 3.712490 
-17.008484 14.945857 3.761248 
-12.161757 16.873838 1.991993 
8.898505 29.157167 5.004321 
-23.595278 6.795292 0.275709 
13.428438 16.257055 6.972900 
17.963820 24.157570 12.237665 
23.940517 6.076286 3.123629 
-25.179567 -13.947793 2.953285 
11.918870 24.636229 6.800138 
-14.154918 10.073451 -0.645760 
-20.099365 -6.231152 3.445161 
28.620983 -6.683835 5.989426 
12.979407 30.936623 8.860408 
-21.428886 9.838669 2.076694 
-8.107648 26.045740 4.885443 
-16.320139 8.104889 4.761734 
15.105518 14.529799 8.875883 
-29.987295 -14.431543 14.116570 
-10.931969 13.685390 -3.526911 
24.946978 6.389211 -1.088326 
27.325798 3.797891 -4.458483 
-4.259021 26.552195 -3.408775 
-3.393987 28.263968 -1.442304 
-24.316383 4.715919 4.879896 
-21.767221 -11.684941 -0.074571 
-1.340134 30.931337 6.236400 
31.305771 -11.060693 9.533098 
-12.728417 18.716980 0.462032 
12.269612 16.404026 -2.490641 
11.127274 20.432974 -0.202715 
11.577539 15.194702 -0.728572 
-23.163734 -11.821068 7.180101 
-2.087922 25.127369 -3.202160 
25.224579 8.185205 -5.746057 
26.466455 -2.436780 7.852366 
4.944355 27.716015 1.877860 
-8.882886 25.992342 9.222117 
-18.111269 -3.967050 -3.103176 
-23.730072 8.471119 -2.434231 
2.464381 28.915108 10.098938 
19.377718 4.176482 -3.752393 
-14.748457 7.947302 2.933390 
12.972883 20.426502 1.457508 
-11.219057 15.894976 -0.257347 
17.920441 -2.369213 13.635736 
-20.526920 15.317741 -4.108766 
-18.406359 22.651825 12.200616 
8.618587 25.914097 3.377106 
-21.450365 -7.604737 9.582663 
-22.717760 -3.699727 1.744554 
-28.749924 -14.574813 10.282223 
13.422505 16.020592 7.989569 
8.465398 28.754105 3.554299 
22.566240 -7.172019 6.649130 
-31.969629 -8.838495 10.628736 
-2.886599 23.991856 0.689155 
-24.273933 -5.608443 11.007858 
-27.390423 5.308685 10.281139 
3.533192 29.101151 12.653680 
-5.971204 24.547932 -0.790469 
-2.725693 30.237705 11.789972 
10.862634 27.606171 16.640448 
21.835680 -13.813855 2.191366 
20.636818 2.919001 3.478773 
-14.756712 10.412885 2.543975 
0.987758 24.085670 1.362507 
12.654806 24.825054 -5.798460 
-1.942070 29.486647 15.107430 
20.372173 7.222865 4.736961 
25.426212 -5.539641 -0.656939 
29.607328 -9.347686 12.913755 
-22.906206 15.514605 13.863826 
10.980077 26.855989 13.708620 
-15.513173 17.457087 6.557275 
16.351631 6.719649 1.005010 
27.645313 -1.914196 5.157809 
-18.818497 1.994036 5.774725 
21.572914 -4.252415 3.009447 
-5.015398 29.342712 4.330539 
-23.831577 -2.315640 5.553116 
17.549063 11.445649 8.056434 
-25.401749 -15.279162 11.694099 
10.888474 28.828911 14.270951 
22.478085 -5.592456 8.036403 
-21.879204 -7.849344 4.896610 
17.089565 5.858353 6.346751 
-15.631309 14.015176 -1.648848 
12.374199 27.072794 16.600266 
21.676064 -2.251171 11.205826 
-26.124537 2.291972 2.007968 
5.050220 26.645657 5.725735 
-21.915533 12.500041 -3.401372 
-19.685280 2.885083 6.350343 
-14.380828 9.423494 14.091958 
-20.700222 3.155852 7.261153 
-11.198822 25.022547 -1.768746 
-28.403000 -12.310889 4.557106 
13.703526 23.393698 -2.911085 
7.049326 24.480280 -2.915380 
-29.579142 -2.400622 9.387962 
17.073267 10.030909 -3.118161 
19.898033 20.313414 7.438502 
-26.013208 -4.431634 8.621424 
-9.141016 21.723398 1.776997 
-28.636730 -7.923773 13.156854 
-13.424383 23.098980 11.192175 
-6.435564 29.022694 10.890656 
-13.458259 27.541594 12.858433 
-9.827483 25.668402 4.781645 
-13.197221 22.590511 8.113997 
-29.745090 -14.505623 13.039171 
-17.002356 13.398731 3.041928 
14.554191 26.010826 16.523596 
-12.673711 12.952012 13.801444 
29.820072 -9.799289 2.294349 
-22.552406 11.630690 5.276698 
-19.709883 -4.636726 0.418255 
26.668949 -14.047798 9.363566 
15.479613 13.961539 1.949221 
-17.768646 -1.450118 9.392785 
30.335779 -1.544166 12.462245 
-20.302202 12.996722 -1.086884 
23.888439 -14.390759 10.733711 
-27.637218 4.966530 13.842229 
23.682037 14.364074 14.256512 
-24.272139 -7.760396 12.159111 
20.032724 1.210512 10.887244 
-21.585464 9.367807 4.196717 
27.444073 -7.498410 6.150763 
-19.139584 11.570590 6.856418 
-6.262184 20.749887 -1.396130 
26.671650 -6.337960 -0.436885 
-9.606958 25.487297 9.504091 
21.958860 1.503181 -3.885600 
23.002590 -12.104591 4.266074 
22.272848 -11.565614 9.243295 
-23.461334 9.149137 -3.659788 
12.118027 23.688276 10.205550 
14.128531 24.003508 -5.272191 
-20.664082 0.304011 11.401680 
-19.067358 11.896245 -2.622759 
-21.925713 17.826483 13.774280 
-20.178501 2.039614 -3.749014 
-16.782480 7.835225 4.038721 
14.408162 14.911193 0.453140 
17.407892 15.748126 -1.085661 
12.964379 24.799040 8.485556 
-13.447379 21.426586 8.688431 
-20.607235 -3.354392 11.063634 
29.740414 -12.761282 -3.612245 
-19.951672 17.417032 4.731402 
5.172570 27.447342 -5.447792 
22.276842 17.614344 14.711648 
23.215248 -2.698066 4.332556 
-11.797693 26.319120 -0.568600 
18.940603 -0.057153 10.526282 
-16.004841 20.122896 12.881458 
-13.979008 26.302776 15.603887 
-17.155504 5.509533 0.475143 
29.483923 -1.917314 9.218434 
-15.552540 22.239737 7.177095 
21.795616 -1.487333 11.369768 
21.434874 16.733681 4.483845 
-16.281397 13.062095 -0.836601 
18.328588 6.475364 1.751268 
27.844814 -7.911365 6.952173 
-18.317354 -2.738332 6.642334 
16.456009 14.582132 0.424342 
-10.360412 13.977286 -5.422039 
31.163759 -5.478949 8.632062 
13.608271 28.128605 13.781188 
-25.530693 -8.139723 -1.098556 
17.074856 11.944493 3.376323 
-26.325354 -8.102765 13.043977 
-13.694378 10.710875 1.242209 
-29.064377 -4.675259 2.757165 
-16.502047 25.977751 10.382286 
-5.069282 31.117352 9.622320 
16.025988 21.032631 -1.152939 
-23.294975 -6.092362 6.369689 
-28.508860 0.751266 9.954819 
-13.264097 21.964590 11.863569 
19.696817 10.687332 9.024792 
16.156790 2.567690 -3.634609 
-19.613432 22.009222 13.376614 
-0.295224 20.627783 -5.323061 
20.127556 -8.946856 12.853729 
-12.167068 25.332369 12.828853 
-26.921499 3.632636 -3.010697 
-24.945681 10.613473 13.129930 
13.691487 19.056820 3.260472 
-18.082840 16.564543 -2.763944 
-9.263274 26.026430 0.752305 
28.034580 -13.575867 0.204815 
-16.051958 11.001778 9.875325 
-16.246809 1.483065 -0.696826 
-16.923351 16.540289 8.445361 
25.164597 -3.069575 2.470464 
-19.847294 19.707191 11.682458 
-7.164972 22.639156 0.566306 
7.141495 27.634075 4.463042 
-17.047508 11.114942 -3.180067 
17.789169 -1.171297 7.338436 
1.593273 27.822796 1.441041 
1.712137 25.547722 7.438389 
19.498356 9.983792 4.675974 
15.226541 8.629141 13.993693 
12.500686 13.151348 -1.318967 
-18.154831 10.050217 5.344892 
-12.986463 15.971825 10.692604 
-13.680115 12.415802 7.039755 
-13.338823 16.739216 9.865217 
2.327349 23.080631 -0.466391 
-16.212704 2.164592 3.317730 
-24.380428 7.168253 4.205532 
17.023363 10.057801 6.310115 
4.243038 27.688034 4.223737 
7.900038 21.459644 13.557452 
23.729504 8.342922 8.029362 
17.216818 27.006985 9.811084 
23.956303 -9.068028 5.023882 
-12.019831 15.160332 -1.121916 
-19.215490 21.715466 16.384668 
-20.606407 -4.980926 10.462411 
16.501627 4.860024 10.067418 
-11.712291 29.106342 5.185537 
-7.907633 23.043280 1.040931 
22.576443 2.506336 -3.793054 
25.850580 -3.189897 2.843984 
26.144873 1.671060 8.495821 
14.885889 26.745808 15.066907 
-10.732484 27.601990 15.757723 
-10.433983 25.217968 7.353969 
-31.664946 -7.054262 9.466867 
22.166941 -7.219122 4.511099 
19.881744 -5.816096 8.847422 
-22.016972 15.574282 10.193009 
-20.006018 10.592666 5.428590 
-21.015162 8.614522 1.260485 
18.327076 15.719373 2.990136 
23.342276 4.449585 6.865582 
27.193586 -4.022812 11.288904 
14.425179 28.879568 10.791044 
-20.659243 -7.216717 4.704204 
-19.985535 2.069297 8.003010 
20.529877 -9.941636 11.691284 
10.463178 19.768595 0.738578 
-25.308451 -0.555113 11.882881 
16.359758 16.890537 5.071066 
22.093567 18.476599 13.546707 
16.116734 16.773834 11.050861 
20.644957 -2.066456 -0.866320 
19.561256 -5.286077 0.724497 
13.613659 24.620403 -2.372755 
2.654116 27.947189 -4.175632 
17.513239 3.426478 -2.922236 
-17.040857 9.706201 3.757746 
20.366390 6.635849 3.616702 
-28.391298 -11.861165 5.484321 
-22.505203 15.597152 8.056712 
-13.525080 23.127831 5.035815 
-5.427676 25.901848 -1.393550 
27.872841 3.232992 6.800908 
15.389028 17.010994 10.091642 
25.825211 -11.904301 0.499850 
-19.450901 19.078575 11.382735 
30.770945 -5.252186 6.896977 
19.042513 11.954243 10.228976 
-7.673725 26.594460 -1.174369 
8.014587 29.795546 8.181805 
2.439746 20.284473 -5.655007 
-23.026939 15.669729 10.762714 
13.160908 25.722410 0.546965 
-13.226281 13.359668 -0.341236 
26.135246 5.301045 0.257478 
-1.437096 22.348309 -1.327552 
-19.918724 -8.535305 2.574603 
-29.053854 -7.798207 5.799188 
-21.625925 14.979688 10.895271 
19.493750 20.130617 6.757127 
20.324238 21.255798 10.903768 
29.605154 0.230479 13.700386 
16.983370 18.854118 -2.736686 
19.201845 11.569668 4.835145 
18.298157 20.713772 -0.518892 
-19.539782 0.807840 2.320009 
15.652123 7.628160 8.806348 
-5.646598 31.752773 6.331993 
-17.969646 12.389006 11.380058 
-10.632970 22.682137 8.147142 
1.644797 24.881699 -1.915154 
22.590893 -5.412767 -0.727514 
4.402417 30.054213 12.574462 
-26.846670 3.955022 4.908863 
26.282942 -0.969920 1.110190 
17.481537 7.223234 -1.152128 
27.168686 -10.444547 0.242542 
23.956629 0.272357 5.652491 
-13.474560 13.718891 9.678214 
-14.530223 19.266058 8.342317 
-14.708545 25.995991 6.055399 
-12.954569 25.452288 1.246859 
28.783701 2.475745 9.606561 
27.121346 -4.156559 6.393048 
19.633291 6.170988 10.475370 
-20.501724 -9.686894 3.831076 
14.135993 10.605821 0.475489 
13.585464 21.151628 -0.922696 
0.441374 29.208342 15.673737 
31.654797 -6.557436 10.715446 
28.626177 -4.293500 6.082848 
-18.777460 6.755944 2.726607 
-17.210382 4.786668 9.334951 
14.004196 8.916046 -2.364159 
-5.475098 18.893820 -5.483632 
6.393925 26.395752 -7.648475 
-16.495464 15.210711 11.738816 
30.676546 -2.527191 13.524632 
1.026460 29.568501 3.609970 
-17.356438 17.842926 11.190413 
-16.648928 20.378889 -7.112809 
-23.123915 -0.224205 4.461951 
11.255807 24.086651 11.056010 
-1.892449 27.629778 2.320554 
10.788759 24.749496 6.217095 
23.294649 -2.204339 4.918221 
26.231821 -15.366159 9.529330 
14.340798 23.872671 2.266567 
-6.955932 27.601454 9.901103 
-21.782141 -3.629843 -1.037582 
21.206505 13.287600 9.672293 
16.646063 21.896399 -4.527960 
-22.653912 -2.213498 -2.679945 
19.668716 5.628405 7.638282 
-31.909271 -12.551748 13.363963 
-19.400213 17.096327 -0.490015 
23.849590 5.419557 3.550442 
3.656591 27.090950 6.136151 
23.782812 -14.050579 9.362617 
-23.932541 -15.105038 2.221307 
-30.165983 -10.675303 2.991681 
-25.387882 5.689703 -5.654223 
-20.441826 5.816895 -2.864526 
3.846293 26.766268 -7.694055 
17.083576 1.979964 -2.006554 
-18.167561 -0.982230 -3.236212 
24.488159 -12.169926 7.263875 
-19.566984 13.739869 3.153955 
0.271593 30.704634 6.408810 
20.894552 11.619249 7.645162 
-16.700468 2.798107 13.735744 
20.048134 13.804824 2.451404 
-18.522478 3.551300 -3.462237 
13.075820 27.678780 6.461348 
-28.056049 -2.234012 6.593799 
-20.931065 7.871980 4.718719 
8.747027 19.033762 -1.226492 
-28.250353 3.237767 8.824622 
29.870213 -0.832173 14.745576 
-2.492666 26.535238 6.636515 
22.007524 -11.482837 7.982843 
-24.561749 9.411907 9.363336 
6.090339 30.332628 9.335137 
-19.095694 11.113788 7.597947 
-3.659472 21.355585 14.824253 
-7.927697 19.302292 14.862835 
19.870741 2.506790 3.846875 
20.176182 -1.564978 -3.327409 
16.112362 24.668188 10.752038 
-13.248434 15.150585 6.894804 
-24.097221 -9.070592 12.329737 
22.907263 -6.588051 11.090840 
-10.159472 16.708708 16.028114 
-24.754934 -12.844134 11.933135 
-13.669944 7.939885 -5.844709 
-24.669498 2.982512 4.678679 
12.686337 30.645628 10.509344 
-23.403463 -9.117488 4.704893 
-13.254361 23.467592 10.186570 
-18.284801 -3.949713 -1.761554 
22.398157 -3.954690 3.546718 
-21.426201 1.499296 3.609595 
-28.905416 -4.905687 3.566758 
25.168766 8.474541 5.629083 
19.387989 17.486906 -6.705781 
-13.502696 17.182570 3.355399 
-17.025227 12.082563 5.133083 
27.934217 -9.856341 6.251592 
-31.713188 -7.263217 11.489799 
30.403471 -11.909185 11.619203 
9.823895 15.132387 -6.497900 
-0.730706 27.270138 -1.560177 
10.116230 26.324343 4.175346 
16.495193 1.676073 2.144331 
6.834073 28.594507 12.294031 
14.752104 10.108436 13.979588 
-6.908116 26.558470 9.679606 
18.123190 14.494478 0.880742 
-22.280979 -3.355676 -1.732329 
-20.062613 13.407182 0.189423 
9.233584 23.433151 4.193760 
22.479847 4.049718 10.762189 
-18.038183 7.436098 3.463952 
24.746460 -8.867125 5.337686 
-21.252054 6.397490 0.728460 
-10.308256 20.137667 10.842616 
-13.553765 22.073647 -2.891672 
-15.981049 16.332798 4.596565 
-20.890894 4.784159 10.434608 
27.423910 -12.798677 8.282421 
27.671638 -11.605821 5.771484 
-4.772421 23.512377 10.612997 
-4.707784 21.080284 14.588950 
21.643909 -0.003062 -0.924203 
18.561262 26.259495 10.741678 
-8.326413 27.800278 16.729990 
30.285370 -3.225813 10.042301 
-0.538892 25.284058 3.962168 
22.935623 16.492598 9.565237 
-8.509167 20.050955 -0.566044 
13.957832 23.643766 -6.244526 
-16.522367 7.268102 4.476783 
-13.394987 15.840423 9.822042 
8.659655 29.841890 9.679099 
12.736127 17.127968 -2.704163 
-9.252950 28.511215 14.640319 
12.889034 25.530859 -3.932053 
-1.206851 21.639814 16.307446 
-14.441936 26.180025 9.435606 
17.051994 9.985137 4.932876 
-24.099657 -7.677418 1.691745 
-26.999506 -11.710814 5.932217 
-26.786407 3.760506 -1.280170 
-28.002031 4.515915 11.597294 
9.582355 27.529753 8.604361 
23.422455 -14.611282 1.175361 
-4.063792 31.298437 5.729526 
-21.540478 15.856754 10.911863 
-4.632280 23.453005 1.203027 
-18.244789 5.198197 -1.926150 
27.174322 3.742853 9.503401 
14.799433 19.010748 4.771432 
-29.913626 -5.560964 2.675668 
19.433136 16.332853 0.277600 
-24.124451 7.080930 10.703496 
-8.013745 24.715029 2.957160 
25.822161 -5.403590 11.925418 
16.049778 7.455940 7.343595 
-21.696177 13.191265 10.410213 
-15.658004 18.246132 7.654162 
8.504294 28.087030 16.680677 
-16.437092 21.778101 -2.998275 
20.187983 20.647837 16.158018 
9.216380 28.104965 6.524776 
-13.899441 13.673113 -0.430556 
-23.355795 -13.715328 3.781099 
-19.628038 7.394082 3.207783 
-3.841319 26.595474 -2.742599 
-23.112629 -9.929654 5.055952 
-15.968622 25.396084 7.309372 
19.598064 21.426584 5.665391 
-21.530722 -6.271409 7.400534 
24.111839 10.209979 -2.617743 
20.023169 8.897648 3.942470 
-14.125037 26.805084 9.675596 
27.161968 1.250035 4.522097 
14.377631 19.444057 8.914195 
-10.623286 20.981262 9.658110 
-25.143505 -2.089520 2.919772 
15.733635 8.695200 8.211670 
-29.239618 -6.042226 1.204954 
-3.368945 25.695753 9.026250 
26.261219 7.654288 8.769745 
-28.898556 1.931544 15.158520 
29.187235 -6.055353 12.377669 
13.699779 19.724499 9.370947 
24.154463 -2.613687 -0.424893 
12.764310 16.848448 4.015579 
-16.033501 21.661665 -1.486253 
-19.600758 17.497604 -3.833560 
19.628016 7.559051 -0.229258 
25.471586 -4.002853 10.884512 
-12.689691 28.524120 5.292010 
-20.418226 -5.427043 5.357886 
1.963910 27.188656 12.532369 
-18.798166 13.749430 0.336054 
29.709524 -14.319038 12.891745 
20.534636 -6.842142 4.254070 
-17.613541 -2.168137 -0.349995 
-20.921127 20.040062 14.057404 
-3.542375 22.536663 -0.324400 
-7.062191 27.320807 -2.229517 
7.482718 26.530218 12.089441 
-13.371537 22.796001 12.078138 
7.690283 27.343149 11.568211 
-26.548058 4.497591 5.414073 
14.430462 29.752686 8.636219 
27.692921 -13.504245 1.648393 
6.132803 28.840582 3.185596 
-17.463684 -1.982114 -2.149852 
-16.976528 14.253211 9.200026 
25.240816 8.356806 -4.454121 
-13.659025 25.066488 -2.394300 
29.964077 -2.525197 9.894776 
2.775989 29.791895 2.832518 
14.404392 22.708731 -7.249973 
-32.186069 -11.371183 12.031659 
-16.006227 11.699704 11.032667 
29.676809 -7.631487 12.754395 
1.684157 24.441847 2.193418 
16.894981 1.904584 12.289186 
-19.667284 17.519674 -3.041966 
4.485293 24.472761 2.272919 
13.402133 13.414836 7.282691 
20.456955 8.273385 10.989267 
18.135483 -2.335371 14.696623 
14.681101 6.672721 -5.626487 
-18.899790 -0.340521 -3.493149 
1.493147 25.493950 -3.617024 
12.609582 28.121309 14.753223 
-21.311069 12.729500 -6.353604 
21.640881 0.803065 -3.857029 
18.036146 -1.873492 7.667387 
-11.430155 26.527542 -2.764836 
-0.944083 25.132339 -1.282944 
19.935898 5.379162 10.053208 
17.409763 6.620261 1.969420 
26.582987 4.327919 9.124731 
-22.686056 -12.378973 0.113204 
0.648996 20.734169 -4.914276 
-17.249008 2.361985 -3.341697 
18.836536 22.969091 12.048313 
8.194929 22.313345 0.263425 
-16.845669 14.844074 -2.427347 
-25.805624 -12.069205 5.503706 
22.230646 9.910077 10.751783 
15.297044 22.683733 -5.904767 
-17.412951 8.231935 2.632555 
-17.930311 10.990557 4.710454 
-16.046175 13.921381 -0.491306 
-30.416378 -1.980950 11.679089 
15.883514 7.119646 15.310268 
-27.453852 -5.311080 5.446902 
-26.115543 -6.331512 6.291325 
-13.061202 15.269795 10.188460 
-10.566446 19.600901 0.597079 
-25.855366 2.550451 11.284160 
-12.426564 13.940565 13.381086 
24.317200 -0.510638 8.610812 
24.533846 -13.527953 1.616132 
-12.833722 14.251501 2.117151 
1.629938 25.492464 -2.751810 
12.381177 14.944358 1.400801 
-23.571209 6.507990 2.224414 
-15.834976 21.975130 -6.059049 
16.432499 1.346788 0.782280 
20.388716 6.403638 -2.478670 
22.730629 17.055868 13.649129 
3.412563 26.789701 13.024698 
-11.420673 20.208551 1.777774 
7.172289 23.755655 9.472875 
-17.489254 9.010083 -0.493502 
18.473427 20.161146 -3.919921 
-19.004848 12.913047 0.372418 
11.434634 26.297731 13.532661 
-20.791082 3.104532 4.320154 
3.674189 28.514029 16.727396 
-15.711325 26.259594 12.835141 
-11.957161 24.924330 -6.650398 
8.681399 25.726564 9.042383 
19.099380 19.537580 7.729503 
19.885614 -0.395725 8.808339 
26.133474 6.586084 -4.418547 
25.064960 -13.438082 2.543565 
18.912287 -6.471147 -4.283089 
-7.695081 28.851582 14.553990 
16.763906 17.408449 10.951866 
-7.641544 24.842642 10.142326 
-21.184235 -9.171904 7.877958 
26.519936 -0.147022 4.393237 
19.282810 25.697882 8.357948 
-20.793863 -3.188652 -2.113353 
-16.927685 11.034599 -0.488036 
-12.897992 25.700211 -2.103940 
28.364202 0.380445 -4.946362 
-25.561846 9.573854 9.730549 
20.753962 -0.539711 -3.647396 
1.156524 27.498480 3.226139 
18.500311 -3.164775 9.854488 
29.383369 -14.435856 12.048930 
20.120262 -8.158517 0.319146 
-18.594358 15.734141 8.980533 
-18.926041 19.544418 6.599680 
-27.549671 1.091251 -0.313225 
-7.991747 20.208649 12.943486 
15.653702 21.664722 -7.140368 
27.124336 -3.401945 9.611429 
20.021378 0.269315 -3.816910 
-14.105009 26.647997 14.682199 
24.066263 -3.072128 1.201409 
16.482517 8.237816 4.368405 
8.776690 20.135036 -1.561920 
-20.608217 -9.703469 13.076882 
-7.211297 27.075817 6.327575 
-10.985183 15.751323 15.970213 
3.084745 30.607018 4.476630 
-26.523178 -8.202093 7.033418 
20.786467 -2.115406 3.760389 
24.064678 4.734651 -3.030540 
-14.528638 14.710130 4.321756 
-14.640795 23.102859 -6.285715 
-0.984587 25.704920 -4.112000 
-6.615834 26.164299 11.258264 
16.901751 0.616309 -5.006618 
14.158962 25.989231 11.958885 
-20.017830 4.563992 3.630586 
1.528762 26.574774 7.813170 
21.230249 -6.477251 4.746199 
-21.094643 19.167126 15.003780 
23.894609 -4.176262 4.329464 
4.922799 30.346306 10.012424 
-17.304792 1.182526 -3.364143 
25.005896 -3.128398 1.610594 
-24.551981 -3.733821 2.092674 
-28.240721 2.571154 7.949976 
-30.109926 -0.983648 14.976979 
-23.180967 -10.463855 5.881922 
14.817909 20.503424 -2.072252 
30.471519 -11.650310 -3.722338 
29.735521 -10.127122 12.840260 
-3.269521 27.926311 -0.144049 
-28.008034 4.247190 13.920424 
-25.016039 5.090483 6.114403 
-24.110422 10.624020 5.724061 
24.948128 4.863233 2.709776 
-8.878391 20.934759 0.874930 
-20.510189 18.928562 9.418173 
24.173639 0.525638 4.513682 
18.683468 0.216392 4.406532 
-17.932314 7.292877 0.412115 
-15.583523 24.399740 7.278268 
22.015133 14.016625 5.367314 
-14.537405 7.307041 0.706531 
10.409728 22.528244 -0.933902 
19.611998 5.060634 -3.572653 
13.327074 23.424589 8.754491 
25.312771 -8.665979 5.857109 
18.942225 22.741688 4.447920 
-4.643878 27.708778 5.561262 
-0.035714 28.508608 3.849802 
-6.354738 30.280247 9.894164 
-15.219594 4.904937 -2.113932 
17.317272 14.776923 2.415863 
-28.557167 2.691088 15.205717 
2.454470 23.981056 0.297499 
-14.149447 13.819934 -1.539042 
21.365717 -5.658749 5.916681 
-14.177253 25.155193 9.979870 
24.485834 -7.544829 -1.076605 
13.746788 20.243084 3.600414 
29.746387 -3.938989 10.178221 
-23.890884 -5.092934 10.304802 
-27.356333 3.812802 6.470794 
-20.906549 12.729936 3.871482 
-19.529205 13.887820 0.569982 
20.350643 8.029516 -0.012737 
21.227484 -10.930287 12.871161 
25.960583 5.087996 1.265630 
-4.864490 23.629938 -0.806409 
-16.426294 17.918612 7.824604 
23.610649 1.896532 11.522826 
-21.904814 7.095867 8.369792 
13.709467 30.840015 6.167657 
-22.182133 14.708969 6.120001 
6.185994 24.794754 4.059700 
19.011038 16.820621 11.270588 
16.812119 20.513971 -7.020253 
-3.660994 23.883198 11.309588 
-15.908189 22.318264 -3.019451 
-21.705135 -11.680182 14.259213 
16.050104 5.607226 10.490148 
16.861280 -0.198120 2.476310 
26.464504 -3.942550 6.039359 
-24.294594 2.306547 -2.732295 
-20.747234 -9.674891 14.383590 
25.772287 -8.837158 6.533918 
-18.054115 18.762096 6.409337 
-19.415825 2.021299 3.294219 
-19.669626 -7.796045 11.865765 
24.024944 8.572361 -0.732159 
26.962732 -6.803046 12.716148 
-18.190500 1.384786 6.537358 
18.897596 17.792519 -0.411233 
-17.012678 8.050894 10.151942 
6.158478 26.464600 -1.057485 
17.893063 20.885586 -3.790156 
30.580462 -5.744007 6.104201 
13.365929 26.997746 13.662147 
-20.986757 17.506578 7.125263 
-19.743715 4.801321 5.609672 
-1.844236 24.575743 1.781251 
28.240026 0.478924 7.152072 
-13.131598 19.446955 10.140637 
-6.652114 26.979683 -3.479693 
-24.454611 8.629762 10.365437 
-31.429649 -6.235957 8.235315 
-21.001377 -13.146094 2.976280 
20.988846 4.160639 7.336197 
-16.864182 2.127732 12.414279 
-22.101217 -6.114181 8.641133 
-10.051282 23.390022 8.123522 
-28.918293 -11.262819 5.346924 
21.808298 13.436689 6.770557 
11.834464 24.306017 -3.327467 
-24.711695 -5.453022 6.397614 
-17.228752 4.246521 8.438310 
-23.883194 -1.783781 11.903522 
31.459019 -9.433133 7.813290 
-1.736810 30.994850 4.839385 
-16.738155 4.219204 9.166321 
16.055962 22.458235 -4.611295 
25.477547 -12.597568 0.932909 
7.360965 29.708986 9.894017 
-22.115761 8.747095 3.478777 
-14.058600 7.088050 -5.759749 
14.714180 10.135478 12.620669 
18.429977 18.663675 -6.827893 
18.197533 -0.098604 10.151519 
-29.933723 -7.847600 6.610250 
-18.309818 -1.138798 5.780785 
-21.746218 -6.069979 5.821599 
19.327620 25.178272 5.201652 
12.171429 18.367317 -0.112554 
25.120405 -7.914476 5.097106 
-17.569532 -2.724699 1.980820 
-20.613380 6.914030 0.211329 
-18.233694 10.953590 7.118800 
29.081146 0.999511 14.865873 
-25.411253 -5.591888 1.739127 
-15.907852 1.210241 1.249369 
4.476047 28.451433 16.720169 
20.505934 -11.573168 2.839508 
-20.489910 15.274858 3.253594 
-23.737825 -12.229498 -0.077107 
14.130324 10.758062 2.296200 
29.163263 -1.068245 8.994408 
24.478289 0.687870 11.680400 
-30.515287 -4.634181 9.571545 
13.077490 24.180874 -3.145095 
-3.504027 26.766241 13.314178 
-10.123421 28.458744 4.907900 
-18.645237 -3.767133 14.752909 
-18.615242 18.338854 10.572647 
-15.098382 17.206547 7.921952 
-7.633249 27.524055 8.195582 
-20.689968 -2.421022 4.292433 
6.278522 22.814993 0.063727 
-20.889357 -5.306213 2.029998 
13.488231 21.293518 -1.792851 
-26.004993 0.171820 11.740695 
-17.178923 18.230700 7.800030 
-10.891210 21.759209 8.739296 
27.746809 -0.723571 11.122915 
-20.864840 6.573592 4.656039 
0.458795 29.611881 8.270905 
-14.819283 23.348610 -5.304763 
-2.538878 21.352678 16.294439 
17.804827 23.631407 16.358379 
-7.593015 27.658848 1.059400 
17.481880 7.821737 2.941317 
18.560123 17.684689 -1.509056 
13.022848 14.406339 0.523562 
-5.487834 25.196045 3.257687 
4.348655 28.620964 11.355475 
-24.645885 -3.443161 3.514889 
-17.047384 20.943768 -5.002675 
-30.152834 -4.002820 -3.209469 
23.902332 0.425172 -3.284969 
16.897503 9.255481 -3.023749 
23.292105 11.670274 -6.104828 
-6.053223 28.420769 -2.548475 
-9.290318 20.224562 11.457444 
-10.175641 26.219999 4.034424 
11.521907 20.870405 2.301246 
-27.360638 -3.592826 6.462941 
-17.419277 -1.983879 -3.283721 
15.603342 4.188665 -4.399696 
5.020078 28.004282 -2.971882 
-1.888077 30.926128 5.592712 
0.575288 23.961651 -3.628479 
20.484882 -9.762377 9.844687 
-23.974705 -6.368299 4.620064 
-8.502520 24.221828 -1.560693 
-30.428024 -8.498496 3.288873 
-19.418201 2.611242 -3.687553 
-25.636051 -10.967221 12.891136 
18.837114 7.102407 3.712746 
22.739481 0.920660 -3.691478 
17.801630 20.591574 -1.131421 
30.915064 -11.197552 11.784634 
27.978035 -9.297727 3.986005 
17.669888 16.724571 5.179908 
-10.273149 29.290112 4.737371 
-16.741795 2.932790 11.301773 
25.113255 10.025746 5.795449 
15.346582 28.420191 6.917717 
25.689510 7.481504 -4.392210 
-18.268198 -4.546066 9.473192 
21.902308 12.106138 1.915465 
13.809298 23.360151 5.503597 
17.125889 11.018086 -3.072031 
-12.347113 28.783546 6.679656 
-27.213350 -12.620159 12.730844 
-8.580915 23.254324 10.352641 
-24.792362 -0.807100 -2.228813 
-19.693407 11.513169 5.002202 
29.880287 -13.043486 10.450461 
-14.744285 24.757648 11.213240 
16.450529 4.869850 -0.484738 
14.492475 10.512123 -0.324439 
13.746678 13.865606 0.637719 
16.269693 5.602515 15.211705 
-15.644738 5.789165 13.322019 
12.942560 24.475599 6.582787 
18.425661 0.789280 4.815895 
-15.998348 3.427826 0.148986 
2.213415 30.927933 6.679914 
-22.963091 6.342300 10.877151 
11.991626 14.504134 -0.504281 
16.392231 11.494574 3.713091 
-25.927155 5.205475 -0.477831 
-24.982903 10.745203 12.070203 
26.295374 -5.336016 7.925342 
28.168163 -0.534260 6.068426 
-24.093067 -14.743818 10.090932 
27.236078 -9.011327 13.085439 
16.504669 21.559790 -5.742198 
0.630231 23.131432 -0.806352 
-2.104232 28.910969 4.245077 
21.401674 -5.477780 8.604229 
29.258348 -2.759547 -1.993562 
-11.807275 11.589267 -6.208058 
24.082518 -11.845932 0.183672 
8.387196 26.000046 6.712268 
25.962254 -13.403280 1.868055 
-22.230234 0.381740 3.951938 
12.039276 28.527330 7.246572 
21.843470 -10.733309 8.154274 
3.251153 27.342487 -6.388451 
18.661522 18.483950 9.358057 
22.672686 -1.782568 -3.009720 
18.654539 23.341200 15.687430 
25.448126 -3.787284 10.154134 
17.062227 1.302924 11.405515 
21.508505 4.169180 9.134368 
-21.639305 0.032157 11.695592 
-0.982251 30.075153 10.411701 
-11.344691 23.486546 5.783388 
23.731947 -7.377820 1.541517 
-15.626485 23.779726 10.981138 
11.882246 21.368073 -0.259247 
-19.521664 -3.720055 1.985373 
-17.102493 4.761029 7.431563 
-12.420489 27.338753 14.930776 
17.834888 -1.232061 8.766474 
-15.075201 20.009436 -2.156402 
25.579384 5.205442 1.929299 
-31.611860 -6.390159 10.479153 
25.641783 -8.209037 8.088013 
-26.261023 2.053830 -1.484541 
-12.849209 17.025911 -0.087368 
-29.188953 -4.000858 8.791555 
28.869022 -4.750465 3.401096 
-18.590767 -2.620132 -1.154393 
1.545283 20.448486 -5.702260 
-30.801540 -2.967288 14.852917 
14.809753 14.491975 -1.129308 
-31.059885 -10.230664 -4.061323 
-10.663940 14.388418 -2.929196 
-3.018929 26.734570 1.077916 
-27.431150 -13.567261 2.015029 
-26.379883 4.779309 -2.244955 
-19.379890 -0.158951 10.936167 
21.279936 1.379820 11.252925 
0.333655 27.584179 2.983155 
-6.928419 26.553633 5.408003 
-20.392393 13.535970 3.057035 
19.282631 4.978398 6.323988 
25.142796 2.806825 3.797743 
16.891953 20.122185 12.356687 
-14.408698 23.331505 0.465759 
5.101441 26.185616 13.030156 
-30.905399 -10.179339 0.362228 
-12.571814 20.584160 2.815886 
9.347276 21.404022 12.571355 
-8.665707 29.237230 5.781912 
14.753565 22.648167 8.342513 
22.878832 7.268727 2.556016 
-17.182259 21.017269 6.347047 
13.706727 19.818953 -2.190126 
-22.297106 14.063410 9.168183 
-14.754609 8.862681 11.513021 
31.107958 -5.603187 7.604404 
-14.803875 22.190193 -0.454848 
4.469119 25.791054 12.884558 
18.624937 26.257427 8.196806 
28.467436 -2.476952 7.841770 
8.199493 22.497282 1.140420 
-13.513968 20.447001 1.333220 
27.076420 4.214964 5.187759 
-8.824270 24.080505 11.612182 
-8.549167 16.374952 -5.280794 
3.058717 27.279835 -0.354951 
-16.277332 25.742455 11.141547 
-7.066002 29.270927 12.754415 
20.703842 -12.955062 1.770917 
23.076332 16.409149 12.766697 
-8.281037 27.541044 -2.667672 
-3.519212 30.740652 10.870448 
-21.121967 11.044694 -1.809177 
-21.221174 11.937856 -1.517049 
-7.125695 24.252951 2.094229 
-16.973091 5.070364 6.532326 
-25.330675 -12.562860 8.109421 
13.381584 11.781598 -1.057609 
-19.173525 -7.845403 -2.393681 
-14.689592 12.106244 5.641294 
17.623077 0.381851 7.736288 
-17.761084 3.242890 3.907879 
-27.323017 -9.205784 7.088232 
-19.002804 14.824803 0.289200 
18.459217 13.905285 -1.260955 
-18.896328 16.533825 1.561548 
-22.986538 -3.025802 4.661429 
-22.154545 -13.738597 4.134125 
-4.384861 30.681845 2.758485 
-19.216431 -5.785807 14.626122 
-18.155256 5.548304 -1.096759 
7.559204 26.822964 1.328170 
-21.866882 -12.256656 0.663686 
-16.679155 -0.256181 2.917185 
19.879734 19.214727 7.392379 
-13.156577 12.085449 10.559086 
-13.678261 15.914973 8.869091 
-18.979019 8.561661 0.118394 
-8.674062 26.877789 3.998368 
-0.598109 28.632038 -2.403099 
-27.231129 -3.245872 5.352104 
16.612103 0.514186 0.442848 
-0.358486 29.218767 15.694767 
-10.038920 21.893232 -3.640973 
24.213625 -8.644890 12.328127 
17.691734 12.265615 5.327358 
19.837708 -6.723962 3.653800 
-18.020338 15.626368 -1.327472 
-19.966566 1.102492 -3.743997 
11.059763 24.120132 -3.325369 
16.879780 21.867422 -0.714686 
-20.838562 -4.030007 8.728340 
0.614140 27.406424 5.909315 
-17.215496 19.819332 9.105893 
16.896923 23.651438 11.016077 
16.718420 6.388422 9.151916 
-10.477631 28.636301 10.952020 
-11.696629 28.453272 12.574671 
-23.396496 4.286152 10.663796 
-7.642842 24.086142 0.410579 
12.090775 32.049232 6.843183 
-18.944395 18.071730 4.858273 
-15.100002 7.631062 10.177387 
-0.217954 28.075504 1.534502 
-13.694695 18.605213 -0.109732 
24.267254 9.400672 3.437515 
17.669930 21.635099 13.216860 
12.359769 24.060503 -7.393244 
-11.145077 12.875981 -5.182066 
14.084105 9.898641 0.754406 
25.773310 3.004506 8.116122 
17.206532 24.167820 16.395084 
22.842337 1.671458 -3.730221 
-19.676443 24.005089 10.092543 
-19.524771 13.519850 11.482497 
