-27.847401 -16.329380 5.795037 
-7.554139 23.625473 6.454474 
-31.497717 -14.357291 0.096430 
-15.961821 1.247593 15.213341 
-20.731569 18.546101 -2.378580 
-13.294261 25.854830 -1.463121 
9.885604 22.603868 8.555851 
23.382551 -4.375356 0.819802 
-30.866201 -5.375593 -0.758828 
18.019350 6.062322 14.570359 
2.906591 30.787897 3.499063 
-8.488421 21.104248 1.718218 
17.297005 23.884424 15.160880 
-21.019775 10.209135 -0.179188 
-15.700610 15.916209 12.114455 
20.149874 3.472206 8.464053 
14.290148 22.581905 11.536017 
22.687113 -3.642394 15.378633 
-20.170296 -5.627459 1.197241 
8.741949 25.207495 8.825943 
21.091639 -10.130059 11.136245 
-17.263750 19.952467 3.298750 
-28.437944 -3.407645 13.095589 
-27.695444 -7.167243 1.190534 
-28.918070 -6.725141 9.911237 
29.938944 -9.170613 2.485528 
-30.498615 -14.759396 3.146928 
-23.564037 8.011902 4.293687 
-24.355255 -10.070305 -0.026557 
-6.741091 19.848993 11.304725 
18.054331 -4.263355 5.199811 
-24.320255 -1.938293 -0.186532 
17.361671 8.715238 2.322631 
-19.494539 -8.100973 -2.083505 
-0.761338 22.521214 -0.269016 
4.530879 21.083685 14.138418 
-22.134335 -12.086862 14.005072 
-12.198095 23.453676 -0.951646 
24.534624 7.231798 15.482533 
-24.225834 10.251951 -2.355270 
5.857564 28.499334 8.248818 
-20.953213 15.418793 16.779274 
19.827639 16.017136 19.924417 
18.952364 -1.269233 14.446525 
-16.257402 7.369301 0.807764 
-2.976067 24.159788 -0.729042 
-18.142124 -4.908614 6.308571 
15.592921 17.796028 12.222263 
19.339228 2.596570 5.185886 
-6.504004 24.971287 2.027959 
27.630295 -1.132621 9.578560 
-11.750887 25.453051 2.950217 
7.973350 25.731268 1.208288 
16.160454 1.321195 1.644981 
24.445168 1.154740 0.224058 
-19.683897 -7.905982 8.974485 
-3.402717 27.181368 -1.450598 
-16.768379 1.369127 11.791514 
26.893755 -8.749488 8.409078 
-13.053839 21.087053 0.980731 
-19.395956 -9.021701 0.687606 
-17.065165 -1.762941 4.922263 
-15.680544 2.125801 15.484326 
-29.401600 -9.818577 1.359318 
-20.889681 -7.454132 6.593386 
-29.404518 -3.752814 15.103045 
28.760633 -13.418214 16.786589 
-7.868269 27.241699 15.500091 
30.735411 -10.353570 3.175309 
16.622269 -0.995423 13.726311 
-19.077816 -1.515887 7.354528 
20.019310 11.569565 3.262618 
19.067614 -4.983469 1.897963 
20.212540 -10.516488 -1.888613 
-25.265303 -9.594916 7.460221 
-10.807863 22.801979 15.320776 
16.659557 0.658572 19.055462 
-24.670763 8.575254 -3.253757 
-5.789100 23.401211 12.234301 
-10.720193 21.104471 2.809272 
-5.355209 26.658394 4.966805 
-10.278236 18.759966 10.633774 
-18.311291 1.287803 12.211993 
11.691366 18.779863 12.199773 
0.721919 22.806398 -0.198488 
17.609173 -4.351182 4.192597 
-22.850916 -11.026637 2.788843 
20.692631 14.433035 19.843643 
-30.475258 -6.461172 15.737878 
28.263779 -2.355283 10.507898 
-1.864269 27.747297 -1.417966 
-30.195883 -9.855223 7.779825 
-16.381371 24.134035 0.763519 
14.200038 7.192047 16.124905 
-25.367294 1.303416 12.646097 
13.575009 27.239050 5.807878 
-27.902880 -0.997098 8.162609 
-18.545820 -5.078391 13.078791 
-15.480888 3.044611 14.095356 
20.196974 5.919670 7.967652 
-30.481218 -6.019117 2.636791 
21.025593 -12.299028 13.777899 
12.806858 19.373293 17.275896 
-7.334683 20.616739 0.771306 
-23.739008 -1.536664 8.447420 
-21.112326 -5.654068 0.558201 
1.726551 23.303003 16.331802 
-13.875276 16.967144 16.054502 
29.753071 -17.815392 18.135780 
25.412552 7.644734 -0.937960 
-21.078951 -10.783278 11.051029 
21.795149 -11.436601 10.960379 
-13.177947 15.350577 1.129828 
19.586679 20.607315 0.885883 
22.053898 12.666296 1.979935 
32.710316 -9.427078 14.738718 
19.805189 20.630600 13.499868 
-17.744263 23.144520 14.987073 
15.943728 25.353796 1.531433 
26.153889 -4.784614 12.954880 
30.799471 -8.635419 6.185019 
30.990271 -5.791379 18.806843 
11.557914 24.138277 6.877989 
9.021332 22.113686 2.455207 
21.538130 -3.997789 12.341942 
-25.210911 7.175289 0.159808 
18.257826 -3.830546 18.820223 
24.431267 -15.616302 4.677126 
-10.690512 20.752771 9.431618 
-28.234518 -7.055720 7.562954 
-23.474319 -8.611382 13.209439 
22.389313 -4.986387 5.568898 
-18.017008 -5.259171 5.189398 
-10.940921 25.878094 -4.802696 
27.314234 -1.114937 14.238717 
-19.691935 -9.578323 16.564856 
-32.249180 -10.812730 9.332512 
25.057812 8.546274 -0.029683 
17.651806 -6.069805 14.675610 
-29.606163 -10.573355 4.318327 
-24.305765 -3.995308 12.574256 
-20.757334 3.573100 -0.109691 
12.825438 21.501305 -1.002067 
20.071289 -5.448708 3.489061 
16.649410 23.047876 9.510184 
25.891592 -11.704978 0.050776 
33.648678 -14.203409 18.363535 
16.823723 -2.137027 15.885854 
-18.827650 0.314241 10.930399 
16.856815 -0.793858 12.906713 
26.756536 -14.196825 1.011094 
-8.896848 15.818717 16.542076 
-16.467987 23.602592 4.430875 
28.004370 -3.009956 3.679190 
-11.695458 23.485975 16.782839 
8.775020 28.567228 9.529262 
-0.837422 25.800678 0.494736 
17.239916 17.092567 12.400851 
-1.653193 24.633591 3.346624 
1.748233 30.524355 7.389034 
23.879387 4.438519 12.866907 
-20.517878 -11.266604 4.460254 
0.863884 19.067978 19.951523 
6.604710 24.181618 9.488961 
1.435032 29.560598 9.097799 
17.394821 -1.526540 0.216388 
4.191427 29.789110 9.511791 
-28.489849 -12.379269 9.112836 
15.671941 21.539297 0.243102 
-24.230228 -7.459380 0.851100 
-28.442274 -14.448000 16.110847 
-23.548281 8.437671 9.473476 
-15.725410 3.040071 18.946049 
-22.216042 -0.780711 -0.881282 
15.893137 16.975105 10.962913 
27.990700 -0.730645 15.674224 
-3.548181 23.280100 12.204370 
2.019466 30.650648 6.524534 
-15.588621 22.338997 16.268040 
-18.884968 -1.032714 12.495428 
-24.151388 -4.456589 7.584908 
-17.629452 -3.423225 2.039843 
16.444527 24.328455 10.321779 
16.095900 -0.013827 3.405309 
-13.312302 16.347946 15.092250 
13.361575 21.539886 9.169524 
17.116032 4.308043 11.814421 
16.958828 5.061323 7.424542 
-14.601258 23.217308 14.219468 
-31.920414 -8.968582 12.951362 
8.079349 27.993767 6.708438 
29.046453 -6.028195 6.746686 
-25.070677 2.201103 7.880677 
-0.927014 27.624012 17.054085 
-22.384462 8.902022 10.847110 
10.876459 24.042376 16.137329 
-4.244543 20.968790 -1.964338 
26.205109 2.532094 19.229479 
15.464735 3.478542 9.647958 
0.121122 29.758871 2.552816 
-1.345798 29.651289 8.959893 
25.573994 -13.666278 6.500219 
-27.809845 -5.959909 10.514160 
-13.212363 21.476706 13.132313 
25.181002 -16.482994 4.069823 
31.264677 -6.562204 1.987176 
12.563967 16.853622 3.010915 
-28.577349 -6.764861 1.751444 
-18.374195 8.135119 8.796597 
23.150425 8.470561 2.060329 
3.329672 29.732084 8.608774 
-21.397251 8.634274 7.385258 
-30.700985 -6.665461 18.300581 
-12.796156 16.349092 1.291696 
-16.339529 -0.326390 3.837762 
26.560993 0.214019 8.050305 
16.023203 6.237952 11.102905 
-4.848017 23.995382 14.158972 
30.374949 -16.723091 11.662061 
-32.024467 -13.152496 -0.171289 
-9.996183 21.790083 15.890293 
-17.243595 22.365179 1.138321 
22.626932 8.538327 5.591605 
9.682550 25.113148 9.880243 
21.288048 12.920246 1.925802 
-25.160166 -17.710081 2.757545 
26.892113 -15.694245 8.290000 
-20.886250 6.398359 12.140641 
-21.678024 -7.946921 2.789315 
-12.300299 22.259283 5.362025 
7.540892 25.587929 6.178703 
14.706819 6.378767 19.355833 
16.859859 23.255606 16.076925 
27.865973 1.227499 3.492816 
20.720522 7.540874 7.839612 
-25.087646 -6.910373 3.954289 
-18.670164 -5.957734 1.338183 
24.713415 -4.764220 2.668502 
-23.493511 -4.055834 7.586011 
-0.948256 25.825285 7.041125 
-20.440723 -12.535382 13.859262 
18.872967 4.842488 12.026016 
-28.719524 -4.254480 9.213828 
-18.487347 13.124519 2.962027 
17.581646 -2.048176 18.913313 
-29.828476 -4.641380 15.639399 
11.499629 21.247715 13.509112 
-13.710046 25.068588 0.531178 
22.110926 -13.880065 10.703703 
14.043195 16.077997 15.905458 
-2.270377 23.321058 1.418927 
-21.019253 -12.669395 2.824909 
-15.196413 9.719869 4.535027 
1.755119 25.060884 -0.967595 
-0.674035 29.288969 6.114696 
-20.864998 15.494501 1.424447 
-29.748442 -3.170814 -2.276608 
-2.813327 27.669601 -1.520687 
13.872280 14.876859 12.668921 
-21.498129 -9.986615 1.489261 
-1.206253 28.272005 1.788825 
-26.826889 -3.198468 5.359804 
13.495807 11.468396 11.828906 
27.699940 -1.639083 13.650640 
8.654548 25.652189 1.985126 
2.227354 26.956831 9.150069 
-29.762310 -6.732206 4.913200 
-27.685844 -5.227821 12.953986 
3.775977 25.292086 1.648247 
-24.183306 -13.935326 10.149095 
22.879269 11.638076 1.448938 
-5.954947 24.803690 -0.634405 
-21.274736 -7.116470 11.094011 
16.063232 3.809344 7.555975 
26.322077 -2.439244 4.061487 
31.123739 -10.001975 5.325285 
-2.414004 20.473003 15.614686 
14.676169 17.297024 3.305234 
-14.949018 10.717163 0.615692 
12.459450 11.765598 16.649813 
22.911469 -14.841878 5.611808 
4.680698 21.507896 13.473882 
-14.650254 18.607714 4.536479 
-32.599068 -13.250835 17.923985 
-19.896309 -3.030214 1.937216 
-24.298412 -10.367558 7.452422 
-26.581007 -17.712448 3.102817 
13.938022 22.474440 9.659091 
31.317141 -9.760280 4.479004 
-20.406940 12.077642 4.072401 
-21.895607 -2.284060 2.340115 
7.863261 20.264431 12.141517 
-18.196402 16.326622 14.359797 
25.436415 -15.487502 4.605494 
4.899008 22.151100 15.919175 
28.593861 -13.711052 1.896011 
22.995905 -1.802546 8.453587 
32.964481 -10.712524 15.909737 
22.700909 -13.861251 -2.387370 
-6.425442 22.745956 7.398526 
-15.792599 10.261277 4.925316 
-9.601130 26.060316 -1.263206 
11.879676 12.193615 19.654922 
-19.146393 4.527224 5.246688 
-27.932875 -17.408123 3.390823 
-10.318780 13.405728 19.556789 
1.160287 23.883083 16.409124 
-1.068347 28.031528 -5.138532 
25.056740 2.289473 8.898782 
-27.168348 3.541934 0.189281 
1.077914 23.094204 13.563066 
-14.074603 24.035769 0.714440 
-15.567972 7.748684 2.085039 
-19.597639 4.043564 14.702378 
20.535675 7.655167 14.098253 
-16.651644 5.208622 11.623430 
21.917311 6.256981 4.758406 
22.148563 1.352522 12.749029 
-18.918785 -1.810013 -1.083858 
22.862396 -4.975177 4.890022 
-23.745245 -7.489718 3.646318 
21.093225 -6.569569 2.722291 
24.472429 10.378977 1.743301 
11.271909 26.009436 2.661359 
21.592991 14.105408 18.242266 
-2.186860 28.302208 -4.019305 
-11.364512 16.645966 13.302012 
-12.403968 11.595968 13.577258 
-17.022079 23.596384 -0.161438 
-7.769058 23.973402 4.427317 
-30.977478 -7.614812 10.095358 
23.627083 3.813711 12.482651 
-10.914469 23.703470 4.445854 
-9.857242 14.642526 18.173500 
19.625013 -8.632205 4.635836 
14.040843 20.752737 13.183995 
22.860970 12.817944 -4.407501 
20.695810 -7.766276 5.471830 
-7.546524 25.242432 6.411991 
17.429846 3.083970 11.777207 
-21.393213 -2.064418 11.903383 
-12.441240 12.034113 14.276367 
-9.381087 24.550318 -1.075119 
13.110017 25.675116 -0.777943 
10.704453 24.579535 12.398165 
9.754803 23.609726 15.195181 
-27.672583 0.882724 3.485189 
-12.998231 12.780527 12.737550 
26.011257 -13.776046 16.197681 
-15.404384 6.349089 0.157099 
10.058166 24.622353 3.093390 
22.825022 11.919793 15.599151 
-1.031491 28.216539 7.972005 
23.597227 -5.115592 4.351368 
-4.160988 21.870195 15.881634 
28.737379 -17.106527 11.403028 
-22.209665 15.380928 -2.873853 
-25.836426 2.561560 1.109102 
-23.592319 3.477261 7.401723 
-6.479373 27.362898 8.460607 
-17.661762 -3.495919 11.192849 
25.510393 -15.294541 5.448766 
-15.989726 1.242367 14.319821 
24.366434 9.322315 2.660751 
8.788208 27.731163 9.624043 
25.189608 -2.946481 8.073322 
-19.864367 20.319675 11.122113 
-25.159826 -8.743357 0.168401 
26.559408 3.862815 -3.795177 
-3.880253 28.877434 3.989699 
-16.838478 1.832374 3.106766 
7.694816 19.089758 11.875931 
12.476225 26.204166 0.790671 
-31.483446 -8.893971 8.262875 
-27.440468 -17.107433 -1.263246 
-20.617844 -5.463217 7.031067 
-29.606794 -8.395516 1.762424 
28.338711 0.303988 -2.053699 
-8.596716 27.689417 0.481536 
24.284452 -15.987761 16.744373 
7.089944 24.795269 16.446121 
25.818138 -14.174206 9.809986 
-19.496870 -9.646528 15.158334 
-19.427944 -8.836688 12.003517 
-6.985629 26.079777 10.942323 
27.168913 -12.828347 16.559694 
-30.161705 -16.350416 10.721641 
-8.490490 15.380000 19.679043 
-3.146765 25.768635 4.289829 
-21.566668 10.991748 12.214396 
-14.291965 19.054358 5.344057 
14.183049 23.050505 15.461749 
24.655813 9.130597 -2.705177 
8.989012 24.306664 -0.386588 
7.366221 24.555721 15.468497 
-9.221095 27.634621 4.415172 
-12.974894 17.039854 12.258225 
32.313293 -14.651093 13.576452 
-22.932444 14.064776 -1.483242 
4.857236 28.598240 15.416305 
3.808939 30.687927 3.543627 
15.421187 24.298204 14.039632 
-17.489727 20.255518 18.311161 
-17.016161 21.978189 -4.401348 
4.864573 25.196999 20.318611 
21.284714 -14.003561 4.830082 
-17.223978 -0.588022 -1.855193 
-25.923815 -5.959500 6.394037 
-31.253252 -7.984796 12.868562 
18.428492 -2.600076 -0.598352 
-23.229578 -14.020210 0.602062 
20.500488 17.822151 -4.744526 
-11.583954 26.157488 7.002490 
23.332079 -15.155681 16.682611 
29.082504 -1.701141 1.104455 
-25.706558 5.119723 16.831245 
17.744740 13.513418 6.302474 
-7.168513 28.012121 3.782382 
11.461384 22.864969 15.285809 
-16.714874 8.761868 6.208083 
20.802649 0.367694 -1.327683 
23.581253 -11.741972 5.976210 
-3.980862 28.710592 -1.422463 
22.191914 5.598257 4.070719 
-26.833195 -16.357281 8.907111 
-28.416912 -3.994551 11.894917 
19.540581 -1.954695 0.842180 
22.210688 0.668201 11.387487 
12.206479 23.206709 19.332357 
-11.631341 23.127487 19.106153 
-28.649872 -16.009090 5.935399 
-4.493332 22.284178 0.744631 
23.389668 11.865451 3.846616 
28.544127 -4.738240 5.153662 
20.401735 -10.302944 12.218701 
-31.400501 -12.691716 5.842833 
17.873405 -3.492878 -1.225000 
18.941795 -1.155977 7.817874 
-23.876987 1.667130 7.155301 
-24.876326 4.813909 13.021312 
-24.876257 -3.929805 14.862973 
-20.520695 2.450708 2.555286 
25.922750 6.183371 0.374410 
-21.493601 10.703015 0.199683 
-24.502419 -10.836191 5.979925 
-4.588241 28.746523 -0.362718 
-10.007413 17.129578 12.451040 
13.449682 16.567553 16.059826 
26.714823 1.683214 15.020420 
19.475527 6.204415 2.070327 
2.269532 26.728121 1.057131 
17.795572 23.939346 12.396618 
26.915840 2.457818 2.563408 
-19.135986 20.673225 -2.187223 
6.476773 29.459728 11.248017 
21.827473 -0.633606 15.188912 
-13.198594 11.925379 11.269953 
-19.577902 4.737865 12.085563 
22.543358 -5.694047 6.101668 
25.148291 -12.033360 -0.113724 
14.626256 4.987749 15.315529 
13.697248 8.604070 17.816032 
-12.012170 18.215250 1.094921 
-17.674831 23.489429 14.138767 
-10.290922 21.302498 8.934162 
3.991351 19.196943 17.004057 
-29.137968 -6.664836 2.661135 
32.906349 -12.739861 14.240206 
24.703541 9.422927 1.432528 
19.584986 -3.810809 6.168746 
17.773680 -3.962088 17.425098 
-15.544314 9.460937 5.276258 
17.283310 -3.718929 10.552384 
18.922043 22.921684 13.596823 
15.467531 15.560227 3.167280 
0.424167 20.161829 16.727297 
-7.718416 21.337101 1.854949 
22.028290 17.092089 -0.430767 
-31.004837 -12.086347 16.426634 
30.045719 -6.697962 13.662541 
4.409290 26.917629 18.303793 
-15.013872 17.260805 16.798326 
12.624667 19.667749 13.791349 
5.072821 29.158888 13.600981 
-15.214998 19.914259 15.389461 
13.251313 22.458506 -1.360160 
-9.068506 25.116478 6.717267 
-29.256374 -12.530863 16.455536 
-16.946096 15.697720 14.827479 
-22.215029 -12.024513 6.042096 
11.185945 24.956230 2.607210 
26.577244 -7.952967 0.652233 
-2.129233 28.644627 3.380645 
-28.535063 -9.931998 8.100554 
-12.986403 20.966669 15.038884 
32.567307 -9.847736 15.420696 
-28.462112 0.553599 -0.637399 
-23.477116 -13.684472 7.086853 
31.544741 -15.215752 10.383868 
26.400650 -8.040999 4.037329 
-19.314110 -7.271945 8.528596 
18.502230 -2.600945 14.313043 
0.827416 27.122299 18.289921 
17.335808 12.188008 1.856640 
-24.311266 -16.978397 -0.000522 
-31.684273 -14.949347 9.387730 
15.652582 25.623426 4.096682 
2.638738 30.660362 2.288282 
-24.879210 7.011847 10.748049 
-26.038364 0.859776 6.627994 
31.131969 -8.456832 16.274355 
14.705675 4.254695 14.662119 
11.246063 14.939432 -4.364378 
-31.588186 -7.480917 1.156695 
28.605972 -7.366626 7.515648 
-5.030185 20.024496 -4.463660 
5.467573 24.767727 2.335936 
19.188286 -6.168102 7.999866 
-30.035236 -10.923520 9.018884 
-19.573095 19.778189 -3.132091 
4.199254 23.203026 12.942371 
-7.399372 24.258245 12.021702 
-27.135143 3.217147 -1.681270 
1.073516 21.566671 -3.375569 
24.042810 -4.404948 12.840064 
12.182446 22.689814 14.492147 
22.221817 0.808986 14.429501 
20.522188 9.411782 3.084351 
8.420752 27.743153 7.386011 
-27.341637 -15.476129 6.086388 
-6.206439 17.698154 14.827032 
25.428688 -2.006887 13.619260 
-24.575607 -6.878864 7.549265 
-25.216795 -15.198133 15.174389 
-19.588112 9.080770 9.089991 
0.908135 22.672665 14.969657 
-20.990023 -2.505012 14.459255 
22.559511 3.613874 -0.290150 
-13.227166 8.462079 17.828405 
-30.263054 -7.263006 11.648161 
-12.333325 9.886683 15.073948 
-25.306131 -18.237556 11.390199 
-30.334297 -7.148477 9.679806 
-19.582590 20.255283 -0.386086 
11.603773 23.824158 16.601736 
-19.498154 5.952503 8.205023 
10.313338 27.749260 -2.109696 
17.801004 20.018808 8.887815 
-4.462337 29.540409 12.360717 
-21.762667 -8.831193 12.472774 
-8.462004 18.754440 12.206003 
18.726809 -8.506658 13.072071 
12.345565 19.048512 14.885916 
-23.956625 -3.285214 -0.097751 
16.211718 4.915421 14.042523 
-5.802312 17.745300 16.810497 
2.472299 24.301922 12.402963 
-21.867661 -7.811515 13.191921 
23.820520 6.151859 8.753274 
28.990063 -10.886255 8.591183 
25.727430 -6.415894 8.398179 
12.699733 12.998698 15.090397 
-23.092432 -16.666679 14.022204 
-22.578812 -2.878132 -0.618675 
-30.138533 -12.906233 7.763314 
21.509735 -13.246241 12.830553 
-28.119671 -13.999859 1.271406 
-26.554802 2.776700 18.851128 
1.757497 25.100061 17.388716 
-19.009727 0.230557 1.850430 
-21.929375 2.594280 -0.334177 
-27.801392 -7.814214 12.138897 
-6.379070 21.925236 15.544481 
20.602816 -11.580299 -0.781641 
-11.979706 11.931506 16.331039 
-31.291277 -13.389420 15.100070 
-7.430729 27.977953 4.621543 
-16.823444 0.532081 -1.000569 
14.099272 22.964846 14.156556 
19.735645 18.167751 14.169235 
27.043167 -4.474468 5.702051 
-21.960968 15.209558 -3.802891 
15.837112 20.783230 11.121621 
7.800435 29.337521 11.483629 
-2.189779 27.125116 9.460546 
-22.569082 -8.675289 1.061489 
20.663439 7.991096 13.376049 
-18.696209 17.601669 9.965187 
16.112381 22.118704 5.309223 
29.006977 -7.506234 2.204355 
13.049657 21.816742 13.194791 
-27.837894 -3.805355 6.770131 
24.177729 11.112724 -0.950993 
22.848856 10.190227 13.217970 
9.132104 27.050058 -0.561709 
-11.106907 23.758953 3.697975 
-25.273748 6.972558 -3.122005 
25.201572 4.680060 1.733444 
27.150427 -4.131477 14.576059 
19.072021 -2.422429 5.759435 
19.588617 13.984351 5.148587 
20.754669 9.344044 8.034132 
0.521897 29.993721 1.763121 
-12.676493 25.330355 3.104712 
-22.690947 -0.053697 11.893002 
-19.821064 19.822643 13.163759 
17.979380 6.322422 5.533009 
-12.979366 22.556799 19.020866 
-10.314034 24.491615 0.902490 
-18.182966 11.871948 12.763105 
-19.386518 -3.156289 13.813967 
-20.760876 -11.795306 4.957889 
-15.892269 5.062304 -3.141961 
12.994477 27.494822 5.236835 
12.917397 13.570498 0.429002 
18.020798 16.306707 16.983286 
-3.246503 28.823988 0.856809 
23.034851 8.117315 11.525678 
-17.129765 3.522712 2.569295 
29.491570 -16.833363 11.311701 
-19.785412 3.646481 12.033997 
12.559755 15.624132 14.144929 
-8.750154 25.878365 8.887572 
-21.763201 -0.823542 14.503654 
4.947263 29.661869 10.965028 
20.865498 8.566441 7.835271 
-17.030804 9.426188 5.814777 
0.363837 26.349232 0.970747 
-30.668154 -7.522859 13.018693 
29.313911 -9.898403 7.944081 
17.949886 23.857170 10.539556 
0.330234 25.789902 15.377523 
24.972878 -13.914310 15.818901 
14.086946 12.959345 11.014579 
-15.089842 23.605633 -4.558162 
-5.076589 27.121006 3.141512 
12.903012 11.044019 14.111691 
24.225992 5.773962 4.773870 
25.945410 -2.846473 7.878714 
-26.435129 -6.335693 4.209472 
27.248405 2.171073 -3.679330 
-24.637318 0.038031 -0.070042 
27.942585 -16.810345 11.874389 
26.400934 -17.924084 15.441270 
-26.105322 5.008575 0.540894 
28.311338 -4.098227 11.237814 
23.695923 5.419699 5.790236 
9.784601 16.794193 -4.479014 
-12.360738 23.030195 18.172722 
27.466522 -16.595369 9.546802 
-17.945213 7.377402 -1.056800 
28.982361 -3.595171 3.142300 
22.948780 13.236526 2.919951 
-31.611156 -7.656540 0.281083 
19.056339 -6.902679 -1.179404 
-19.796879 17.618017 16.350559 
20.485010 -6.998941 3.132156 
27.872910 -15.915435 3.690670 
-22.465654 8.201257 7.032335 
1.145673 26.583794 14.041267 
-16.709578 23.161726 -2.940971 
-17.126650 21.385069 9.023051 
-17.235386 9.050245 -0.568699 
14.597387 9.377140 11.375220 
-22.658216 -14.029167 7.295866 
16.334429 6.710694 3.662861 
-2.250920 28.710478 14.827904 
-12.530750 13.174743 14.166579 
-8.340588 23.454815 6.325985 
-25.390615 -18.406057 12.821012 
-27.265150 -13.799934 8.309700 
26.379541 -2.454670 3.019295 
-18.634033 20.743303 1.160723 
22.597902 -9.333920 -0.365317 
-7.155615 19.119183 11.285899 
21.147978 11.778687 7.304883 
-2.050606 24.701468 10.617160 
-23.034885 -12.620523 0.250184 
28.583971 -6.641823 11.678245 
13.579479 23.482286 10.364613 
8.571232 27.889645 12.233859 
-21.378319 4.293993 12.366647 
22.855042 -7.005198 6.207201 
-23.979504 -17.690655 12.058701 
20.537729 4.754747 14.906410 
21.027403 5.887980 2.267648 
-20.519161 -9.066163 5.230735 
-19.872322 -9.639906 12.253398 
11.610402 26.629179 -4.040029 
-29.963923 -15.994635 4.944221 
27.929981 -6.743300 11.259585 
-19.877436 -4.408886 11.654800 
-1.773424 22.912539 16.242325 
-23.184204 8.276169 5.433624 
15.214431 24.838736 -3.678908 
24.910748 8.577334 0.951002 
-2.235371 26.112270 19.677792 
-3.660121 26.477884 1.549371 
24.725372 5.620887 13.301062 
-21.611164 -6.239426 13.931184 
23.810204 0.649638 15.120028 
-8.174776 21.578428 9.121876 
-13.832333 19.516253 13.581393 
-22.848345 -8.833784 12.051230 
-29.869808 -3.000333 0.161340 
-4.929063 24.202736 2.602088 
22.390768 -12.914461 14.517308 
25.008364 -16.296051 4.845826 
-17.774426 5.076749 11.493364 
30.337248 -4.646993 -0.029711 
-30.832430 -7.907175 2.840834 
2.452133 28.788130 -0.480315 
3.693997 26.515444 3.418245 
16.859627 16.544518 17.226257 
20.901661 -11.099801 12.107224 
-20.287796 7.206964 14.545540 
-15.846389 2.171718 17.621822 
12.737451 13.451994 -0.487963 
-16.631485 -1.298133 4.411000 
-10.408937 20.722008 13.434371 
19.735792 9.432840 8.085010 
-27.831026 -6.082219 9.318864 
-22.677725 -11.345521 14.330042 
-10.715322 17.390768 -0.082085 
26.548464 -4.317580 4.108621 
13.722345 20.869379 6.219609 
-8.922297 22.360796 15.895322 
-27.329195 2.352233 -2.736623 
-24.841433 -17.701595 4.458018 
-23.492887 -8.720655 8.721758 
26.474957 -4.261317 5.133628 
-21.121677 -13.384582 3.526782 
-23.521055 -4.834581 7.361681 
13.388719 9.322463 17.963839 
-27.466654 -4.552398 7.117539 
-20.305878 18.066326 -4.047906 
-22.502472 9.694418 12.966034 
23.570778 12.913648 0.326653 
2.410549 25.802794 -1.637017 
-17.830374 6.048741 11.149179 
12.233585 24.119169 7.388975 
-29.582657 -3.601945 17.534079 
15.295506 4.437258 9.546936 
-11.630312 14.415865 -3.923909 
1.078563 21.917477 -2.242915 
16.612663 5.605167 1.732383 
-20.109724 -11.547282 13.768425 
-13.928332 21.608213 -1.439175 
-28.973391 -0.679231 -0.367677 
-24.530077 -1.588849 14.951697 
-19.280972 -5.252471 13.423123 
18.316666 22.204403 -0.620926 
-3.900118 28.279694 -3.049328 
-20.425575 7.222434 11.662345 
30.261791 -4.802033 -1.484253 
24.758894 -8.056464 13.698409 
22.509205 4.782380 12.498768 
17.248491 14.473867 12.052745 
23.783749 -14.873296 -2.329820 
22.603573 12.688302 16.599880 
-30.501522 -14.328603 6.550601 
7.632634 23.789913 13.586445 
27.907209 -2.231135 3.600417 
16.507565 -3.214825 3.781904 
13.510501 22.357822 20.226534 
-24.584572 -16.791225 -1.337202 
-21.442270 16.779009 -3.205608 
6.326604 20.909004 11.292282 
-11.248684 20.963490 15.494800 
26.911722 1.152317 19.158777 
-31.106861 -10.693369 16.363182 
0.356485 26.613934 13.459291 
22.036016 -14.335786 12.880301 
-21.659075 -11.482215 6.182380 
-15.675797 18.728313 4.485700 
30.904316 -13.638328 15.099399 
-16.449518 24.350952 10.748270 
-23.456774 12.628664 -1.267238 
30.615221 -11.752923 5.364374 
23.112047 13.616840 0.438753 
-1.789749 23.754917 0.916042 
22.160818 -0.741764 -0.860086 
18.949446 5.562500 14.853736 
32.989246 -9.832346 11.896193 
-16.264013 3.609653 8.315079 
-18.613190 21.445820 -1.330033 
-25.902969 -1.947905 14.886407 
-17.981722 19.865080 2.890503 
23.123747 -5.482058 6.789242 
-2.122904 18.927340 19.921598 
-17.228262 17.042299 17.046589 
-17.520500 12.546495 3.166434 
-28.921833 -8.142871 7.579342 
-25.397419 5.845196 17.023457 
22.134167 8.429797 6.415629 
-5.782148 18.748678 13.772029 
-5.725056 21.723242 9.679951 
17.820704 9.980445 11.898026 
-28.081852 -15.528433 1.998692 
11.774238 14.153630 -4.314216 
-21.973906 -9.966502 0.843799 
-28.007561 -10.478101 16.258255 
3.565274 25.077700 2.455758 
-29.163965 -15.183958 15.947207 
-32.281143 -10.284046 1.022520 
-20.213625 7.766905 -0.724845 
13.721208 19.114901 3.678720 
32.008446 -13.376300 15.367548 
6.412447 19.530144 -4.626798 
-14.710436 18.489380 2.942812 
25.343327 -3.532265 3.376935 
-17.865128 1.677589 13.187496 
-21.841684 7.819135 6.829066 
13.352212 17.187449 16.540176 
18.552654 2.932961 14.420952 
10.121324 24.725349 6.508849 
2.878538 25.752720 10.959205 
-29.349825 -9.877152 14.198859 
-7.865669 28.661249 14.032855 
-23.635202 7.360315 6.915416 
-22.349937 -3.779021 2.711541 
-26.319267 4.898311 -0.463729 
20.830418 -7.415983 7.162945 
-21.540804 0.001948 14.256378 
-26.566776 -6.636655 11.236521 
19.943913 16.986794 13.701746 
3.288924 30.360743 7.976160 
-16.026966 17.978168 13.675325 
-25.394398 -3.821951 3.941954 
-18.061123 13.029232 12.807707 
0.866340 21.687975 13.765763 
-14.349936 22.608200 14.678606 
-25.625490 6.391736 -0.574100 
22.896959 -14.094526 18.289684 
22.869816 11.194481 14.844900 
15.849385 4.949705 12.838969 
13.168478 10.162624 13.882870 
-21.478058 -3.944102 14.517985 
24.412764 -14.230498 5.707217 
-18.739666 16.530220 12.304978 
-23.163240 7.586831 5.122016 
-13.652656 20.048574 11.450183 
8.072188 27.564508 9.428318 
-17.042173 -1.861385 14.546567 
-21.333319 5.050898 5.731864 
-23.779863 -16.446621 10.266515 
5.708881 27.175823 17.519281 
-9.010241 22.323013 2.973533 
14.919929 10.049510 2.089466 
-2.435867 27.114826 16.108313 
-24.845924 6.253855 19.055222 
6.399873 23.472544 1.428760 
-21.966002 17.250813 0.550740 
0.125831 28.165068 0.727646 
16.393589 23.470913 -0.074822 
-22.186611 -14.297974 17.943672 
-22.434690 7.057530 12.437879 
10.289262 26.330561 7.514174 
19.722820 -8.283404 3.875184 
-25.666544 -16.136536 10.213675 
20.549221 -7.830092 13.797363 
-23.464188 12.520247 -2.352669 
-2.782851 26.418678 18.381227 
15.021769 6.251061 12.344729 
20.225002 -9.467710 6.152940 
-22.590374 -14.493514 8.565217 
-3.995425 27.721304 17.241505 
-13.385663 14.043707 12.727464 
-13.539827 7.713828 15.183968 
-25.241220 -10.818841 -0.019011 
24.796835 -3.930694 2.926748 
22.577885 13.559999 -4.458650 
19.396729 0.219860 10.472888 
-24.760000 -12.424372 0.109220 
20.939297 -4.448140 2.377059 
-23.208340 12.047754 1.154377 
0.856902 22.240479 13.038835 
-20.269047 -1.273448 14.095844 
-10.589134 25.609402 1.679696 
-27.420761 1.645062 3.901253 
-4.702735 24.940308 -0.276377 
-22.939220 -8.453337 7.627629 
-10.860420 17.481783 13.361728 
16.772720 2.946798 1.028850 
9.305835 24.299751 1.411154 
-16.100988 23.960358 -2.513817 
-22.955765 4.939266 12.649206 
22.231319 10.381862 12.390168 
19.827011 19.871214 14.138873 
15.288413 8.167216 1.641142 
-6.458343 22.615541 2.544571 
18.945766 21.524445 16.722656 
-18.345772 4.533307 4.122238 
28.188387 -13.357332 6.916752 
26.800173 0.577073 8.960446 
22.724186 -9.330883 9.105076 
9.072524 22.098574 13.501609 
18.168514 3.651177 5.242429 
-22.554134 14.678838 -2.701229 
-21.792164 12.721854 19.433937 
10.210463 15.137100 18.282560 
-20.391411 8.210871 12.056857 
-17.600203 -1.610592 0.741248 
-25.992147 4.413068 16.636921 
26.921618 -16.212137 2.198890 
4.311387 21.646400 12.696726 
-22.636578 10.801003 2.154407 
7.646513 24.764391 14.756435 
0.837541 30.568388 6.018187 
13.066763 20.173538 11.468780 
-10.152190 24.491247 10.614227 
-22.742060 -16.055742 6.086484 
-30.255371 -12.228938 16.467960 
9.683377 17.588154 12.782438 
-6.810479 27.761929 6.319401 
-20.495773 1.148821 -0.893167 
20.311529 -6.422725 11.518543 
16.986002 -3.904549 14.211020 
16.408710 9.750973 11.435101 
14.220489 21.430231 13.927255 
-20.993580 -0.751293 14.265639 
13.294614 20.591379 16.228704 
29.217691 -17.151842 12.173540 
24.098490 -8.778134 13.740526 
-15.293787 22.383133 10.697734 
21.774727 13.026918 18.983513 
-22.395075 15.025833 1.843900 
-24.207638 4.182549 7.578519 
-19.963789 -11.091284 1.417773 
-12.317616 20.141914 14.177339 
21.669405 -11.249920 5.181920 
7.629515 28.912241 -0.730735 
17.291428 21.830246 2.115147 
-8.428600 24.072603 6.908910 
-20.140945 16.903006 16.900591 
-21.898548 4.877946 7.648582 
-17.346659 8.131540 1.771255 
-13.074583 25.915068 0.326393 
-29.085468 -12.067295 9.851661 
18.063765 12.779454 3.530113 
19.833582 19.490629 11.157378 
-21.632288 -13.422378 17.995987 
15.424210 5.785745 -2.600493 
8.126102 27.494022 8.629601 
27.249166 -12.795042 5.515220 
2.291111 24.392242 1.215595 
-20.118568 -8.185272 2.960301 
0.425887 27.890104 1.792687 
-23.983210 11.012009 -2.346462 
-17.614904 10.403692 6.301812 
25.207973 3.578110 1.279291 
-15.983246 21.174232 10.423606 
-22.170467 -3.259704 14.746519 
-28.697803 -3.828841 10.708684 
-19.214151 -5.257497 8.292454 
-23.550116 2.625122 8.754432 
-27.168665 1.015303 1.556072 
23.270765 6.531496 7.663075 
17.652250 20.733221 2.209817 
29.233625 -4.660192 14.468412 
-14.937381 4.414351 16.355295 
-26.927822 1.801539 14.810618 
-17.488241 -1.541806 -1.861934 
-7.518363 19.208239 -2.022680 
-26.008278 2.100357 5.991358 
-8.872597 27.451553 -2.465685 
32.188702 -9.528319 9.583912 
8.754195 27.406635 10.523736 
24.676386 7.775161 2.083786 
-16.266960 4.193814 7.614630 
23.665924 3.259454 0.142365 
-16.834045 21.837072 5.784779 
-12.702916 12.398785 13.430989 
-13.834049 7.126318 16.073910 
16.966475 11.718404 3.149203 
-9.619431 21.950583 7.427375 
31.883850 -9.110700 9.011076 
-18.490271 5.552141 7.317922 
-26.758638 3.995998 -1.648502 
8.329632 25.705616 15.882801 
17.911055 7.136291 13.523427 
-6.626341 23.513514 11.660782 
-16.565378 8.059008 5.974666 
18.353966 1.395176 -1.600543 
20.586983 -1.659920 -1.170990 
26.644596 2.004402 17.885786 
-20.434137 10.954929 0.493354 
30.229546 -12.582687 3.921058 
-15.757555 19.023453 3.063271 
-12.264431 23.269070 9.275843 
22.402800 -10.931459 5.544238 
-4.411904 27.772821 0.781957 
-2.770576 28.915442 -1.595775 
-17.743086 -3.794715 17.203835 
17.441250 -4.304740 13.630154 
-27.891624 0.113611 2.793179 
-16.746408 20.376436 19.400652 
-3.362720 25.235619 3.628536 
8.001057 23.414091 3.428285 
-16.424120 -0.360326 4.815772 
5.238859 19.745152 14.616367 
8.418139 28.127380 13.043712 
8.873895 28.089869 1.640008 
17.149609 -3.986362 15.129263 
23.636450 -14.971328 18.246910 
-20.543030 -12.595019 15.033278 
-17.670528 -2.072295 5.423522 
-10.135909 17.808903 13.901891 
-18.106968 -3.755767 18.554277 
9.014094 26.655155 1.784334 
8.135195 28.524801 -1.663180 
-4.410781 28.821024 6.080768 
18.396740 -7.087303 10.841284 
26.167406 -6.174219 14.689784 
25.890726 -10.446152 11.031285 
-19.567940 17.321907 12.365485 
-23.086519 2.972889 8.219430 
1.835446 21.797220 -2.564594 
20.491907 9.876639 11.707782 
28.159906 1.489219 0.963410 
-20.919909 0.732917 6.963063 
-31.690187 -13.331489 8.532901 
15.988778 19.852367 11.025449 
3.982788 20.877790 13.425488 
-6.594212 27.843920 4.840664 
18.086737 1.809966 8.458558 
33.755165 -11.775270 17.818172 
27.378489 -14.288279 8.245846 
-24.842718 -14.387409 15.260864 
12.034970 19.219463 13.074984 
-15.091434 5.424844 13.173560 
21.746096 6.269926 3.664433 
-14.709692 25.124086 0.414264 
-21.151209 2.934826 -0.327129 
-23.940279 1.141114 -0.186433 
-13.766790 13.308479 10.939538 
-15.360101 21.385357 10.847395 
-28.359945 -16.957090 11.904955 
-19.467514 3.357003 7.165889 
12.868153 20.243216 13.179537 
-11.942780 17.676678 12.305832 
30.207079 -5.019281 16.029480 
7.305308 22.377274 1.605270 
21.522240 11.964228 3.468385 
-17.687153 5.513492 0.907570 
15.419165 4.394337 8.689664 
18.467041 17.949926 18.201941 
17.531900 21.762005 17.879728 
18.949251 22.961918 12.650481 
24.565838 1.237095 7.626317 
-28.425135 -4.715386 11.052597 
15.069137 9.782630 5.204085 
13.863367 24.009518 -1.573082 
20.192846 19.741833 1.231429 
-17.175053 -2.742672 14.752779 
-22.017172 -11.454093 9.418281 
11.431618 21.853964 9.224100 
-26.449940 -4.472941 12.707829 
-23.395550 5.512599 6.811011 
-31.903908 -10.664944 -1.672173 
-22.671211 14.768977 -1.742321 
-31.997375 -12.696459 8.849401 
-17.813856 1.019726 6.614636 
-27.312107 -5.568042 5.674693 
25.961576 -16.615351 9.478616 
-2.713457 23.667000 17.287460 
3.732350 27.140224 3.875872 
12.974108 21.465607 5.968864 
24.371578 -15.345193 8.723210 
-9.776712 14.062419 19.596964 
6.844562 24.683443 1.112259 
4.552272 27.257376 4.062389 
-23.753660 -9.354094 14.546329 
14.230822 16.994991 11.780636 
12.874286 23.825718 7.896696 
-29.984335 -4.586996 17.444536 
18.589153 14.647100 13.118004 
-26.185789 -2.854999 14.837887 
-22.063953 17.257889 -0.551409 
24.745106 -15.466834 5.458205 
-2.993786 25.209272 13.752385 
13.045082 24.303213 -1.535212 
-8.197275 24.724152 10.708727 
-28.477036 -2.273655 11.191090 
-5.085439 20.537821 -2.122924 
-21.723585 9.364547 6.973562 
-27.462454 -10.789233 12.935671 
-24.011276 8.108164 11.830295 
18.637861 20.390921 18.365620 
-23.449476 -17.123020 4.192342 
19.963102 16.076088 2.953634 
-30.869583 -15.242786 -1.344148 
-22.966814 -7.622135 1.726997 
-17.929010 4.069645 11.757769 
21.153273 8.226089 12.783524 
18.770994 -5.755762 -0.518759 
-12.195780 16.931976 12.655225 
-17.202810 0.294878 -2.758510 
24.411150 7.390460 14.128982 
5.705154 29.704851 10.149895 
13.531683 23.524891 0.744004 
-20.384117 -7.314889 3.403259 
-13.995548 23.343979 12.471855 
25.496281 6.388193 -3.967501 
-3.318193 24.408884 1.618117 
25.315331 -1.426922 4.287288 
30.373060 -7.769108 3.356660 
15.808555 3.859770 13.800130 
25.098698 8.457220 -1.186671 
-18.606413 -5.642557 5.537014 
28.542950 -1.630965 18.149551 
-2.248805 26.375357 14.819964 
24.599686 -5.202959 1.415282 
17.580542 -3.502248 9.423273 
31.969770 -12.329441 16.194098 
15.265326 19.405882 3.167548 
24.391579 3.483181 3.830697 
9.569084 27.954220 -2.384773 
27.996420 -18.128576 16.758312 
-17.259468 6.555666 11.190510 
-19.047619 20.110785 16.812275 
5.835633 28.683130 5.834950 
-12.064609 15.693974 -0.380789 
23.359486 9.644250 14.801893 
-7.249128 20.927061 15.215848 
-15.865309 19.954800 2.423891 
-19.092880 -0.279979 9.629687 
-4.687126 28.324934 3.644826 
2.216320 28.263124 -5.213603 
25.247749 7.037998 1.319485 
24.619402 -11.217314 8.407582 
15.441661 2.405850 16.673988 
21.389513 13.882414 18.994257 
-6.619720 24.094648 4.376850 
23.596743 -9.601277 5.735901 
-20.871492 7.019138 -0.312245 
-30.422287 -7.481334 8.528735 
9.025376 24.351152 5.488342 
16.633081 23.771654 -3.260758 
-23.155264 -6.623476 14.019720 
-24.205927 -8.402015 8.703904 
-27.800234 -9.731312 8.631130 
22.757681 -5.646413 2.255465 
10.355461 14.237099 19.756088 
-20.081043 -5.505419 6.267039 
-21.123302 -0.757309 11.524777 
-30.120173 -14.257955 2.580682 
-0.685022 24.870266 2.323842 
-24.464397 9.472628 -2.360302 
10.112831 22.851471 3.327514 
-8.851652 21.659338 8.707198 
-19.259335 -8.098543 -1.094533 
9.865863 23.149076 -0.193362 
-5.249653 25.092007 20.237719 
24.604200 6.601126 13.366667 
16.986526 13.323082 5.484954 
28.391520 -2.004433 2.955344 
-9.690090 16.986660 -3.232419 
7.442882 29.263952 12.268202 
-26.990280 3.240403 3.151891 
28.118050 -8.970723 1.139999 
28.337387 -14.527569 8.968262 
-16.559202 22.898142 -3.660070 
30.926228 -7.050317 4.368436 
19.088514 -8.128066 15.894081 
-11.304516 24.318335 4.740633 
24.186710 -16.107822 1.878873 
-23.687729 -8.658287 11.489075 
-24.498116 -5.046437 0.711777 
8.821365 19.662668 12.445844 
-11.644165 21.917469 15.548103 
6.430150 23.988991 3.695961 
-24.443445 -6.363103 2.405418 
-18.647549 -4.169302 6.524482 
23.837288 -13.648284 6.096756 
14.479067 22.878605 16.878626 
-24.698708 7.690338 14.161007 
19.045448 -1.190200 -1.483893 
16.564934 0.391225 -0.331575 
18.364975 3.080973 1.278029 
24.749174 -8.275679 0.042521 
-32.052364 -14.787734 11.658190 
13.480525 20.906439 11.467930 
14.845688 7.508606 12.812658 
17.466814 6.119046 8.210134 
28.958364 -18.275686 15.758006 
8.464896 21.180584 12.766337 
2.856188 28.254381 5.127103 
16.680973 19.306431 2.292099 
22.169258 -5.415034 12.127000 
4.760851 29.328892 12.551702 
-30.851482 -15.014390 9.233431 
-21.865751 -10.313643 10.575449 
-21.693283 13.698245 17.601604 
23.216501 4.912203 0.520734 
20.302322 -11.270320 3.692430 
16.598837 15.741641 14.312712 
-18.330343 -1.617803 11.442525 
-5.809468 23.835506 0.755075 
13.529993 23.910309 8.414209 
-9.895635 23.914217 13.037615 
8.675733 27.928293 -3.447787 
24.442780 -5.733154 4.192881 
-8.949306 27.771257 -1.222619 
5.003250 28.711782 6.422774 
-22.145832 4.997303 5.852667 
-12.458292 10.093137 13.000725 
29.401442 -3.410467 16.237627 
22.857197 2.190460 10.670783 
4.224668 27.339821 0.146343 
-16.434086 2.503762 10.681130 
-20.859955 3.913967 8.381995 
19.342060 8.200140 12.610982 
-15.619613 5.877059 4.085409 
21.061050 13.566046 3.644664 
-8.544201 26.425194 0.833821 
19.344524 -6.653483 0.997003 
-8.612850 19.722776 0.144711 
0.536785 28.377476 13.752501 
-23.356529 9.878221 4.772606 
11.204406 26.787130 5.157870 
-1.926122 25.350109 9.787518 
26.661388 -16.851521 15.022622 
-13.836784 14.478506 12.243601 
20.764927 11.404899 13.917652 
21.969734 -6.943535 6.620210 
-17.847370 -5.584335 15.377082 
19.535259 20.856907 15.389558 
-5.799125 27.068800 3.775261 
-4.220278 25.565271 1.988192 
23.916439 -12.285732 8.335522 
3.772883 28.316647 -1.243196 
-26.586243 3.022131 16.425508 
15.780590 11.071140 2.701076 
-27.115532 -14.466698 7.958651 
13.240856 21.910809 1.771033 
-7.419935 18.986155 14.426124 
-4.776602 29.732990 11.668200 
1.810528 29.029667 -2.370366 
-29.476379 -17.823099 14.212824 
-32.321522 -14.623904 10.686771 
27.343552 -6.015192 9.046869 
-8.069156 16.006857 16.930521 
15.261568 2.380505 15.643962 
-18.568058 -7.742172 14.683093 
22.852831 -12.395693 5.799659 
24.220030 -3.927655 4.765150 
14.561648 23.477125 11.464047 
15.324114 8.823262 11.184400 
12.286142 24.315163 8.438285 
-15.243623 23.979187 -3.738116 
-19.534163 -2.913335 11.497201 
29.963432 -13.877411 -2.513415 
13.067646 26.939529 2.299472 
23.756296 -16.064215 10.678227 
10.632513 26.132891 4.835981 
14.200934 20.944252 11.950552 
24.624620 -13.376997 5.961925 
-15.388041 25.103554 1.747597 
29.550695 -16.991383 13.093518 
21.597969 5.079566 7.458807 
-16.289433 3.640458 0.661529 
-16.720053 19.681789 3.984140 
19.912523 -9.020725 16.956066 
-28.822063 -7.240798 14.551317 
-8.913193 27.220341 12.622294 
-22.998974 3.425653 14.009396 
-26.611279 1.999610 5.529336 
-7.760930 18.697945 -2.998070 
-16.801477 0.706906 6.647736 
-20.629671 7.719743 2.511312 
-20.752697 2.202750 13.923926 
6.003058 25.813549 16.418606 
6.041502 19.644936 13.203218 
-17.852760 21.719696 -3.385485 
20.493223 8.314510 3.235921 
8.386262 18.900013 -2.039123 
22.173857 -13.050533 0.774218 
1.110785 28.994102 -1.670975 
-22.026176 4.448805 1.294548 
-18.418306 -4.934147 2.488641 
-21.809298 6.419317 14.764729 
-5.601415 26.547884 8.422158 
1.857527 26.814863 8.354018 
-22.538576 6.510489 1.636728 
-27.161068 2.587033 2.461255 
10.898169 13.585541 19.724253 
-21.814108 -11.435532 0.667122 
-26.468403 -14.646002 7.605315 
-27.940729 -12.958839 9.290986 
28.162302 -11.754068 16.723879 
-21.846205 -2.480640 14.694713 
16.682861 10.539762 1.007118 
-3.125368 29.179771 7.843646 
-4.956192 25.459503 3.253242 
-16.254545 3.066325 11.350550 
-4.426454 25.733969 4.201577 
-17.031803 18.565329 15.097490 
14.205595 23.399513 8.301827 
30.138617 -5.013433 4.216300 
20.341974 8.625913 11.859255 
9.927822 19.384272 12.239185 
-31.851646 -15.445336 17.808737 
13.854184 20.071709 12.554753 
-24.725096 -5.355787 12.200235 
-1.107438 27.193787 8.299662 
12.650818 16.092880 2.818740 
16.719387 21.997326 17.425768 
17.408220 -4.009783 16.197701 
14.568190 10.568009 1.583817 
-10.702839 18.520254 11.988937 
-9.344529 27.377380 6.129218 
-15.705030 19.022392 5.435624 
27.020449 -17.550777 18.130053 
-19.744093 4.949370 2.698640 
9.774469 17.667261 -1.859300 
14.836848 7.648116 -3.875976 
-17.530212 17.036978 13.308641 
-5.340626 25.488564 4.588797 
-27.088388 -11.507674 0.329704 
19.403992 22.266327 13.329160 
-1.535763 27.316483 16.419928 
-21.384922 3.986906 3.557356 
-27.477718 2.471734 -1.715615 
-7.188039 29.896288 8.906484 
22.134663 16.340380 -0.021538 
-22.397766 -8.064399 3.391135 
-5.819696 28.025679 1.819193 
-8.104780 26.317671 9.196719 
-22.548830 10.946346 4.860027 
-7.418466 22.263918 12.171578 
-20.207190 19.611723 -0.676621 
-29.873652 -6.974787 3.105429 
-12.923822 16.749340 13.230051 
22.862780 -2.765434 15.446852 
3.352780 30.476046 1.512360 
28.245157 -6.350895 7.501314 
-7.252337 26.346434 -1.365164 
0.822590 25.610565 20.311359 
-6.546694 20.136179 14.209002 
-6.889303 16.668474 19.761860 
22.905125 9.611837 19.594687 
25.779680 -11.271370 6.952516 
-21.487522 -10.613416 13.317843 
-21.035448 11.097682 3.109395 
-5.794368 26.489700 3.144211 
23.357351 -4.329385 4.320953 
-9.690471 22.584076 13.559361 
20.092648 2.063879 11.328533 
-5.716857 21.778946 1.154532 
21.530527 -13.353476 13.860254 
-6.706497 17.224617 14.278231 
22.278652 -9.098855 6.282482 
31.690371 -10.864555 1.729932 
-23.038883 6.270984 14.585719 
22.310503 -6.608470 14.669621 
16.513357 3.736800 0.665647 
-25.463720 -10.877515 6.585273 
-28.932198 -3.265589 2.578215 
20.077127 -5.419981 2.458559 
23.903479 11.962938 -0.797366 
-9.712525 23.369020 -0.444774 
28.689436 -16.037161 10.467581 
-26.631714 -3.589668 2.185117 
-14.985979 7.680166 -2.450179 
19.259365 0.780996 5.718482 
-28.208038 -0.726068 18.646036 
21.087519 -4.131581 6.611331 
17.985371 7.039046 6.141544 
23.582857 8.184496 12.837587 
-21.784708 -11.523949 10.198906 
30.051268 -4.092154 17.874542 
6.781870 28.600109 1.550928 
-25.068861 -15.445510 1.170363 
25.704546 -13.125433 7.301936 
0.161246 26.156019 5.941307 
15.055245 22.505106 7.828220 
23.074705 10.706466 15.526824 
19.795994 20.478670 12.661565 
-15.036067 6.138412 12.904166 
-16.920469 -0.356619 18.750198 
-25.354349 5.174091 2.137374 
15.734626 3.364551 19.197546 
21.894714 -9.469638 11.099200 
25.669085 4.190585 16.834274 
-31.169395 -9.373487 2.765934 
-22.166428 -5.740911 6.493022 
29.794731 -4.248168 16.029879 
-17.297274 5.231301 13.332766 
22.109129 16.212893 -2.041317 
-14.579011 19.018490 -0.367082 
-20.449554 -12.415131 12.884875 
12.951475 19.952187 2.274497 
-13.430511 18.020126 11.814205 
9.143568 23.431837 13.717958 
30.098982 -9.927014 8.004722 
-16.544279 16.594505 10.827888 
-10.071290 19.776678 15.315726 
29.392035 -2.653017 1.208607 
-23.355749 0.679447 -0.467504 
-18.696869 2.103003 11.571898 
18.439552 1.126370 9.742018 
-4.921465 28.133581 4.377560 
-24.862976 2.519000 8.642463 
7.937789 24.422977 12.962630 
12.068048 22.979856 20.250063 
-32.057667 -14.150500 8.790458 
23.140404 12.074065 -4.356150 
11.569272 14.715957 -2.977725 
-20.729017 -0.833359 -1.089943 
-20.690357 8.540617 11.385434 
-21.301004 -9.909227 6.291002 
-12.474944 17.777691 15.545192 
-22.529806 6.607460 0.857013 
22.442171 1.184237 13.503948 
-9.710585 18.150358 11.010454 
-27.189220 3.374253 -0.687344 
14.330325 18.547775 17.844248 
16.733446 3.563388 1.573482 
-11.926255 22.677362 6.887483 
-16.669071 21.653944 17.333000 
-2.579204 24.588114 11.148392 
-32.048367 -13.174686 0.981816 
-15.432973 22.255833 -1.338969 
15.914636 0.554284 14.094199 
19.549776 13.198078 2.253729 
-2.812782 20.805353 -4.561561 
-23.184996 13.345340 -1.367999 
-23.569006 -11.975471 0.083036 
8.761017 28.282784 10.432101 
-23.017359 1.713576 7.299743 
6.765059 24.770714 11.605927 
5.442915 24.107199 17.465057 
26.556393 1.841151 19.194056 
20.478514 1.377338 10.073461 
-14.395020 13.171527 1.614124 
-20.670710 -6.010906 6.032353 
-10.703393 20.760712 -0.256091 
-1.162505 26.717793 18.954168 
27.397526 -0.222899 11.079217 
-17.643984 -3.412322 10.261400 
29.882124 -14.039181 4.718282 
28.922016 -7.980297 13.148958 
26.268286 -13.063035 16.320780 
20.473492 16.824789 16.601425 
26.926870 4.106790 3.357694 
24.164190 2.396966 10.226882 
22.223656 7.907037 5.241941 
-25.989370 4.326271 17.722963 
21.643122 -1.330337 7.894137 
-30.000023 -6.433725 14.185318 
16.311275 18.811190 10.427505 
-14.610671 24.087130 12.076957 
-28.102213 -4.518627 12.349914 
21.900537 -4.127240 7.264070 
-21.196589 16.604723 -3.921780 
16.568642 8.294180 0.792103 
-3.145952 28.438507 15.578340 
-27.765533 0.483120 14.368362 
29.191719 -17.940838 13.872890 
-20.756586 -11.503124 18.108137 
29.755646 -14.252106 -0.541059 
-14.663310 19.775082 1.857102 
10.770884 27.669811 1.545475 
-27.905798 -7.315486 4.153875 
24.435558 -10.421594 -0.334596 
-22.396389 11.403577 3.778143 
24.176617 -8.864253 -0.185612 
-13.564979 9.027240 11.922697 
5.742960 26.862457 11.003854 
6.380835 21.825975 12.869341 
27.403984 -5.045850 7.711350 
2.221738 26.182661 9.370077 
3.715937 22.436853 0.045053 
-32.043766 -11.944058 -1.573003 
8.912663 25.211285 9.631076 
19.931078 14.829638 14.014200 
-20.302816 -8.429633 9.133104 
19.795389 20.094193 15.692256 
23.985481 -9.296306 6.550405 
-31.136028 -16.381889 17.762499 
-27.630905 -14.440827 5.199345 
4.447811 26.121775 3.983072 
-26.922899 2.334298 16.423738 
8.579291 17.382160 13.712222 
21.897148 8.602442 3.666073 
25.690022 -6.863192 14.529169 
-6.494428 29.994268 8.424597 
8.705208 27.385469 8.149436 
25.940613 -18.025530 12.630860 
-14.649536 14.798619 11.605386 
-11.472661 25.721262 5.279346 
18.598183 -4.692867 18.775282 
-25.431349 6.428608 0.441146 
-22.034960 4.697344 6.856473 
12.868456 20.822817 9.458090 
-16.171627 4.114120 -3.065369 
-8.792559 27.123850 -0.785602 
18.262838 5.249662 2.359336 
21.650053 15.746387 -4.607713 
-12.282253 23.641932 7.195606 
-26.276976 -4.219944 14.648311 
-32.158653 -11.872769 -0.426917 
-15.030623 17.458776 11.108046 
28.335669 -17.465786 12.194533 
-4.822224 27.754679 8.292796 
17.130632 23.160004 0.536590 
-11.168330 26.636114 -2.657962 
-18.190220 -3.283647 0.529263 
0.601792 29.140436 12.161373 
-1.872893 24.909685 12.002266 
-19.080183 7.333095 2.138607 
9.252953 17.721621 -3.235344 
3.874495 25.870766 2.755933 
24.780325 -15.703754 -0.992317 
21.898535 7.578412 1.434242 
19.038946 5.613352 5.878912 
28.401035 -0.948926 2.595661 
-7.530831 28.420647 14.743032 
19.671873 12.778100 1.262198 
25.075998 5.365817 4.560904 
-20.014544 18.650208 10.855297 
0.032580 25.963808 6.852222 
19.796757 7.434042 14.475638 
27.153645 0.170119 4.831640 
-0.177309 26.238527 19.623877 
-30.278517 -13.097098 16.400377 
13.955270 19.338594 12.261858 
-5.205899 26.672119 4.100267 
22.403708 10.825897 19.657793 
-21.480556 -13.225964 11.326436 
6.397218 29.775375 9.083645 
-24.166763 -2.370960 14.985464 
-32.214733 -14.507087 16.945396 
17.329176 22.518478 1.376713 
5.185286 25.204891 17.960987 
-18.346107 16.299871 13.583869 
21.421322 1.720960 7.702847 
25.630424 -15.793834 8.394699 
5.179792 29.710732 7.966974 
-11.221820 26.843252 -1.698800 
-22.584042 -10.439335 9.616698 
22.645817 12.790828 15.807038 
17.094955 22.942188 -3.960943 
22.127056 -5.336846 4.678380 
22.493027 -4.738238 3.782543 
11.284595 24.585236 11.486856 
16.890333 6.775805 8.760040 
-19.405622 -0.393194 11.988284 
27.945580 -14.739901 16.507030 
24.801144 9.423662 0.620923 
-29.979166 -16.049122 -1.298781 
10.942948 20.144083 1.343825 
18.968967 13.745964 6.187789 
-18.630053 3.475309 6.858193 
-7.709132 27.861656 -1.971098 
15.654715 11.969997 11.719296 
-4.191428 23.152662 13.048701 
