21.082031 -11.504438 3.422572 
-8.876828 28.365290 8.093064 
22.408232 -3.693303 11.145494 
21.871344 6.352454 10.151077 
-0.501127 32.910793 9.052441 
20.420660 -12.516966 -0.329131 
24.099691 12.441203 14.951536 
-27.479601 -8.078488 1.128271 
29.095177 -5.132442 10.318937 
-20.374365 -11.379988 6.068278 
5.830848 28.507572 9.204400 
-10.212677 23.955477 10.571346 
24.609327 -9.464541 7.546817 
-15.939142 12.235319 5.036452 
-1.082930 30.092194 6.566034 
-26.698015 -1.235997 9.211765 
17.334236 10.132833 0.896869 
20.924911 8.492768 -0.243811 
5.019736 22.636225 14.756416 
15.488308 6.174389 1.598246 
-1.019092 28.014984 -2.690016 
20.282459 4.779911 13.601916 
15.921472 22.964420 0.121812 
-3.063214 30.818439 14.305026 
16.276428 0.168123 1.132854 
4.146504 29.340122 15.674705 
22.947952 -8.496515 8.223573 
13.973931 28.868849 3.316525 
-2.583918 34.196194 6.884586 
25.701128 -1.415901 2.252319 
17.899309 22.175531 5.648078 
26.514442 4.764644 13.232868 
1.303627 35.276100 8.590306 
20.745674 -1.065232 6.228616 
12.472631 11.397598 -5.188084 
19.625778 20.873823 15.472617 
-20.412018 -3.655717 6.542174 
-2.792117 25.785440 -0.159557 
-21.203957 16.690155 17.220541 
24.791149 -1.089006 10.264102 
23.668602 12.478762 10.543585 
-24.664509 -5.761464 5.679269 
-4.480377 26.729319 13.454473 
3.774527 26.861752 13.881674 
-26.462292 1.152332 10.575227 
22.438408 13.386598 8.880567 
16.289352 6.114573 -0.467761 
-7.835497 21.779303 -1.637058 
13.774440 7.940440 -2.617266 
-26.480061 5.442215 10.413345 
-11.385722 14.063016 -2.794315 
5.285736 25.958340 6.623679 
25.561197 5.267484 13.336365 
19.590601 17.264891 -1.909944 
11.828520 18.171150 10.330567 
17.351282 22.374886 -5.450682 
0.245524 28.907995 1.069746 
-17.381565 7.310311 12.562500 
16.871492 22.805128 -6.573186 
2.637636 25.791950 3.257188 
-4.416847 26.174370 10.162299 
9.096013 31.799759 9.296030 
22.756548 10.769248 13.168803 
-24.828583 -10.695670 11.305813 
13.238889 12.800756 12.557686 
16.711178 19.196207 8.687083 
15.699947 7.422122 1.562701 
11.164422 28.108580 16.054348 
27.779804 2.032727 12.372291 
-3.969167 28.734051 15.354825 
3.374873 26.254177 9.854826 
9.691583 29.152311 7.338715 
17.789091 15.784893 1.201265 
15.236948 2.927355 1.546362 
-13.700942 29.287231 9.646645 
12.061403 27.276707 -5.750205 
-8.407649 24.367424 5.171116 
-28.310310 -9.658706 10.215987 
-22.133013 -13.465846 1.510460 
-21.654751 10.670054 1.878948 
-16.490486 22.759821 -4.857714 
4.757818 23.419922 13.328408 
20.958597 -13.067616 3.168396 
-13.878772 27.228807 8.067029 
-16.287638 21.654781 -0.229254 
17.943855 10.087764 5.308013 
-12.985106 10.099879 -3.143043 
-13.674920 29.367588 5.508826 
12.688967 24.143877 6.334466 
14.521190 25.485352 17.747398 
23.336769 -6.782272 7.625340 
21.775782 14.013992 9.748958 
19.132467 9.645700 -1.045383 
24.326151 11.666718 15.854847 
-22.338985 -11.957787 1.947388 
-22.696562 -10.540188 7.316923 
7.516752 33.968403 8.105205 
-1.060172 26.299492 -1.837387 
-1.605594 30.446907 7.113461 
-13.190321 28.963287 10.958866 
-14.708640 8.447685 0.693223 
-21.227360 -7.293465 13.718892 
-8.684331 29.879217 15.010795 
-26.735281 -7.975981 15.456557 
14.727948 4.662051 -3.583019 
-10.312658 24.297132 9.739602 
22.030186 11.913398 -6.668770 
6.724368 28.069052 -1.770909 
-22.831570 -4.549493 10.615397 
9.064944 29.447681 15.282237 
22.309778 -3.462862 6.878299 
-1.187308 30.927536 -1.920599 
-11.839284 25.949257 -2.125239 
-7.067270 23.785685 0.631467 
22.424816 -2.638663 7.599886 
18.865585 15.053205 3.995761 
27.652962 -9.716829 10.884947 
24.182344 -11.257497 5.664284 
23.117783 12.234973 5.213623 
10.025912 21.790972 10.039474 
-5.241103 35.523846 7.483861 
-0.376367 33.779884 6.494370 
16.385088 24.447489 -0.764739 
-16.225950 8.340052 2.762459 
23.519899 -1.033369 3.078437 
15.919890 23.281927 13.687384 
2.239202 32.726738 7.538695 
-17.921631 5.415285 12.919026 
-16.452621 -4.497500 -4.672283 
-25.329300 4.830126 2.234864 
14.481756 22.835384 -5.524027 
12.584792 23.388304 6.684789 
-26.205898 4.077703 17.489777 
-4.880043 24.419794 1.023800 
15.294083 14.810027 4.649645 
13.973718 26.492891 16.050699 
17.302586 2.160701 5.236203 
-28.565311 -2.789247 13.989309 
12.857738 26.892586 5.603508 
12.406442 11.619914 -3.046822 
-2.768657 22.689222 -3.900806 
11.197763 28.390871 1.498204 
-24.225117 8.231210 11.095817 
-23.913265 -2.986697 7.795507 
8.337318 26.665228 -0.651585 
-22.313370 8.108491 5.693532 
18.852760 21.367777 11.060719 
-14.679484 23.380785 1.226030 
15.455322 25.919283 13.177356 
1.202891 32.496586 13.291722 
-7.431957 30.074476 -0.235584 
-7.046973 30.035387 -2.688446 
21.147053 13.021946 1.372221 
28.343601 -3.722378 0.035540 
19.112345 0.717864 11.421009 
20.054672 11.227605 4.417938 
20.260757 8.957992 5.501844 
-25.793980 -0.608283 2.278506 
3.868164 25.761044 0.265449 
9.872979 28.457994 -4.586709 
-11.145004 20.180887 10.215372 
-28.117146 -0.559778 -3.158833 
-16.822836 -11.771914 2.079659 
23.484980 -0.181741 3.466711 
11.674969 19.567019 11.313519 
-6.966895 32.863609 11.916677 
-21.188623 2.278658 6.281290 
-22.837984 12.726927 8.020256 
-24.120640 3.176719 14.337060 
5.879230 29.052794 14.216088 
-18.430901 6.375915 8.048497 
16.103779 2.812392 13.713043 
-16.264843 6.617867 0.338236 
-14.981780 25.881521 15.519107 
-20.598610 9.091814 3.244967 
15.518028 10.491688 0.524052 
8.824653 22.485439 -4.217528 
25.221647 -12.826251 13.503409 
-11.759215 26.396065 11.494963 
-20.602768 15.243343 -5.182582 
18.161022 23.915613 5.535208 
23.612614 5.015946 4.924337 
24.531034 -2.002074 8.541309 
22.547874 10.772004 -1.098451 
-20.321686 6.446749 6.572130 
9.311532 17.459875 -7.006929 
7.631196 30.412043 6.418170 
-23.071253 -7.846070 14.677978 
23.970840 12.348605 7.442615 
17.630976 -1.071900 8.871017 
17.834690 8.941388 4.428637 
-25.412533 4.365891 0.697297 
27.952515 -6.391387 4.251638 
23.772856 3.975550 -1.478447 
-4.242038 26.387108 0.773957 
-28.759962 -2.833552 13.114765 
-23.037851 3.406486 14.383472 
25.739878 -6.187653 6.813622 
-27.458689 -0.437223 -0.412356 
-1.067723 30.047449 12.127699 
20.128189 6.618703 12.326279 
2.382282 27.509262 5.256402 
-2.037335 28.523354 9.396647 
14.632627 24.819681 -7.746099 
-26.373613 4.674189 7.048652 
15.956687 16.236547 0.753073 
-25.102779 -12.953755 -3.789807 
5.236563 23.149239 -0.895916 
23.078821 -13.024123 15.408822 
-19.018604 -10.022794 7.118603 
-10.066953 28.631441 13.877077 
13.731236 18.638315 9.989083 
-3.131185 31.361423 0.630971 
25.370483 6.612905 12.425946 
-14.306988 22.581522 3.995273 
6.630724 25.419493 6.410322 
-6.682161 21.836630 15.487954 
-17.384369 26.036671 9.453912 
9.270689 24.470301 0.351124 
-16.887207 -10.067811 -0.734201 
-24.910608 -1.521965 9.013322 
23.468702 7.347473 4.849070 
18.909027 20.061972 -3.205485 
14.748315 22.478935 12.530245 
21.707270 -12.433758 15.473100 
-26.759764 -11.288924 12.840656 
15.550997 6.798539 5.666825 
-8.738078 19.350550 17.939146 
-28.207088 -5.574622 -1.221774 
-8.683799 27.520866 14.142687 
1.314994 29.951572 8.546491 
-17.325766 -3.248313 16.878681 
-22.925667 12.417438 17.878574 
21.862129 -2.939043 -0.644064 
-9.514935 25.985577 11.367142 
-13.507759 30.191740 5.674593 
-1.929954 32.301483 13.377306 
-23.585995 -0.362377 3.165980 
-21.345440 -2.233102 0.783132 
19.038218 -1.473309 1.247473 
-1.381849 26.936815 10.432411 
-26.382935 0.587149 9.892819 
-21.550999 13.066976 0.895450 
15.435357 21.884541 6.569702 
10.678495 23.717588 -5.313992 
-18.737265 10.562353 10.285834 
19.303108 -8.259409 -1.284699 
-22.144037 15.796550 15.121680 
-26.601921 -4.613056 3.425436 
-9.253141 18.765265 17.918388 
-10.456044 18.042955 13.479490 
28.537945 -7.987901 2.525371 
25.149576 -9.736852 5.264232 
1.653825 32.071918 14.955268 
16.932383 8.228515 6.313058 
-15.558867 9.360717 8.042562 
20.906414 -3.211738 -0.497238 
3.242296 24.992893 -0.389315 
13.549858 28.937204 1.448807 
5.154692 30.690760 16.333603 
-21.033197 -5.284490 9.622610 
-24.793917 2.356550 14.294827 
-11.831895 26.902714 0.968300 
16.763346 -1.143394 0.144788 
-28.468454 -6.424864 15.507689 
7.313321 20.326319 17.625568 
21.798349 16.608040 17.086737 
-12.641829 26.162230 12.183616 
-16.157804 -2.553875 -4.852958 
-20.213354 10.957990 10.812627 
-13.894395 19.614313 9.401059 
25.995964 -11.139277 10.037634 
28.940935 -4.557975 9.551571 
20.616619 -9.892257 7.054591 
-17.292252 -1.277733 10.064446 
-24.190130 1.291017 4.685256 
24.728033 -1.640483 13.162283 
10.380080 27.061911 2.308117 
4.781368 26.678442 3.808023 
20.280750 6.726367 11.424131 
-13.750023 25.581158 -5.730393 
-15.367282 -9.082001 2.183793 
23.874569 6.230094 11.320491 
25.067289 -10.463441 1.271573 
-16.821396 -3.266449 3.402105 
-18.417831 11.990417 -0.000341 
17.732332 8.557602 5.410693 
27.957003 2.326376 16.151041 
-12.346825 24.949982 8.766068 
-9.714831 21.216490 11.147630 
14.030643 7.059399 -3.459695 
10.987116 26.863422 6.745744 
-1.268008 29.219471 9.831740 
-23.005856 8.029346 6.283803 
-13.850394 24.798527 3.320558 
-18.967152 -8.910066 13.214571 
-15.937477 -10.554345 0.955467 
-17.889727 15.403305 3.247851 
18.139332 24.382872 6.816273 
-2.353550 26.090042 10.460185 
-16.453892 -2.958394 0.626057 
-8.813971 30.305780 12.352750 
-15.310851 10.180386 -2.480564 
-3.667340 28.661922 -1.358875 
15.564699 2.454756 -0.898974 
-22.890928 -0.224073 5.635029 
18.468962 15.423875 11.176062 
-26.071394 -7.435937 4.716105 
5.264100 26.568071 -1.961841 
-21.114023 -11.229101 6.042762 
26.996525 5.144697 16.329849 
14.376854 21.490852 -2.478983 
2.128336 30.587030 8.479763 
-0.714528 29.285240 4.800346 
-12.042778 18.670986 9.384117 
-25.066357 -5.225521 5.196209 
24.812763 -8.362737 15.105214 
19.318953 0.786622 5.812575 
18.927532 -9.488338 11.599536 
-23.796009 8.862080 8.516640 
-22.792164 -11.534998 3.676828 
10.507464 29.777689 6.187795 
-21.302116 11.463739 -1.278792 
-15.850333 4.136626 12.007050 
0.420579 30.772804 17.578274 
20.218830 3.581504 5.908178 
-25.612326 6.390437 9.281662 
-17.989870 -1.604266 6.610801 
-17.553703 -5.122376 15.155880 
22.599072 -8.056840 15.050966 
22.117815 -6.981031 -1.179947 
-21.416979 10.404039 0.835788 
20.137947 14.420263 9.682846 
-19.778187 -12.257581 2.758305 
-29.127319 -5.701530 8.901360 
-3.260510 23.081631 16.438761 
5.660037 23.138899 12.813317 
-7.885635 18.377569 -5.679347 
-19.298019 13.220777 -0.051584 
-25.041842 -8.181713 5.464263 
11.901213 29.568300 5.903985 
24.574162 -1.974824 2.746087 
-24.297592 10.697189 10.208323 
28.778013 -6.366361 2.464498 
8.796946 19.367443 -3.599230 
17.608345 20.512678 9.739446 
-20.404121 -1.979075 6.047323 
-27.944530 -9.597503 16.768810 
5.500712 26.261593 -2.948720 
-19.384768 7.963005 10.043211 
12.661621 27.437935 15.536592 
-23.975346 -4.596061 -0.411896 
-15.328951 5.485010 5.663893 
-24.476084 0.996844 0.351779 
22.911867 -0.367543 7.137136 
-27.041969 -3.575803 15.095114 
22.707222 0.323996 6.614147 
-15.414169 9.120795 -0.518771 
-16.990660 19.511608 7.653436 
25.890490 3.731660 -4.726254 
-17.484524 -3.300704 11.046181 
22.124565 -4.011930 7.764612 
10.541816 30.287384 5.577066 
-4.584738 26.001095 12.018159 
5.082686 24.839312 3.091471 
-15.371392 9.427921 4.467776 
-12.354689 24.706150 -1.658480 
21.065538 14.693479 -5.576528 
-18.676613 -11.586156 5.383689 
11.757598 27.382877 17.150145 
23.758358 13.159813 14.001669 
-20.722193 -12.660943 4.023013 
20.401756 -0.633992 13.742510 
-16.755388 -2.368317 13.086453 
20.819134 -3.716363 5.617173 
9.555728 24.413305 -2.807832 
18.685608 12.053384 11.122803 
-24.743189 -11.182800 9.917807 
-13.076674 20.851866 -1.436345 
-11.547808 13.491452 -3.623233 
-14.274121 9.995110 0.739865 
-25.100567 -6.696709 15.395499 
-13.720359 14.858698 1.571134 
-17.512718 -12.168449 1.690161 
14.961071 2.130133 4.049721 
-7.533073 23.711264 2.770821 
18.613279 -9.158887 0.447394 
-24.153425 3.569271 12.196479 
8.339706 28.905743 12.384707 
13.488898 27.149330 11.314044 
-16.359943 -4.010160 -1.915639 
-22.249567 9.840617 13.260098 
18.780977 14.931278 5.006824 
13.242647 24.449810 5.137405 
22.017292 -7.208133 7.176955 
-22.347002 15.259473 13.883846 
-22.539536 3.607287 6.579111 
19.486212 -10.121426 15.652647 
-22.952456 -0.226712 6.375684 
29.388519 -4.774743 13.256763 
21.983992 -11.083464 13.740709 
12.090967 24.376413 -5.676460 
-26.166828 -10.803823 13.040093 
21.497370 1.247077 5.933165 
-23.399897 8.208713 8.690316 
15.278007 19.024490 9.183537 
27.266003 -10.409395 0.672122 
9.784518 26.374243 14.606751 
3.388392 30.379421 15.733736 
24.353685 -3.303299 6.993503 
19.692638 -4.536408 -0.840224 
-21.122723 7.225628 6.381305 
-27.045023 -10.694856 10.754396 
22.226337 -9.910115 -0.370433 
14.465703 11.366803 -2.155755 
13.187769 11.799371 4.109112 
-23.824991 -10.464974 -0.124996 
11.641932 13.323801 -5.103817 
-22.222204 15.843466 14.333060 
-10.807027 32.036434 8.199624 
-22.739132 11.769608 4.966379 
8.331659 25.221687 5.413747 
-12.482327 14.802709 0.808004 
-16.454039 -9.213088 -0.795818 
19.579460 11.452643 13.043557 
26.212730 2.558966 6.485595 
-5.303520 34.600803 9.651983 
-21.423166 -0.282393 -1.253011 
-12.667809 26.405792 2.047303 
17.998371 11.875262 10.444393 
-23.343637 -8.967472 -1.353371 
-4.758874 27.170824 14.023533 
21.189241 11.571672 1.812747 
17.454723 25.428673 5.954755 
-12.272756 14.172904 14.894382 
-17.973694 -9.708278 6.073283 
3.920532 28.592760 -2.543592 
-17.085741 7.427927 0.448023 
-11.381596 22.612478 12.409443 
-12.742814 19.165897 11.406242 
26.133247 -10.119839 1.890081 
8.501431 23.139338 10.640928 
15.169860 11.530216 4.006616 
20.110035 13.930911 8.828629 
-10.188054 16.620634 -1.795929 
16.514687 4.629549 11.480120 
-11.762942 26.592056 14.356041 
-0.050545 28.591341 -0.460943 
-11.515136 14.191165 -1.883366 
-28.408720 -9.667490 11.151169 
-9.440280 22.113140 10.926541 
-11.256813 13.688718 -6.394723 
-23.092155 -12.800531 2.639312 
14.859507 18.579754 8.131643 
-0.637040 32.064194 8.138875 
-19.613520 -9.413249 7.449203 
-23.847569 9.969762 7.232665 
4.506559 22.729284 -0.459546 
16.759962 0.251168 15.437317 
-11.691600 20.682999 4.779411 
7.780529 25.384710 13.403945 
12.224361 13.878133 -0.851873 
-14.683763 21.688768 6.801960 
10.513019 24.921392 5.580975 
-16.214312 20.711105 11.187166 
15.725227 7.460961 2.885891 
-4.067161 24.212996 0.116620 
-1.875867 28.039425 13.994826 
-25.249170 -9.670060 11.793662 
-8.058012 28.795326 6.780768 
-23.682850 4.791513 11.926031 
16.373911 23.764263 14.887989 
-18.803499 3.569469 13.789324 
-8.123820 25.136412 2.378220 
-16.587851 20.217287 6.379445 
20.140862 15.139181 -0.947690 
-12.349906 20.594053 7.626938 
-2.551922 34.892174 11.114538 
-8.080539 34.143089 6.161680 
13.344494 12.523840 4.355658 
-19.115057 -13.325392 -3.834346 
-21.109022 8.280981 -0.082737 
-19.618162 14.837729 2.707224 
11.531933 25.426474 -4.196102 
-23.964779 1.740150 14.396943 
15.274464 7.009118 3.985945 
-17.482777 -10.956700 -0.533278 
-9.977674 29.495867 14.066758 
-17.922873 25.420853 10.447639 
5.724027 28.854784 10.556800 
-19.233412 10.425829 -2.377991 
-14.436729 25.211731 -4.805423 
12.446255 29.443247 11.198107 
15.222349 7.289555 14.612915 
17.019432 7.225832 9.234499 
-16.510569 -2.086506 0.221221 
22.431778 5.368919 -1.855381 
21.077570 12.097004 -0.985982 
15.532533 9.302370 10.730468 
-11.679592 23.801477 9.694104 
-24.505613 -11.920134 2.670880 
3.118629 33.231766 11.970758 
16.534018 1.831750 8.647997 
-16.155733 26.621456 10.647016 
-23.171576 9.997004 -4.635962 
-6.980111 21.737154 0.259435 
23.378485 2.453542 6.070551 
-14.101098 23.650181 -2.846410 
-13.971826 10.439812 14.267730 
-1.200924 35.732162 7.927527 
-7.940281 25.924974 12.965648 
-16.566555 2.262437 7.268916 
11.669777 22.028255 -0.046534 
-17.790091 14.069139 9.804329 
14.215275 13.786776 0.538724 
15.208355 1.307841 2.636744 
-14.426454 9.539036 1.437150 
-24.193224 11.021016 14.411466 
-21.256613 -10.013133 8.151516 
23.440290 10.691254 5.006746 
-11.186374 28.178074 16.012829 
4.212451 28.778881 -1.649813 
-21.655796 9.454755 1.854188 
-6.215468 21.941233 -0.086272 
-17.522772 -4.194591 16.830553 
21.594555 6.669567 13.045160 
-15.023273 11.559528 4.610188 
-4.586529 21.231215 -5.698738 
20.307835 11.027160 3.714304 
-15.366650 1.429639 -2.919374 
14.309286 28.572933 0.857274 
-27.227585 -11.229166 -3.918895 
-20.716084 6.716940 5.896943 
17.770180 21.764954 -5.326596 
-16.971327 21.020119 6.144508 
20.990650 -8.467661 7.337025 
4.388961 27.000666 -0.414598 
24.835520 6.677533 2.754568 
22.620090 10.671309 11.411833 
-8.773665 32.053020 6.476806 
17.739624 21.571457 -6.359193 
-16.932331 -6.051282 3.388481 
18.969194 -8.626396 9.071006 
18.562407 20.415956 -5.359331 
-20.607714 -1.275000 3.355145 
20.849844 -10.289372 -0.478997 
-21.518566 13.248589 8.785868 
-24.506868 10.352906 12.896725 
-14.077457 21.560509 2.745299 
-21.350735 -9.809073 -3.008491 
-15.421319 21.507114 6.606793 
-15.682774 8.599358 2.159565 
17.777081 4.915743 8.809438 
-23.513817 -12.531191 12.141574 
-0.143758 23.197783 -2.584956 
-8.721991 27.921206 -7.722664 
-21.448473 14.850968 10.643158 
22.855484 8.578862 1.652289 
23.816368 11.782624 5.928280 
9.112033 20.019451 13.244489 
23.796608 11.050453 12.279418 
5.080028 29.590132 5.836176 
21.118311 0.420270 6.425294 
10.129890 23.467810 9.407448 
-27.415668 -2.499074 8.372811 
-20.512373 -2.851686 6.021300 
21.126858 14.458183 -2.702527 
7.310097 22.241072 -2.141211 
-15.510282 23.941406 -5.127951 
-23.545256 -9.857327 -0.802138 
16.482889 4.484567 -1.992048 
-24.246653 -12.936296 -0.522724 
6.034951 29.551991 11.291186 
-24.751005 -1.231642 13.607272 
0.830625 25.313265 -1.067948 
19.860849 -11.654164 4.262443 
-6.110515 25.981863 10.214709 
-21.040730 -1.422435 5.487704 
3.123635 30.718891 5.990188 
3.415899 30.272114 -0.935002 
23.426197 9.215088 -2.403402 
-20.481623 9.003574 4.875226 
-11.683392 25.254795 6.542496 
-6.457517 30.002855 -3.631985 
-23.841898 -12.906810 0.743509 
-4.185300 30.164116 16.071949 
21.650513 17.628834 14.556056 
-12.770442 26.596912 0.193891 
16.885771 -3.130749 -1.060020 
-21.282999 -1.580095 3.127563 
23.820482 -12.554132 11.003712 
28.709570 -6.866135 9.645798 
-16.951849 14.045525 5.021899 
-27.088499 -11.051951 13.967848 
1.996876 25.965836 11.904284 
-19.030348 -1.704536 3.099224 
-4.324208 25.521402 0.042848 
-1.735750 26.695927 12.020044 
12.422166 27.154739 12.598710 
-20.483263 13.433929 6.919088 
-4.809344 24.135252 0.174206 
-12.949147 25.530205 6.251209 
12.707556 27.297756 11.876587 
27.612803 -2.448209 9.683197 
18.467110 -8.750183 14.540447 
-24.747845 6.868156 6.883144 
4.947161 30.124767 17.540318 
-28.186649 -4.222287 -1.244465 
11.187438 25.608700 5.847005 
24.314373 12.171112 9.149708 
-26.086853 5.946930 8.795631 
5.126206 26.540958 1.353629 
14.837440 23.876028 5.601493 
-21.031277 -12.225539 3.114396 
-20.344116 10.639900 6.124660 
15.211932 27.235476 5.910069 
-28.834154 -8.561205 12.447395 
-27.556999 -10.114160 9.704954 
20.144627 -11.057054 5.722759 
20.270163 4.013264 5.065248 
-17.741098 23.768742 13.692126 
-21.080875 10.454212 -0.931914 
23.896841 7.219012 11.426397 
25.171535 -3.756693 7.221257 
-18.354696 -1.113289 5.269572 
-9.834616 25.363457 6.858232 
18.029881 23.384861 14.008244 
23.405666 -11.752258 2.923837 
-9.511128 23.104616 -2.867076 
21.060860 -3.122547 10.167963 
-22.432770 8.683727 1.438967 
-23.989180 9.567677 8.322962 
-10.676141 27.455793 13.579827 
21.007919 8.175226 -1.347349 
-26.153767 0.557114 1.694790 
21.266851 9.892573 13.362008 
15.047208 3.672814 -4.733607 
26.146194 -5.502847 6.470685 
-22.642387 10.539776 -0.241531 
-5.001007 27.565924 0.763905 
18.568745 -3.070313 1.615862 
-19.234207 13.419829 5.673914 
5.937044 26.910084 0.852986 
4.330452 26.553608 0.478814 
17.069157 3.604628 7.370302 
-1.082704 35.417454 8.755426 
-11.048139 26.880419 4.669766 
12.252682 25.165543 -5.352702 
6.346775 34.229668 10.095992 
20.408672 -4.042168 9.273045 
21.966234 -11.981822 4.152156 
12.238027 14.569294 14.671318 
-18.480743 19.221685 -6.053472 
-0.451211 22.587984 -5.634320 
-9.359738 18.863434 16.491659 
8.425699 27.331285 8.416248 
-16.279409 3.584076 8.741715 
-0.152427 27.707497 -1.326151 
-4.147203 30.807470 7.853757 
-19.538412 5.983879 6.492392 
25.007275 -10.622122 8.702555 
-8.634599 17.750237 -4.109442 
22.408424 -2.943105 10.473772 
28.875744 -0.899317 15.950527 
-14.176194 6.228758 -4.352468 
10.276656 23.836290 10.487853 
15.880047 12.983678 -2.992697 
14.392426 20.820219 10.884311 
13.052055 18.442499 11.006264 
-9.442297 19.586344 13.755715 
6.178323 21.420624 16.448526 
-16.246674 -3.457754 -3.910249 
-16.724487 -1.345177 15.628273 
29.526016 -5.034776 14.032399 
28.698942 -4.970594 0.890314 
-5.377287 30.395008 1.433262 
-21.118956 -1.033518 0.103501 
4.055694 34.779354 9.148904 
2.751066 27.849415 9.100460 
27.768471 -1.748298 -2.155880 
-21.969376 -2.233389 4.685491 
23.048025 12.402376 11.283937 
-4.165786 29.934978 8.673999 
14.664571 24.526627 4.839489 
25.068989 -12.272155 1.342760 
24.582241 1.474558 1.148248 
-25.581312 -2.907486 8.024864 
-14.059096 10.268077 17.555794 
-22.988756 -2.462561 4.593915 
24.161179 -11.524955 3.743310 
0.897049 28.362366 0.123036 
7.983587 26.676661 11.118230 
-8.100229 21.050259 14.477554 
-2.373206 30.306995 7.268609 
26.698288 -9.536203 5.265856 
24.200207 1.576525 4.407278 
-14.310217 29.642773 6.185109 
26.188616 6.492178 10.327033 
-19.926758 1.986314 0.598132 
19.991861 20.069401 16.345676 
-8.643483 32.881924 7.887462 
19.690662 -0.558260 11.247393 
-18.692610 24.023144 6.918185 
18.475067 -1.121381 6.322771 
9.921856 25.225710 0.292396 
15.281114 12.789950 -2.482206 
-7.874353 18.449739 -4.623263 
-18.491512 -7.828861 12.165743 
7.377361 33.652122 9.138610 
-7.890007 24.758917 -1.617342 
-4.681136 29.530672 1.473180 
20.155352 0.739187 13.945526 
-19.876730 18.492817 18.146702 
-22.350683 -10.480724 13.412678 
23.238901 7.364697 9.894193 
22.277269 7.295287 10.135840 
-21.505838 13.640142 -2.155800 
18.840605 -4.175847 11.113503 
18.449726 20.256805 -1.308016 
-22.699316 -5.767768 14.594665 
19.285553 -10.143565 14.939574 
14.812199 4.500559 -4.677671 
-3.401135 35.543793 8.710801 
-8.180779 25.534008 -2.042405 
-18.037840 -0.870647 0.420432 
-23.040663 -7.143479 6.691185 
28.634739 -4.848012 1.644251 
-14.493504 26.970314 5.622170 
13.260482 13.296918 1.862392 
-19.194908 22.144669 9.382086 
14.822456 23.848930 -3.522790 
9.469842 25.652584 -0.132337 
21.856169 7.233677 8.714808 
13.492495 15.133783 1.046263 
16.594637 8.212990 12.067631 
-6.625721 20.807762 -1.373994 
-22.553303 12.703890 6.114280 
-27.861090 -10.028701 -4.019815 
5.238414 32.708065 12.760489 
-15.445791 24.136566 13.244480 
18.407103 -2.786611 4.993721 
1.218193 26.892719 4.055439 
24.903275 10.495471 12.121626 
18.775839 21.834906 10.370872 
-23.666170 9.219435 -4.445481 
18.991108 22.595491 9.155167 
13.259189 27.254150 8.405676 
-21.298414 -6.512034 9.636422 
-23.761518 -12.081396 16.534754 
16.493099 24.369467 -1.554867 
-4.202560 27.212955 0.953019 
-24.705008 -10.811052 2.777746 
-9.130539 25.352674 -0.042468 
13.021841 12.168574 1.752010 
-16.103392 -2.422090 -3.039733 
-13.156808 25.925116 2.668288 
-0.224416 28.792179 -1.214678 
11.254011 25.914860 5.101559 
10.177923 27.837076 17.977774 
12.974590 25.853010 -4.461042 
21.714937 13.388937 9.209801 
-3.821298 29.441765 6.632816 
25.237656 4.324804 0.644324 
-17.192455 -0.811789 1.461174 
-10.876851 20.209612 0.267683 
-15.652207 9.897441 7.323280 
-3.891264 23.386868 14.865381 
-0.922135 28.070829 9.859621 
-17.628572 6.547594 10.063620 
15.495071 3.952301 4.704903 
-8.970519 26.637186 11.164178 
-16.324520 17.561621 9.879539 
7.081749 28.168617 7.858008 
8.234210 24.901617 9.350959 
-23.523657 8.406860 7.981688 
-0.605634 28.535826 0.330567 
24.525984 -9.143544 0.241460 
-24.951586 -11.319348 12.331524 
-20.495243 -8.774614 8.407475 
16.510971 0.188915 12.910163 
23.811504 -9.040665 8.691327 
-21.860109 3.967033 6.423433 
3.569387 22.795944 16.089535 
18.661308 7.956912 -1.033607 
19.768116 -8.074618 5.736791 
14.343194 9.362510 2.880927 
-11.166697 16.317820 15.898447 
19.156168 21.352633 16.485722 
-18.483511 -7.887771 13.076596 
20.649431 7.015730 -1.827706 
14.450767 26.957684 -2.638685 
25.985779 7.024970 11.909430 
21.561634 9.212418 3.287683 
-18.324562 0.756571 5.433657 
19.101540 8.888863 5.701149 
9.721802 29.465021 13.047351 
-3.479283 31.211880 16.538342 
13.291767 26.902544 16.087315 
-26.504225 4.850120 7.809236 
-8.381686 24.941574 1.068751 
16.493547 26.438208 5.709033 
25.676123 4.993836 5.766015 
-4.247203 30.759077 -1.881072 
22.276083 -7.616449 1.640903 
28.288969 1.258402 16.084017 
-16.899845 12.500617 -2.537917 
26.592064 4.674704 7.047579 
-26.792158 1.943812 0.317625 
-15.551497 8.899359 0.208993 
3.208462 35.217327 8.197890 
26.810574 0.895955 8.225818 
-15.056038 20.166800 10.220617 
11.609882 24.969170 7.643731 
-17.027790 -9.820100 3.963262 
20.473989 -2.872296 0.307933 
-12.835260 22.964922 6.639126 
6.995020 22.031544 13.037124 
-4.878715 28.589172 1.158572 
-15.845088 8.258363 7.819820 
-14.361251 23.039474 -1.945394 
18.651926 9.574139 13.153065 
26.731977 -11.090349 -2.413787 
-16.444489 -1.417812 13.414040 
9.766821 32.107906 6.296738 
-17.533749 22.549664 17.549746 
-22.600342 11.211610 13.067188 
11.667914 13.431489 -3.761861 
17.842455 9.221163 12.923967 
-17.847040 20.117029 7.038207 
-5.589038 23.676340 0.974781 
1.275597 24.706936 -0.994755 
-25.255985 -10.570706 14.103058 
21.784721 13.890540 7.362701 
-14.226298 23.317432 14.370012 
-14.746392 4.010945 -3.484910 
16.920109 23.061769 5.007380 
-0.284004 31.348291 8.078488 
25.271233 -4.980480 7.368531 
22.569141 13.059037 9.784601 
17.766474 -1.328454 10.483560 
4.995212 25.381523 10.791446 
-8.767534 28.008005 -1.261001 
-21.413748 -7.391762 6.928222 
-16.681379 24.869333 14.077187 
-14.292068 27.899805 8.043353 
-13.949074 22.265932 0.038022 
17.706429 -6.962004 1.381712 
26.144274 3.924466 -2.630628 
-10.865224 27.003330 0.589056 
28.709175 -5.103282 -0.005404 
-8.962517 28.065958 11.767997 
0.379657 25.016167 12.571578 
20.002731 -9.395353 -0.942020 
-10.011887 20.591022 -0.230161 
-22.399464 9.026039 13.078877 
13.662727 12.274220 12.194458 
-16.494541 -0.373338 2.206596 
14.937006 9.121873 3.289201 
-15.896211 11.183810 4.955976 
20.030499 2.471675 5.615883 
-19.201979 -1.268410 0.660795 
-9.453011 23.984671 -2.847668 
27.989315 -2.729158 -0.945192 
-19.959280 2.018372 -2.185052 
8.214054 28.147911 13.822475 
-14.519569 22.718548 2.226297 
-16.183149 8.230243 11.501490 
-25.376451 -5.099574 1.901074 
-19.327286 -11.690049 0.703608 
-18.066046 -5.861874 -2.166654 
-8.494200 33.157230 7.167378 
-9.371013 22.734089 3.964281 
14.076534 23.482363 12.307222 
6.614835 22.592812 12.547072 
0.869810 32.249851 14.219268 
-4.386913 27.432322 -0.293059 
0.588014 27.374731 0.111937 
16.591887 23.650652 -3.167398 
-17.532309 -12.389278 -2.110633 
5.665644 30.098349 13.186139 
-27.962528 -1.405423 13.954918 
8.304243 30.088150 12.033033 
25.261709 6.528734 -0.940307 
-19.652422 -13.813588 -0.164418 
-7.864772 24.975481 4.733365 
-11.687454 23.603378 -3.244742 
20.076485 -9.969825 14.067363 
17.531740 -3.771064 13.407766 
-21.035278 -10.509651 10.244086 
6.177108 29.618200 13.529814 
-26.953341 0.068797 11.242440 
-19.557495 0.922439 -1.946663 
-9.401903 30.305809 6.754109 
19.922482 8.635159 0.347548 
21.247982 9.321273 10.842649 
-21.499704 -11.998926 3.733199 
18.528463 19.166588 -1.162643 
-18.715889 19.420202 -3.720380 
4.151598 30.521679 15.437415 
-4.638904 30.413261 3.267273 
13.231255 22.352240 -0.540296 
-6.625700 29.958637 13.624773 
-25.094559 -9.596341 4.591003 
-9.270517 32.185104 8.485109 
3.690691 30.441832 1.114502 
11.245959 19.173820 0.718771 
-2.642194 27.260918 3.129008 
25.091265 -11.259675 12.536289 
6.458882 28.413958 3.899849 
-17.548910 17.733568 -1.184703 
11.646941 26.922541 12.672666 
10.346803 28.167250 -1.999763 
20.750340 -11.134962 -0.029127 
-17.139015 -1.201206 3.863579 
-23.692497 5.526765 4.742786 
15.301399 6.145524 0.611875 
17.189146 8.096245 5.202423 
21.269012 13.933275 -1.661080 
17.697863 -6.621077 13.293965 
-25.923113 1.642311 2.046945 
-25.529732 -12.009423 11.878083 
12.849833 13.450582 17.116156 
-4.112746 27.255144 1.716939 
-25.832851 -11.918172 12.869151 
-9.284393 29.636063 7.318827 
18.946590 21.922977 8.849026 
23.572512 8.682094 -1.352391 
-26.144951 4.882934 16.631830 
7.076929 33.993195 6.442101 
14.835629 26.530968 4.451962 
-17.559227 -5.182193 5.172877 
-7.273424 21.925190 14.104989 
-19.988005 -5.888849 -3.010725 
-16.579336 10.555482 10.267646 
21.175560 18.042648 16.382240 
-16.604223 3.843831 5.143741 
12.964516 29.132706 1.879809 
-2.949529 31.657883 2.521431 
22.972857 -2.331037 0.386454 
15.630271 19.294922 12.094694 
-20.179924 8.223273 5.824539 
-14.930812 4.508958 2.325213 
5.754330 24.188311 -0.093130 
-16.084690 19.270014 12.328403 
19.511093 13.230615 7.220321 
8.969701 28.011282 4.488573 
23.850212 -11.651786 11.167470 
-6.823976 31.647373 13.793049 
-17.788500 -4.598068 -1.558669 
16.773390 -3.270011 -1.936421 
15.136278 4.662691 4.836800 
-4.377181 25.974894 1.819418 
-15.014181 24.306915 -1.495963 
-12.346150 14.412841 12.675379 
-5.136670 34.285042 6.267409 
-16.173124 1.660449 9.671818 
18.789915 5.796441 8.783817 
13.918351 11.024280 15.395229 
4.914337 35.180161 8.479105 
26.117682 -9.389404 7.652959 
-9.653904 23.101435 -0.543861 
28.944416 -3.978030 10.649527 
-6.747700 26.054647 3.699004 
16.343691 1.245225 14.162044 
3.529911 25.627022 2.883539 
26.058407 -2.727284 1.856771 
27.304325 -7.973294 5.415655 
-10.352798 32.567513 7.125953 
16.632406 8.896853 12.450729 
-6.304378 30.394766 -1.583569 
-4.146067 25.397005 1.164283 
0.644907 29.371977 3.282258 
25.927973 -4.545324 14.575174 
5.281406 29.513958 3.447737 
-16.500834 13.636278 9.243846 
-16.973354 24.170763 14.123836 
22.606552 -5.232687 7.578435 
1.211383 30.582636 7.067732 
28.309105 0.146356 13.024354 
28.432726 -3.685239 8.308895 
-23.519125 -0.329685 2.272776 
-24.694431 -6.456896 7.620402 
-19.533197 3.836951 13.935324 
24.682543 -0.827935 2.589757 
20.288176 -11.231227 0.724631 
-3.052587 29.605877 6.722440 
5.907118 33.559956 11.456181 
12.530655 15.364275 0.645754 
28.206974 -7.495412 14.423858 
13.347539 25.882717 -7.825991 
-3.610590 31.395334 2.095544 
26.117428 3.928506 -0.352083 
16.188044 2.171442 -1.793331 
-16.031595 26.847471 6.161875 
-1.886851 25.490957 1.319516 
12.425645 19.984047 8.071041 
-22.012615 10.705594 13.278089 
20.436392 11.628413 6.232763 
4.456455 35.863544 6.495230 
-8.289895 24.169981 -0.310203 
23.967598 2.159073 6.511535 
-13.417242 27.763716 11.574514 
13.361391 28.709463 0.608448 
10.833644 21.671490 10.005351 
-20.106087 -8.961259 9.213338 
24.080231 5.673070 5.710965 
-22.752426 -12.721426 3.308062 
13.605730 26.106749 -4.172438 
-15.048245 6.310926 4.173061 
17.410542 -5.753767 -5.001088 
-14.423300 23.501783 12.041028 
22.530796 8.535642 0.896396 
-8.589646 29.640377 15.826655 
15.718253 26.937866 -1.421356 
8.383854 22.667124 1.782642 
-13.141016 12.403496 17.653555 
24.195490 -2.519155 6.552692 
18.607349 -7.696632 9.280323 
16.027100 6.576536 0.737752 
-19.142672 -1.645442 13.064986 
-23.663925 -12.279255 15.136102 
7.595174 21.999134 -0.188625 
-22.868469 -2.278718 13.511508 
-6.472473 30.060061 16.992029 
-7.265885 22.296108 0.773120 
-19.933119 4.738008 -2.289537 
-28.163496 -2.335140 8.539477 
-20.033558 12.808761 9.763615 
7.014284 26.433064 13.616360 
-0.112027 31.819399 7.219569 
3.924071 28.689333 7.555518 
-17.701185 11.154959 5.350531 
-12.716129 30.291214 9.158412 
-2.240701 33.062977 13.021772 
-8.560126 19.870668 0.816572 
-21.176292 -9.959995 7.097791 
2.831438 22.751516 -1.944509 
-24.252186 6.876853 6.274782 
0.556427 29.805830 13.796986 
21.170975 -1.755937 2.452023 
18.691843 -5.352653 12.624002 
13.114066 12.489086 0.256070 
-23.328857 -11.569697 10.355203 
27.796658 -3.153786 7.910778 
6.884254 30.452997 6.728932 
16.357822 26.655672 8.435007 
-1.023867 31.570356 7.698908 
-12.013271 25.164785 10.301482 
12.444985 18.431551 9.563089 
11.202747 28.370893 13.786996 
28.023432 -5.672305 -5.147367 
-23.235857 -2.133708 7.590951 
3.021919 22.556707 17.848003 
4.538198 29.388641 -6.500584 
-6.955724 30.375494 0.296228 
-12.699627 27.608902 15.408574 
-20.871458 8.375491 10.330495 
17.347748 9.086860 -0.078583 
-14.358869 10.722070 11.889441 
7.990893 20.884478 -1.525077 
-15.772927 -0.545981 -3.247897 
-18.196020 -13.296452 0.574736 
-18.991838 -4.826884 10.422099 
-1.330977 27.451128 0.061307 
15.238943 3.128302 4.646945 
27.128498 2.349637 12.816204 
-7.039812 28.381033 13.782965 
-18.713202 -5.370659 -2.292753 
-20.279875 -1.944629 9.612058 
-16.139404 2.632718 8.608336 
-14.871755 7.543065 12.956196 
16.748594 1.204049 16.345474 
-11.387593 21.658609 -2.825453 
-5.471818 30.023046 14.504281 
0.784545 35.681900 7.002841 
-18.065250 22.985643 5.146573 
13.785520 29.634384 6.489104 
6.592747 29.235840 8.171459 
22.410805 -0.401309 0.458416 
-14.471497 23.684244 2.443062 
8.646756 27.866377 5.712712 
-10.362588 19.966642 3.036404 
-6.174215 32.113007 13.743137 
-16.796440 8.592535 -1.869389 
4.291039 25.872639 11.975747 
-13.881901 25.706963 -0.210025 
-23.775003 5.446459 -1.193504 
0.554565 28.289888 5.699330 
24.127991 -2.834201 0.178093 
3.025825 24.055735 12.929136 
10.851674 27.503214 3.212478 
3.196931 30.674212 3.049342 
-14.919646 25.600876 16.440250 
19.972891 10.821777 0.755081 
3.403242 27.939943 6.262471 
22.705908 12.987457 5.521393 
-16.969200 -11.762360 1.249314 
-15.584983 4.628406 0.435508 
-19.765272 -1.169956 5.364934 
17.753008 -4.610920 12.769492 
19.939140 6.882890 5.719707 
-14.028520 21.770725 13.827354 
-17.752748 13.015134 -2.116143 
1.763648 22.956713 -1.655247 
19.330721 9.593161 5.762785 
0.029914 29.008041 10.412087 
0.032162 28.825731 4.264532 
28.500282 -6.082255 14.211603 
-15.621682 5.458265 12.010900 
10.991750 31.329260 5.343372 
24.394390 -7.108213 7.770312 
-13.810945 26.723129 15.521703 
10.911584 22.919029 2.244222 
-21.117739 10.598656 5.472315 
-13.201724 27.083216 15.784715 
-6.997792 29.267296 14.314580 
-17.149246 25.664719 11.924713 
9.245634 19.877645 -1.908943 
12.229364 27.987686 13.941473 
28.146017 -9.115805 -3.005125 
21.746729 -7.907563 7.152284 
-26.309927 0.241814 6.895452 
-24.256189 9.942002 10.356285 
24.308851 1.685420 6.055085 
12.198783 25.627136 11.346095 
-16.316612 -8.194663 3.077682 
4.994225 29.870575 -0.060010 
26.020441 -0.779512 8.916756 
13.476764 8.577808 -3.883265 
6.617993 24.957981 12.075285 
-19.783838 16.414236 -6.531098 
15.585288 23.370834 -5.441872 
-0.565463 31.196182 9.756903 
21.955647 7.507988 11.561443 
-17.506582 6.735696 5.339184 
4.970428 25.798462 5.024013 
16.947189 0.251986 16.287954 
22.805893 -7.552136 12.236847 
-16.755449 -2.806909 2.821303 
16.970831 26.168486 10.667829 
21.917856 -13.058942 12.252202 
22.892183 10.581428 -3.946665 
-12.628023 11.200326 -2.706504 
-19.385277 17.674307 12.106928 
-6.211146 27.320408 10.153571 
-22.081871 8.083578 10.033861 
16.887751 15.469985 1.993869 
4.276200 23.816761 1.594688 
16.560934 -2.256134 -2.041733 
18.927866 3.870361 5.331925 
18.078972 9.247957 -0.517600 
15.691777 0.987643 -3.808120 
15.384106 19.418940 -0.573363 
16.255003 -1.213503 -2.393181 
-19.984091 9.232873 -0.861814 
24.456650 1.393334 14.014199 
7.142330 21.081806 -1.978366 
-21.779644 -2.098423 1.389850 
-0.614413 26.452635 2.271380 
10.079888 28.471407 7.798231 
-22.649288 -0.827664 1.784412 
17.253439 -8.391099 5.074811 
-21.421314 -11.713499 16.501587 
23.821075 10.298444 5.580716 
24.782206 -5.560767 12.461749 
2.887678 24.762009 -1.180749 
20.524261 -3.809988 -0.938000 
18.717348 -8.742954 15.746959 
13.843931 11.626739 -0.459357 
9.416617 23.385416 10.524267 
-15.557972 5.177475 15.674732 
-18.295246 6.385188 5.072692 
-0.269639 27.869122 -2.151657 
16.662430 13.862968 -1.774451 
21.991802 -8.519011 14.901418 
-25.541187 6.722393 -1.616647 
-26.013622 -4.962299 3.887789 
-8.561214 24.112301 -1.325661 
-7.354058 30.510212 13.595790 
26.995434 1.291732 9.664742 
-8.853573 28.333433 -6.541089 
-18.715101 14.136195 5.575020 
-20.017807 -5.808555 6.950130 
-7.771928 27.205168 4.793991 
-19.701674 6.684181 7.136747 
-20.096132 -6.145785 7.642188 
-28.004639 -3.943908 7.990466 
21.323389 6.741609 6.433308 
-27.854259 0.691427 -3.448355 
-2.670359 24.544092 12.563600 
15.131919 26.448929 3.605257 
-25.786024 -7.266623 2.566506 
-19.988644 14.475527 3.286389 
0.570948 31.072041 3.636761 
22.221329 7.162528 12.280007 
-25.006865 1.411236 14.226639 
21.283018 -12.076556 -4.476555 
-17.336878 -6.871904 3.602862 
22.615908 13.625624 11.117242 
-16.329588 19.209209 11.015323 
-13.930274 11.314475 0.824619 
-16.045490 7.283741 5.319474 
0.736001 31.568731 5.868614 
23.551577 -2.405908 3.018190 
12.293117 14.468158 17.185526 
-12.535629 24.379276 -3.242697 
-3.581446 31.827950 6.664037 
-17.848040 1.416101 5.716723 
-23.781336 -8.609345 10.629705 
-0.094328 33.469891 10.118047 
22.696997 -11.282816 6.815827 
-16.808384 24.654303 14.926994 
-21.830351 4.970047 13.995463 
-18.000973 5.546569 12.064023 
14.844409 8.503633 15.638649 
21.619516 -3.731851 14.071741 
-12.264193 24.170725 6.444083 
-23.585629 1.495028 -1.128014 
-20.510090 7.280655 -1.635048 
-19.186113 -1.679427 4.037120 
-16.155228 25.434340 14.394624 
9.978915 22.534597 9.815024 
24.369459 9.403934 9.272305 
16.276825 7.024509 10.572016 
9.257419 19.202328 14.646647 
-14.032208 22.885916 -2.688905 
-7.634670 29.246544 -5.017276 
-23.541971 -5.983007 14.962667 
-17.433111 -0.006460 -0.580809 
25.350256 2.113145 13.869473 
13.078173 10.555675 -0.814796 
-3.301745 26.490162 -1.247583 
-5.935742 24.587570 11.431487 
16.858400 4.084785 9.940444 
-24.024157 -6.337413 6.216168 
-12.149951 21.552774 -2.708275 
-13.885413 26.221458 10.950498 
12.467182 26.896872 -3.142643 
17.359451 -6.752177 -3.046453 
16.977928 10.896691 0.418037 
21.347794 -2.883044 10.864492 
12.373636 20.556423 -3.978558 
-6.948685 25.111412 -2.244239 
-7.502386 25.136763 0.916283 
-20.580481 -9.597116 8.890242 
-14.896824 5.623559 -0.275535 
-11.528378 27.290905 17.662859 
15.078269 20.304306 -0.293199 
-14.764872 8.135172 16.226791 
21.392532 7.946979 9.820963 
-21.839731 14.566686 11.222449 
-14.289160 24.854692 -6.407475 
7.304375 30.760153 13.870567 
10.687650 20.933640 11.514760 
-25.503883 7.080743 14.221188 
16.121029 2.273160 12.768852 
6.744915 29.911392 9.339948 
-15.649024 -7.673899 0.040054 
15.970560 25.240183 15.774889 
-27.382441 0.778048 -0.913768 
14.393405 27.722376 -1.257678 
15.221758 13.730619 -0.800832 
16.371719 19.853167 8.744579 
-24.306625 -4.298110 0.200824 
-9.776952 28.007933 3.223474 
25.446682 -2.600858 5.357296 
-16.050550 2.342204 -0.497156 
-21.723242 -5.906884 6.658204 
21.781591 7.490652 -1.479735 
-16.257442 7.853389 3.702914 
19.858723 1.772670 4.770523 
27.095446 -9.723331 7.962475 
21.741430 -12.971271 -0.881178 
-8.835910 29.661711 11.902643 
5.023841 23.801844 -1.456757 
-23.844360 -13.487058 -3.757758 
17.767418 14.944316 0.720624 
16.277365 2.577683 15.415883 
20.254744 -10.727077 12.773666 
-15.846940 18.013140 -1.119262 
10.200880 18.871389 12.186415 
2.109211 27.483191 9.325473 
-13.531067 8.608482 -2.695649 
-23.506544 12.440961 13.265595 
-15.056878 6.348769 3.245318 
-15.246938 8.688698 10.296048 
-17.079397 -7.889415 3.556682 
6.334476 35.613628 7.068823 
17.037199 13.813996 0.438591 
-19.421299 -10.554293 -0.527290 
-6.491503 20.233658 -3.143023 
19.228527 1.246186 5.142572 
-1.046504 31.113897 8.536154 
24.627935 -11.205608 5.017954 
-13.217611 22.632309 -2.872723 
25.660078 3.559506 -5.956287 
-22.540424 -3.469064 5.936728 
20.844604 2.667688 11.609514 
23.744116 -10.641450 8.944320 
20.004942 -3.604481 12.880143 
10.538008 21.795803 1.316784 
-5.832783 24.886154 0.218155 
-3.359333 35.089771 9.855694 
17.011770 -4.586475 -3.917388 
-5.636683 27.005884 -2.907564 
-22.782139 -4.116118 6.641008 
-6.175853 34.895130 8.621743 
26.946846 -7.384262 1.484838 
11.777146 24.519018 11.416220 
-23.112997 12.977661 12.882636 
13.711177 9.841633 3.082200 
16.064579 26.047590 0.132287 
19.911180 -0.359076 -1.430608 
-19.681061 -9.111665 11.896585 
10.315579 28.272573 14.249536 
2.209995 26.910976 13.734982 
24.187576 7.194695 4.068341 
-8.004890 30.268833 9.693222 
2.694167 28.353201 11.767288 
-20.612688 0.867933 10.853580 
18.320204 21.062405 -1.990511 
-14.869999 3.835984 -5.451113 
-19.608721 20.542126 14.042393 
22.922188 12.732422 10.623875 
23.238932 3.093467 14.113674 
-22.473429 -12.315504 10.597888 
-25.610531 5.906883 6.435852 
12.417386 24.652035 10.011773 
0.403615 27.830326 11.121355 
13.217631 20.049612 9.868752 
-19.084465 7.509633 5.486980 
13.898447 18.547329 11.498466 
13.144164 12.820480 13.446799 
-27.434294 -9.784649 -0.989147 
-17.039293 15.192238 4.839840 
-26.256908 -1.886328 8.017446 
-25.191471 -10.627290 4.087602 
19.979727 4.110031 13.719471 
-12.608676 21.269354 9.646637 
9.095739 23.886156 -2.345034 
23.581781 12.978024 7.966366 
-10.600790 24.222752 -0.810895 
20.889162 -12.473753 13.121736 
13.744991 20.292513 7.491539 
8.070361 28.510641 0.796356 
-24.626652 2.177320 4.454358 
-11.172673 21.090874 11.580292 
23.415043 0.540951 11.473216 
27.773462 -5.472246 7.360524 
16.617887 24.217058 4.561739 
-13.249924 9.216331 -5.961778 
10.117565 26.862659 1.556272 
9.533225 28.031149 3.280034 
-22.076088 -4.841485 14.117934 
-21.810366 12.303483 11.346122 
-23.159016 6.534945 12.130943 
-2.434760 26.382259 12.082550 
-6.313327 23.637707 -1.064736 
-17.185255 4.603414 -2.128598 
13.634208 25.638002 12.787729 
21.472898 2.893550 6.990676 
26.728230 0.609262 11.545034 
20.006207 17.183716 -4.653289 
15.808416 1.978689 0.525248 
0.135769 28.452452 1.840562 
24.567728 7.451666 1.578305 
-16.128321 -6.815567 -0.921755 
19.341953 21.023127 12.081405 
-22.262962 -11.268098 9.523525 
-16.298361 -3.529117 -4.762398 
25.576082 1.538546 5.647903 
-16.206717 3.095905 10.941046 
8.825768 28.126736 8.176754 
20.004465 13.742333 -0.776086 
-6.197102 25.154886 10.752546 
14.384593 22.967663 4.487806 
-18.968216 21.791311 10.313242 
-23.199694 8.470700 1.333651 
-17.184006 21.112757 -6.992554 
20.685171 -11.440471 11.726354 
-13.953308 6.985381 -4.397582 
-18.109108 -6.890026 12.929267 
-14.375520 20.943657 10.676064 
-15.002447 16.661596 0.042799 
22.789865 -8.962413 11.993710 
-4.432881 29.515409 15.811926 
-16.327003 19.150970 8.818630 
-25.435333 3.492527 0.530546 
17.016918 -8.715374 4.340990 
28.040543 -7.099900 3.844251 
-17.296986 5.833796 0.594077 
11.496858 25.097464 13.494798 
-12.415093 25.559309 8.269767 
-6.250606 24.596678 -1.931128 
-27.993862 -1.682988 -1.468520 
-18.692734 15.711451 1.130862 
-23.882086 8.900482 9.355975 
7.192767 19.981766 -5.662466 
0.742205 26.684938 12.300011 
10.894346 23.921038 8.935217 
-16.340633 -0.378262 14.701853 
-28.127270 -8.544166 -2.618868 
10.051313 20.909847 10.301320 
21.910734 15.844250 11.368572 
24.329918 10.881970 7.307053 
-23.397951 -7.859544 6.626357 
-2.148118 26.415110 2.571982 
-6.470199 29.747084 -4.521361 
28.525951 -7.978032 -1.820184 
-18.870207 6.078279 11.494768 
-18.863367 8.861467 4.065370 
-24.703110 7.167665 2.359646 
26.876987 -6.467583 7.628638 
10.221865 24.616554 13.294878 
-23.315123 8.079319 3.978883 
17.883415 5.174041 12.000392 
-11.303430 24.909264 8.560637 
20.221312 7.589145 9.679169 
-24.126741 -2.067768 7.907501 
6.957817 27.455206 8.390187 
17.082829 -5.459132 -2.085515 
17.662052 10.088100 10.200335 
-3.061540 27.202057 1.139395 
16.799366 3.708548 8.266345 
22.444391 9.532829 0.273597 
-13.152185 23.841164 10.158615 
20.464424 -1.716212 13.437243 
7.776369 20.648340 -2.293811 
-24.131016 -6.726421 7.023520 
-20.039928 8.220607 -0.016906 
-9.346914 18.391325 -0.583714 
-16.097198 2.985175 9.358644 
-16.539240 -0.363263 15.798352 
-16.789167 -5.164023 -1.348651 
-28.440536 -4.419803 -2.752307 
15.968291 -0.154409 -3.557847 
-15.294147 23.506824 -7.235079 
-18.684162 21.120859 6.697675 
16.055780 -0.034585 2.417069 
-25.287600 6.733542 17.616486 
15.148058 11.332545 0.241138 
20.745787 9.949095 6.130770 
-17.039406 -8.989919 -1.349260 
-20.453453 12.201717 11.517284 
-26.166912 5.622665 7.897515 
-18.056454 4.926624 6.936136 
15.151244 26.482327 12.348391 
-22.575306 11.270979 -0.839543 
-22.474802 -2.917829 3.910307 
17.986038 12.495395 8.054056 
-22.032608 5.312344 6.016916 
14.904877 21.940519 -1.222670 
-10.657954 23.468603 6.341434 
20.843340 -4.095234 8.504349 
3.944481 26.915232 1.303914 
-8.881829 19.518227 16.265858 
-17.852154 20.909765 -4.366351 
-17.784077 19.885601 7.906625 
-10.122986 19.480005 -1.627281 
6.543446 26.579332 11.583860 
18.848017 -7.875413 -0.666981 
-15.286370 18.789818 9.267721 
-11.600043 31.840157 7.159619 
-15.722021 7.120192 2.054313 
18.520905 0.156017 13.499475 
0.368202 28.715481 3.562033 
25.897120 -11.552116 2.638541 
-15.255987 13.496229 0.556422 
10.139183 27.611183 4.747518 
-16.789112 -9.189447 -2.785039 
-23.912212 -9.674532 5.790422 
20.609045 6.566451 5.744655 
1.653149 30.888014 14.810167 
11.876870 28.738186 1.698010 
-14.974021 7.418942 16.093105 
-20.772552 14.911749 -2.322330 
-29.100624 -3.232674 12.568820 
21.699984 -12.848829 4.878753 
14.961020 19.354698 12.587881 
5.446103 21.120424 -4.656546 
-8.377118 32.266380 7.064236 
-22.985022 10.218855 13.068357 
25.512098 -0.175276 13.584280 
-0.423957 32.198559 9.560111 
-21.118189 -0.829486 -0.693293 
-12.999950 25.775816 -2.353713 
-19.120180 8.499849 1.516198 
18.302910 7.553367 -1.656837 
17.761688 -7.833462 -3.116394 
4.131258 26.142685 10.202402 
0.546293 29.505499 4.201347 
25.244194 -7.153416 7.453948 
10.093562 19.074322 -0.819547 
-22.034723 -10.347630 6.505106 
-22.379980 7.202260 0.693655 
-17.629169 12.257216 7.940160 
-24.770838 -6.840491 5.790828 
-8.462584 25.919994 10.197618 
-9.441590 26.870115 4.558121 
-22.411968 -0.232799 3.261361 
-5.881459 27.968496 -0.308099 
-22.058605 0.447128 -1.376536 
27.549952 -2.230673 12.495279 
-20.696678 -8.605230 13.040400 
-25.036283 7.341046 -2.169143 
-21.440592 -13.877683 -0.822369 
8.697203 22.830050 -1.274618 
9.648502 18.994114 13.721134 
-23.050655 -2.618016 0.469395 
-13.329510 21.972893 6.182432 
-16.073740 26.286676 5.603773 
-18.385839 -2.236098 6.960573 
-11.802135 21.591721 7.876952 
10.216429 31.828295 5.474029 
15.289903 3.721644 -0.578089 
-23.112690 -11.503365 9.568845 
7.699276 28.124197 5.203061 
7.853333 19.416590 -5.844944 
-11.082437 31.524464 8.882880 
24.994579 6.515722 1.685272 
27.157286 -2.325673 1.647814 
-15.579281 -8.371091 2.172933 
25.564381 -5.527885 14.898409 
-6.307204 31.519859 14.326316 
27.115021 -0.248335 10.974456 
13.877707 29.032509 7.041280 
-21.756577 12.971427 9.538689 
15.777807 25.286467 2.498067 
25.594534 -10.690676 4.949831 
-10.082161 27.090378 4.171626 
18.507334 5.365242 5.464768 
-15.018097 7.636498 11.513517 
-1.819507 36.096989 8.486998 
-22.813152 4.623542 14.134277 
-19.610666 2.916864 4.633022 
8.172962 21.159132 13.088615 
28.301579 -10.416250 13.582761 
28.162617 -4.555365 7.339179 
20.047947 -6.448873 0.579529 
7.337554 23.058245 -2.610249 
-9.579363 19.474417 1.547426 
-18.662264 21.325644 11.203847 
11.808080 27.934633 0.348669 
15.225492 26.953133 -2.310225 
26.044289 -7.088770 7.954143 
-17.922758 -4.764282 10.916631 
20.218023 11.832073 -2.039863 
4.956302 24.046972 -2.192379 
26.378063 1.456143 0.195539 
-3.468963 30.710663 17.400856 
20.736172 -3.014957 13.093466 
16.454393 2.524600 16.425684 
-2.096229 30.659000 12.240319 
-25.962603 -0.460260 9.278246 
5.519615 29.383980 8.413805 
-10.821616 27.810461 -4.989974 
18.226297 -0.973746 0.298664 
-25.786953 -0.938337 7.806665 
14.965014 26.745821 5.404313 
10.071897 18.678911 13.014246 
20.388666 -2.519176 12.377838 
-14.980212 26.117897 14.646034 
-23.291594 -11.530856 4.787906 
4.360647 30.114723 -3.358016 
1.457328 28.143045 5.789354 
