5.189544 24.123915 7.588334 
-17.298775 3.832731 -0.806403 
13.191031 24.631220 -13.107150 
3.527421 24.741325 6.733551 
-13.615235 5.518434 -1.936141 
-3.700288 28.518366 -7.992779 
-15.817224 23.039484 -0.410503 
31.723425 -3.859083 3.402927 
-22.704111 5.221566 7.559907 
-28.292061 1.758357 2.331098 
-4.135867 31.355991 3.715914 
-27.070177 -9.223146 4.563032 
-22.082060 -9.227525 9.444715 
30.771513 -3.800572 -1.417758 
19.835583 24.079168 8.113562 
-24.987967 1.840865 0.017958 
-11.871710 25.864889 -4.745106 
4.296315 27.602623 -11.763977 
8.486665 28.376122 -5.286111 
-25.500986 -4.146129 -4.854899 
-32.493561 -10.894862 10.147982 
-23.760750 -16.081528 -3.886456 
29.534618 -1.789062 3.070291 
12.873662 16.076786 6.953120 
18.180304 -5.272092 -1.462551 
-10.601243 26.472864 -6.339479 
24.767397 6.643429 -0.187646 
22.298187 8.380110 -1.900940 
15.152076 9.792096 9.405997 
21.575745 13.685366 7.273364 
19.496336 17.247210 8.348634 
-15.181408 17.992346 5.037080 
-31.250126 -9.995226 -7.327377 
-20.166407 8.146334 4.296135 
27.677088 -0.173295 -0.449102 
15.983615 21.676311 7.255031 
19.210545 5.909753 1.150107 
-27.492210 -15.124173 9.283344 
-17.900785 1.174828 6.350050 
-22.033096 -7.530673 5.128826 
-28.519999 -10.962673 7.642197 
-25.925789 -4.058710 -2.385251 
11.589292 30.833128 5.403974 
-22.009447 -10.263852 2.236032 
5.733760 30.947287 1.271358 
-12.875113 18.241325 9.513531 
20.829145 4.710703 1.620540 
21.609547 -8.848806 1.384446 
20.859093 10.071953 2.378382 
-16.233967 26.852568 6.368591 
13.203424 17.722986 5.872452 
28.299849 6.493900 4.915615 
21.953743 -8.117104 13.111554 
-11.616415 28.916723 11.702923 
-10.702318 23.805578 2.100425 
22.583906 8.749731 -1.229415 
-30.107189 -5.919287 -4.336134 
-26.020613 15.607090 0.357531 
14.445889 18.726166 -2.480010 
-25.852262 15.217940 -0.443389 
10.914401 29.330000 6.943701 
18.561152 19.377140 -1.004526 
10.837687 17.994776 12.312473 
17.577696 14.027806 -5.883958 
10.789883 22.137527 -5.792949 
-6.182119 17.997105 -8.217898 
-20.459906 -0.487616 8.589113 
19.369612 12.136702 8.116801 
33.223934 -9.257948 -6.635859 
21.690720 19.997808 12.432184 
20.900288 -7.647116 9.684898 
3.040294 27.735147 -0.014426 
6.107029 29.013988 -3.250337 
12.450996 25.991922 9.700538 
25.755804 11.649106 12.695574 
-16.954428 2.458639 -3.435600 
19.291401 14.750422 5.794201 
26.315008 -4.964159 2.486113 
12.887770 11.159013 -10.640575 
26.127131 -2.382247 4.222175 
27.160093 4.867706 -7.017892 
9.463259 28.600260 1.947365 
-7.176079 30.075930 6.031726 
8.355100 27.924639 3.054205 
-16.881536 6.730260 -2.658552 
21.434393 -5.616838 2.355921 
-12.343872 19.398560 -1.149169 
32.258430 -3.639112 4.728104 
22.314291 18.363054 4.570470 
21.992523 16.997417 3.156077 
14.318331 27.059879 1.597188 
-17.660635 -9.818981 -2.726312 
15.550542 21.501932 -0.957418 
-13.412676 20.536427 -6.723938 
-14.574433 8.328986 -4.583539 
27.370514 -1.671519 9.249104 
15.546788 4.776246 -3.750461 
6.811428 22.883158 9.305295 
-11.225447 10.137386 -10.762424 
22.997406 4.524023 -5.457361 
6.890405 31.410650 4.648420 
4.246074 22.841909 -3.096144 
17.928747 11.521201 4.869772 
27.003267 1.565578 9.052074 
-17.988674 16.970633 -2.495409 
-24.548252 0.599320 -3.511482 
-26.867786 -5.642360 3.344847 
22.807859 13.261588 0.548392 
-29.721224 -14.646900 -2.509183 
-14.869466 28.529922 9.233097 
-10.142612 23.097733 -2.141527 
11.599872 21.746571 6.773315 
21.659456 -6.507651 0.899439 
-9.465681 23.410292 4.447315 
-29.523836 -2.739962 4.985647 
-14.370779 22.342539 3.331297 
5.931051 27.116980 2.685675 
9.826768 23.730984 1.654216 
26.228273 11.641809 8.443649 
-9.090967 27.029125 -7.276005 
-15.918953 17.004162 2.471855 
-22.187746 -15.118091 -2.459361 
-25.444550 -11.080444 1.795732 
-13.613391 17.411819 -3.255583 
-18.234070 12.840784 -5.126020 
-11.174060 13.083539 -1.837934 
-19.421265 15.692055 -4.989893 
-13.517938 24.653917 8.443227 
30.405373 1.186544 7.182335 
19.204594 15.517555 -6.150207 
19.442862 16.267418 4.884189 
-19.889534 6.178450 -1.892992 
25.974865 -10.400110 7.193068 
15.665047 12.981010 0.305271 
-29.420437 -6.595573 2.236641 
26.997147 -9.092032 -2.405809 
15.944680 12.780725 -2.048491 
-22.120966 3.412398 1.753122 
-19.571203 5.197204 1.254642 
28.037443 1.279639 -1.991188 
-19.391422 13.235742 5.146975 
-23.003979 -8.788265 6.141887 
16.835497 17.504103 8.756108 
-18.680838 16.539232 -9.014774 
5.187347 27.715597 -11.530221 
-13.628600 9.012982 0.881037 
-11.031086 24.601755 3.834096 
-18.969006 15.497868 7.963059 
29.023876 -4.661128 10.992675 
-31.341612 -5.593482 6.925098 
-13.157884 14.318399 -7.518770 
-28.570223 -14.532659 11.488549 
-20.974995 11.255710 0.896643 
-14.105863 9.676033 -2.246416 
-25.746269 -9.417443 3.357319 
15.482808 8.857320 -3.770938 
17.221535 20.144653 8.180424 
1.049395 32.313427 7.916188 
-19.053371 17.661301 3.441630 
-9.763897 24.520330 1.598090 
28.597723 2.214237 -6.621685 
-22.680950 8.322217 -7.224016 
-12.430133 27.991741 8.156721 
-18.000282 12.586425 -4.197778 
-20.211172 7.907362 1.589930 
10.616219 26.994625 -2.448581 
18.655968 24.930906 4.260002 
-23.722340 8.506822 1.242568 
-14.812918 16.738794 -5.841671 
-20.745543 -2.836820 8.585986 
-24.446648 8.797665 1.979803 
-23.208355 18.710897 3.970915 
25.902843 5.679826 6.531890 
32.546848 -4.043139 7.796992 
22.970379 7.929284 6.915937 
27.203569 4.311640 -2.460624 
4.666729 25.812002 4.661042 
-24.875708 13.385866 6.597800 
14.942780 25.042862 -8.805580 
26.637091 -14.488690 -3.467721 
14.563807 29.187605 9.440834 
12.766491 28.949244 4.865791 
-15.856337 24.201036 5.471518 
-22.756105 9.910596 7.746139 
-21.911894 -13.703904 0.992742 
-19.004358 12.178658 -0.160698 
19.862604 4.564449 -5.574142 
23.398825 -10.045955 3.596290 
-23.244833 16.898247 5.707393 
32.108219 -8.663494 -0.209959 
-26.145765 -10.447999 6.836944 
24.251596 15.270031 6.902536 
25.783913 12.278205 6.929390 
-18.590956 -5.647715 -3.372126 
-24.468250 7.084431 8.454507 
4.588578 28.599686 6.736203 
0.175804 32.102371 1.844414 
-18.107286 14.434660 -5.699121 
21.742107 -4.858753 2.749429 
-8.521401 29.770189 0.255647 
9.555295 27.220549 -11.908899 
18.064440 3.131100 -4.993148 
11.714581 23.620359 -5.990887 
-6.186874 25.036409 4.498567 
13.668847 29.580389 9.365923 
19.642467 17.489765 -6.263223 
-25.354145 4.436845 3.931757 
2.810912 28.678791 -6.511417 
8.186978 29.810823 -0.538222 
24.367691 15.336016 9.935167 
-14.322856 2.256844 -5.234536 
-21.169249 7.138537 -0.404132 
-13.911510 24.239731 3.569821 
31.701576 -4.301988 -6.104626 
25.443914 13.200542 7.668749 
12.961365 27.215088 -2.588454 
-23.540098 6.591664 -7.594540 
28.422272 -11.413237 7.469391 
-24.420942 2.770077 8.003993 
-23.178259 -13.123752 12.533923 
23.752197 8.178122 5.373158 
5.461199 19.791586 -9.971260 
-16.697639 17.137249 5.848732 
-31.455395 -8.532610 3.767737 
-10.090084 28.443649 5.555649 
10.931308 26.678169 -3.196836 
25.683392 -0.499807 5.647789 
-16.294773 20.513132 -1.767748 
-18.831375 6.337290 6.875970 
16.785603 8.061081 5.089514 
19.130527 10.898946 1.887911 
-16.686176 -6.316600 -3.166198 
-21.791210 15.385092 0.272358 
-8.221476 17.453951 -6.266178 
31.655167 -1.871212 5.981229 
16.375549 27.414232 -0.206227 
-15.851848 12.560513 10.809746 
16.665823 23.742714 10.454700 
14.484514 7.468176 -3.602019 
-29.464827 7.984208 8.743396 
14.999800 25.023771 -2.097571 
24.496077 -4.893989 -1.715863 
-22.570192 -5.870176 7.912140 
30.865644 1.815764 11.824416 
11.149533 30.868326 6.130536 
6.086825 29.331205 3.329232 
1.654139 27.737303 2.970943 
-9.623287 28.345032 7.495520 
10.598743 29.110088 -1.967225 
16.533875 6.422660 12.678510 
-20.002798 10.658020 3.270077 
22.706472 1.734553 2.486201 
9.148729 31.634304 1.785877 
-5.256948 26.468042 -1.622927 
11.193842 28.682810 -4.543676 
-6.864872 26.793829 -4.438441 
13.435066 29.604486 2.320556 
19.945477 -4.638501 8.190826 
-0.636657 32.428665 3.314473 
24.791126 -10.591964 9.624253 
-6.068227 22.239546 -3.958409 
5.644624 27.470036 -2.477398 
-24.369694 -11.346761 1.691122 
22.862980 18.708473 10.062490 
10.493171 20.748648 8.827983 
20.971638 6.358056 7.994442 
26.241945 0.632031 2.608924 
-29.374317 5.955455 6.424773 
-7.583881 27.396481 -8.081073 
28.830322 -0.040296 4.909514 
17.577759 12.129490 5.915003 
9.680717 26.560976 3.148130 
5.775434 25.582174 -3.175728 
27.473480 7.462709 4.061668 
-18.461559 -2.344821 -6.759957 
-7.476998 24.850363 4.492902 
-7.466303 29.448866 -1.545238 
-31.041111 -14.299560 -4.665843 
-30.252783 -16.019491 -6.209890 
-27.120077 13.657635 7.620174 
-22.978502 15.718902 8.571904 
17.231764 19.402933 2.165649 
-17.793701 -3.838543 7.663805 
-30.803045 -1.468290 7.692767 
-19.392015 -5.498097 1.740427 
16.400755 14.510664 1.155094 
-10.681969 11.410286 -4.613520 
26.656147 -9.055842 0.999693 
-7.909954 23.678173 5.061361 
-21.764570 8.633014 -2.089256 
-19.836605 -8.788467 1.918044 
23.108131 -12.150192 1.244640 
17.129099 12.175645 0.532306 
23.774515 4.812102 6.431900 
-21.243055 -9.277521 5.020894 
-11.779554 27.462008 7.994680 
-17.492960 11.432823 6.053068 
13.258731 16.237953 -7.613797 
-11.379420 30.007315 7.028962 
-17.261026 -4.704064 1.233394 
-22.467588 -3.303278 -6.401175 
28.095125 -8.448250 6.000137 
23.214788 -10.745594 10.136909 
9.286619 22.038038 -1.112247 
21.621975 16.984037 7.261555 
27.099043 -4.223736 3.509243 
18.470779 -0.104858 11.719264 
-16.890715 -4.673056 0.010676 
-9.824894 21.065855 -1.648410 
-5.814929 31.354837 7.315324 
-12.165328 23.943483 3.165337 
15.865635 13.498212 -2.556676 
-9.643744 13.369354 -8.087477 
19.877028 6.536493 7.359776 
-4.869249 31.520210 9.438088 
-18.750654 17.356937 -5.730837 
12.263159 24.337370 -5.939936 
21.999495 -3.581087 5.967985 
31.109959 -12.150291 -3.856592 
-0.902784 24.513794 -3.080153 
9.950094 22.311600 0.055787 
-23.055561 -13.667940 6.394948 
-18.121336 14.111221 -0.061682 
27.923180 0.558273 7.931469 
-28.907516 0.701512 6.362512 
6.215343 30.007284 7.997147 
-30.051470 -5.160467 -6.708094 
-12.753772 7.335342 -0.381265 
4.256324 23.931562 -0.304220 
17.134075 10.599316 0.666162 
-19.164154 4.891530 -3.239539 
-20.229731 23.811831 11.692349 
-2.820625 30.977392 1.551089 
23.226046 -6.461728 9.733401 
19.355396 5.250359 -3.955257 
29.586164 -11.812954 10.221071 
23.100658 -5.557626 -0.981083 
-21.781622 10.070155 3.288583 
-15.955482 -4.514888 -4.638442 
17.563757 2.762918 2.285137 
-20.099350 -9.008283 11.253944 
-27.797722 -11.203204 -0.014709 
-15.615321 27.963238 0.861585 
-28.105829 -13.603968 6.818980 
-19.013149 -6.184500 -2.088778 
23.318489 11.852487 -8.440077 
28.232347 6.998157 12.845582 
12.277086 12.329462 -10.863036 
-17.083002 13.013982 5.099298 
19.493629 5.204145 8.037201 
-1.319337 27.522518 -4.081450 
-17.469198 -0.321204 -6.771678 
-7.198103 24.599178 5.739718 
23.016972 -7.274162 -2.316291 
13.526730 14.738407 -6.067465 
2.427768 28.112259 2.502232 
-12.452963 25.140303 8.355613 
28.950630 -11.018559 6.957907 
18.194895 20.221004 -2.576553 
24.085480 10.631123 -6.546859 
28.095261 -13.154604 -1.729449 
-24.947311 -1.638087 1.400506 
-20.146425 5.549573 -3.334075 
27.116089 -1.731013 -1.800843 
4.610195 24.772213 -3.923309 
20.148901 4.250005 1.168372 
26.914505 2.971868 1.125089 
-20.985548 22.281265 7.611328 
-12.089038 7.280431 -5.083717 
5.580626 22.308943 -2.128018 
13.306906 14.259157 -1.482730 
11.349963 26.145088 -1.783444 
-11.036839 26.779129 0.353020 
-13.181150 16.517948 0.351196 
15.703590 14.553937 2.314203 
31.629007 -6.536073 0.706341 
-28.872534 1.225778 5.677337 
-29.634489 6.274224 10.766033 
13.805427 10.374015 -2.243229 
27.459480 -3.438939 2.428446 
-31.113138 -13.353108 10.588030 
23.302414 10.689250 -3.592455 
14.471011 23.491819 -12.881799 
10.502131 27.447130 -3.653915 
-0.807540 28.653656 0.518800 
-0.484805 27.691278 -11.845583 
-28.173824 7.148373 7.373738 
-24.549547 13.720259 5.626744 
-18.186848 0.406441 0.217454 
26.587852 10.101936 12.745602 
12.870179 21.701010 7.453345 
-2.993749 24.771955 -0.956240 
-29.818583 -5.836612 -3.426136 
22.945551 9.385275 -3.638846 
16.269135 7.791633 5.994312 
16.904005 5.584968 6.786227 
29.881279 -5.821089 3.819584 
22.109055 -1.748675 8.873178 
22.236481 -10.591968 0.449555 
-23.636129 17.864183 0.913830 
11.919980 30.374929 8.909072 
25.243139 10.480179 2.927153 
-21.337481 -5.655367 1.903981 
-7.534359 27.182453 -2.281992 
12.542057 27.882103 -5.623254 
22.260418 -0.335851 2.441111 
-10.178853 23.083229 0.969293 
26.688391 4.251532 -0.316097 
21.771820 -5.196047 1.716291 
12.280918 17.179607 -3.615427 
-25.927999 8.998273 8.465125 
3.377320 31.207296 -0.134322 
-31.483459 -7.143574 3.686448 
-15.991414 19.657187 -1.795454 
-25.349590 -5.374039 3.134183 
28.310360 -7.059363 -2.894306 
13.203019 26.193287 -3.970175 
22.996122 -10.396965 0.507037 
8.842816 31.765093 2.950909 
-24.399225 -8.532167 2.245078 
30.654924 -5.865502 2.550562 
-16.359688 24.359671 1.553353 
21.536896 2.521176 -5.809328 
17.148424 4.639083 12.730853 
-25.738073 -13.402460 1.587803 
-24.717966 -3.013829 2.015660 
-30.156769 2.900254 8.370219 
-6.380721 27.886724 -7.145378 
1.376559 24.124666 8.140343 
-28.557919 9.578403 0.793769 
-16.441023 1.597628 -3.505059 
13.397680 10.530890 -3.748133 
17.977419 27.563396 8.520320 
-22.493235 -0.272627 -3.358384 
5.643705 22.865879 10.088071 
18.912235 6.650213 -1.899359 
-22.170490 7.032176 -2.908705 
14.133080 20.455719 -1.418988 
-25.850475 -5.597232 1.725482 
-6.417555 27.662619 -8.535701 
-11.288804 25.662054 -0.074308 
-15.612562 22.849445 2.487897 
0.559481 24.536747 7.165351 
-19.056408 3.241987 -4.963759 
25.293549 10.286746 4.375762 
21.567400 20.720362 11.302069 
-19.121546 14.680574 8.242780 
-29.919952 4.532784 12.005579 
17.657127 16.179388 2.783038 
11.992681 26.380251 -11.408714 
-8.822592 19.955627 -2.216102 
25.460112 4.316570 1.648168 
15.496913 26.709225 10.654499 
20.372215 -5.378392 11.530135 
11.242028 29.551626 12.041138 
11.164356 27.842278 7.665503 
18.498434 27.333975 7.778841 
2.722251 26.358744 -5.699213 
9.249022 31.474258 7.139122 
-22.880524 -13.420149 10.624122 
5.141306 30.432734 4.954659 
30.846449 -2.670712 -7.874278 
-4.766833 25.294706 6.781168 
-26.636440 -2.999908 -1.865532 
23.630091 16.677187 11.044445 
-2.193052 22.736422 -3.672322 
-23.446745 3.324181 4.758297 
-20.129639 -7.648950 1.635717 
29.133589 -12.221812 12.240674 
22.600718 -7.694406 -1.732775 
16.789642 10.983901 6.023783 
21.699867 6.497811 -3.389590 
27.750080 -3.974668 10.670577 
-17.447201 20.163193 -6.382676 
-6.557437 27.426382 0.782490 
-31.444918 -2.140517 10.782757 
14.322383 24.803757 -5.679875 
26.306450 -2.698116 -1.043207 
21.861536 15.003732 -6.990588 
1.349880 27.044247 -3.655538 
14.434791 13.626195 -2.320016 
-11.511982 23.560137 6.662747 
6.950910 24.949478 -0.788613 
-8.825105 16.745939 -6.231808 
-27.562471 13.006170 9.544900 
7.264832 28.492388 8.990202 
9.488831 28.767044 7.127096 
-28.204901 -0.947264 -6.793043 
8.461208 20.040464 -3.424228 
-29.590216 7.111733 9.057808 
-5.901616 26.212772 -2.526649 
-20.402559 -10.267343 9.474768 
-15.636094 20.393412 5.145298 
-18.828871 13.846366 -2.385714 
-21.010149 12.802196 1.205480 
-29.569815 7.002266 7.606992 
12.066133 24.446857 3.971480 
-15.869865 2.250246 -1.787641 
-21.201265 3.375093 1.648481 
9.041986 17.499521 -7.455356 
-17.264845 19.682436 -9.127518 
23.060257 6.896049 4.969267 
20.598366 9.494952 -6.265464 
-17.490479 26.523809 -0.262354 
-1.049249 26.882370 7.295973 
-26.444777 1.506741 -9.374931 
-6.818794 31.614077 2.967062 
-30.350576 -6.499933 -7.956791 
-21.019077 18.541231 6.845757 
22.831146 -9.299104 -2.631498 
27.477617 -3.717378 7.029459 
-25.520542 -9.140587 6.470934 
-11.279455 9.935848 -5.809683 
-0.756518 19.722433 -12.385843 
18.646166 -1.323118 6.992871 
20.036974 -0.349276 2.027874 
11.114381 30.773342 8.318524 
-14.383395 20.064831 -3.132778 
25.568375 7.528415 -5.839942 
8.834180 24.728121 6.305714 
-25.914045 2.478772 7.795966 
-13.798958 20.885138 2.822397 
27.856403 2.670891 -8.892132 
-16.528557 7.704315 -2.801809 
32.632050 -2.863337 11.147191 
-21.645777 -9.400928 1.744362 
7.243009 28.697622 -0.885683 
29.512299 -9.930630 10.343846 
-25.556067 17.439083 4.106079 
-14.348941 28.980648 4.749914 
-31.976421 -11.256345 7.646420 
8.203115 31.669222 1.607437 
31.598717 -6.129695 11.014233 
7.869723 26.117874 8.083602 
-20.107721 23.793484 4.292150 
13.656875 15.915425 -1.017514 
14.304954 12.352776 9.615074 
18.513474 -3.277622 1.663991 
-10.325639 22.652719 -4.419094 
0.266581 30.088005 8.813505 
18.570400 15.112199 -6.369987 
-13.659581 17.545185 8.178943 
8.767188 29.308245 -2.293218 
9.018247 29.199104 -3.179123 
13.753518 16.302113 -2.888256 
-26.469276 1.217066 -2.221347 
5.242172 28.670633 -7.948155 
13.353775 28.032629 5.987409 
-24.410480 4.354107 1.453025 
-11.760635 8.616587 -5.664677 
21.414557 17.722376 0.841652 
16.011602 21.471151 4.202188 
30.408871 -0.950970 5.911706 
-11.318396 25.518591 -9.819568 
-10.988663 25.212036 -2.158223 
-16.526787 10.734489 2.410059 
-10.378311 27.643545 4.193689 
19.651779 -10.373369 -1.976177 
-12.152064 26.046787 -1.189839 
15.982514 23.416088 -9.825440 
-19.440262 15.078965 -8.122986 
20.191942 16.659245 -4.928862 
-17.912792 -8.388476 -1.000111 
28.080978 -0.791941 7.499676 
27.237803 -1.226488 5.838197 
22.745642 -7.886628 9.553183 
-17.824678 -9.554413 -1.710628 
22.656561 -9.049602 13.144820 
-18.833981 24.806551 4.484520 
16.389193 11.408646 3.686359 
16.240604 20.605829 2.454959 
-32.183659 -10.775182 12.338262 
21.624512 -3.832720 4.646835 
-30.667604 1.110388 10.827625 
-26.730803 -1.408165 4.881258 
19.796167 6.953481 -0.055026 
9.812166 29.861652 7.555129 
-17.942978 -4.217231 -5.731189 
23.740677 -10.284499 13.191245 
-23.141197 21.079208 8.133078 
-14.012286 20.329571 2.281964 
-9.505569 30.125496 2.965822 
-21.173676 10.344577 -3.497766 
-20.806759 -2.805628 1.944771 
-13.306671 26.717421 -2.045709 
-29.545839 -0.944813 5.084560 
-1.482288 26.139576 1.655496 
-4.731573 28.200335 -8.290158 
27.118626 4.561242 -8.031992 
3.994413 25.560638 5.312151 
-14.601403 12.349898 2.389000 
-25.878925 -2.965096 0.988014 
17.161892 11.647120 -5.141241 
0.475722 30.158840 -0.978777 
18.032476 14.163713 3.253928 
-0.152262 28.997725 -4.186255 
-17.801418 14.828702 3.224303 
-29.538446 7.134647 9.926270 
-14.140507 25.945036 8.721756 
25.534504 1.197423 2.838069 
-3.210791 25.738077 2.445487 
-18.229052 17.579414 -1.460180 
-21.185585 23.429224 9.533751 
21.754185 20.774555 10.295526 
-31.614979 -11.700656 -7.019321 
-22.845440 -1.885207 1.584365 
-18.671473 18.347181 -1.504494 
-20.052353 -9.687634 -0.076719 
-16.044230 23.456778 2.855666 
17.919815 20.212494 -4.276704 
16.922365 14.115592 3.388391 
27.908810 -2.944490 10.193529 
25.663038 8.256713 4.836522 
-6.414482 27.309771 -10.081334 
20.736601 -10.658093 0.199984 
-16.754583 13.212914 1.320743 
-14.984587 5.296808 -4.500907 
-30.006512 -13.732162 5.232371 
-3.762332 28.082642 -1.091235 
14.351002 26.094452 -7.484702 
18.981461 24.938578 7.268390 
-22.098293 -3.648802 8.633157 
-17.901443 9.578781 3.482194 
-10.565237 25.810698 -10.081057 
-27.984810 -4.217568 -1.847674 
-7.707212 17.392776 -7.107224 
14.239491 12.736477 -1.084394 
-8.256462 22.580688 7.555770 
-0.012094 26.543835 -3.183673 
18.024178 -0.071616 1.724536 
-15.755143 21.641710 -10.319364 
-12.674154 21.134529 1.885194 
11.823277 27.547548 5.046906 
-23.912638 13.215098 8.173071 
-27.935745 11.271754 11.874394 
-19.432310 6.388781 5.988899 
15.983068 2.780411 -4.575220 
-29.023376 -8.945502 3.523888 
16.069918 9.672583 4.484108 
27.550220 -7.697421 5.547402 
1.581274 20.895884 -6.590334 
7.313890 28.164541 6.043766 
21.346939 12.179209 1.330447 
-14.889062 23.784138 -8.633410 
-13.878629 21.754200 -6.895472 
22.006832 16.800735 4.051956 
15.192672 13.037373 6.433651 
26.893461 -1.885498 -3.306862 
-14.487460 28.248775 0.686658 
0.512173 25.266155 5.989552 
24.361233 9.912641 -5.284496 
0.160266 25.375652 -1.818196 
16.501421 5.343909 9.822616 
-2.334929 26.305271 3.586498 
-18.609619 17.315638 -0.552767 
-9.842352 15.566550 -4.999910 
-0.791834 23.634312 -2.534891 
-0.780051 31.552650 10.782845 
-28.980270 -6.134005 5.944637 
7.887632 28.942362 -8.118284 
-12.697005 16.526260 -0.362298 
22.447828 12.706975 -1.485429 
-23.045582 -11.904164 0.899697 
-23.911558 5.211553 -10.021818 
-23.795042 6.939697 5.662683 
21.701982 -13.583782 -5.990351 
-29.776619 -11.715135 1.360847 
-3.395620 27.420311 -12.068689 
23.746202 -2.936658 8.604388 
14.449019 17.812069 1.204473 
2.477881 22.938927 -4.913195 
6.146081 27.207899 0.910481 
24.664284 -3.083783 4.662860 
-19.331732 14.814979 -9.174261 
-29.336336 8.000298 10.164186 
20.768751 11.637615 2.013465 
17.198246 5.752295 6.078276 
20.494335 15.135221 -2.815459 
2.005366 24.283663 1.101317 
21.683655 -4.367424 1.156479 
27.824827 -10.561554 8.145890 
-21.062595 23.335630 5.115153 
-25.781544 -9.885864 -3.965548 
-22.271437 -12.345594 6.280883 
-10.822349 26.001265 7.443022 
-26.798290 -12.186384 2.868797 
26.578339 5.372752 -2.403606 
-23.474030 -5.190860 1.984856 
26.004055 -6.765747 10.991338 
22.621387 -3.972718 8.429770 
7.433991 27.441523 2.750604 
7.202835 24.040899 -5.656729 
5.863427 28.411085 -0.043959 
-27.399109 -14.921131 10.584958 
24.674450 -13.343306 -0.559879 
3.502062 24.968750 3.595009 
17.001757 0.886546 -8.704112 
-11.549213 24.774620 1.583271 
-23.075809 7.074384 -9.022501 
1.664480 23.418446 -4.742951 
-6.544043 27.166538 -1.832047 
-6.073155 31.761005 5.848102 
0.237350 28.471724 5.675899 
9.137485 25.898575 2.449903 
5.113555 27.494059 2.637337 
-19.990969 6.392544 -5.733574 
28.589554 2.335885 -3.668646 
18.483259 22.097519 3.276777 
-23.453266 18.132721 6.255162 
-28.217079 2.479873 3.089150 
-22.439194 -6.270365 -2.615548 
-23.838747 -6.385200 9.002609 
-29.684340 6.223384 8.698349 
-21.137728 -0.948826 0.152484 
17.862389 4.554831 4.023880 
18.442129 1.096212 12.835956 
-13.081912 16.028761 1.330364 
-27.117195 -3.605288 7.873378 
20.798990 5.651185 1.020333 
-26.239855 -15.098979 9.154361 
-18.933254 23.266418 4.367207 
-2.025732 28.154301 -5.576544 
3.774103 20.589251 -6.273972 
27.968594 -12.370874 13.306735 
27.269810 -1.579026 3.043073 
20.889124 16.721210 -8.962507 
-18.897554 -5.449978 11.118582 
1.334059 24.775267 1.689236 
15.765177 8.083974 11.281311 
-10.914178 24.291857 1.397343 
-0.539286 32.005096 1.368551 
24.123957 -7.928225 -3.314104 
-0.544601 24.097885 -4.150007 
-31.383791 -12.118316 -2.509100 
-10.031878 23.249685 2.306687 
-13.290502 18.036057 -0.479541 
-15.964860 1.331130 -2.819738 
-5.833318 26.068192 7.591229 
-24.113428 -12.737253 10.385683 
16.603666 23.719311 -6.153160 
-22.594490 -5.254767 1.767100 
-3.773680 25.275681 4.929098 
-29.904087 -6.633312 9.367367 
16.433573 23.828913 -4.622017 
17.062206 13.927008 -0.564007 
-29.520350 0.033763 5.194212 
30.085306 2.035141 6.907781 
-15.908319 28.023249 5.223208 
17.324947 28.551008 3.732665 
-27.200319 12.782907 6.759456 
27.142752 0.820399 1.899783 
10.279634 25.956844 6.317745 
4.329482 31.490725 6.028054 
22.220013 8.446719 -3.155301 
14.085073 15.166634 2.198921 
22.377293 -4.842459 3.570840 
-16.866211 -7.779259 -7.549293 
-24.440521 -4.852428 1.729198 
17.422676 7.564626 4.799851 
-9.399336 29.857817 6.854113 
-23.365789 -4.891294 -5.517330 
8.462502 26.846659 -3.440385 
18.584808 1.714268 -1.536377 
0.248990 22.870462 -2.904999 
-31.660686 -10.197318 9.891719 
-28.926577 9.779140 9.474936 
-11.013370 10.680427 -5.063082 
27.574238 3.213478 8.836551 
16.726969 4.464613 9.881031 
32.758663 -3.980338 13.179271 
-17.520092 -0.243542 5.202137 
15.480065 26.286684 0.426548 
23.659475 -3.333092 5.322530 
-7.626441 22.353268 -0.693188 
-27.072704 -11.022435 0.956210 
13.468274 17.163425 -7.772409 
4.747047 32.172146 6.728127 
-26.116411 -10.684787 10.958224 
14.470095 11.772658 -0.316373 
16.566383 0.352124 -5.935627 
6.374649 22.195881 -2.978703 
-25.586811 14.524276 -1.344944 
-10.295632 23.617512 0.266537 
21.144991 -1.295943 6.257397 
-8.203765 26.696047 -0.028284 
21.812248 3.235614 9.195902 
-4.223170 18.863022 -9.278256 
-0.487177 21.633875 -4.903077 
14.925226 27.770462 8.426802 
25.220659 6.775049 5.949835 
14.174511 26.297684 2.057799 
20.985376 22.209499 8.120810 
8.119642 27.867012 6.686499 
-25.121365 -11.441739 -3.591223 
29.810818 -4.617951 -0.022128 
31.788393 -10.530853 -2.313757 
9.797164 23.173855 -5.056162 
-22.661690 -12.050205 -3.377986 
12.417901 15.931999 8.988390 
-22.353134 15.616774 -0.443178 
-21.173403 -2.076524 -0.276600 
-18.952763 13.898949 -3.489896 
-29.545189 -10.956191 -1.277730 
-16.729713 -7.564166 -5.991057 
-18.945667 7.920049 3.303723 
-16.212881 15.085427 4.716455 
14.362133 15.882123 -8.013149 
-12.753660 20.266148 6.826666 
10.849051 28.403395 -7.444857 
13.462718 22.147549 -5.918650 
-8.104975 28.632046 8.099554 
-20.205818 23.410454 2.383482 
-17.392706 11.921071 -1.721659 
-27.236830 -3.243624 1.395419 
-23.919733 -14.005961 11.488721 
-27.679913 -13.497217 10.318459 
15.395733 8.932090 10.240561 
19.456957 14.285902 3.335964 
31.684895 -4.571247 -7.515016 
8.565321 20.246313 12.223255 
30.092613 -3.802848 8.277837 
16.677017 18.833286 1.732309 
19.981760 23.364182 7.067602 
14.387580 25.642832 -2.524172 
-10.249593 22.246212 0.883491 
21.244474 -9.713954 2.374355 
14.841085 24.621630 -10.017369 
8.012938 18.946051 -6.687809 
-12.615308 14.338300 -2.833171 
-19.252018 25.319805 7.993568 
25.340239 8.043047 -7.145619 
-11.926782 24.920311 4.277372 
10.214955 16.015705 -7.765941 
5.684405 26.163437 4.062988 
7.088042 24.967264 -6.206508 
-18.962885 14.668539 -2.310840 
-16.143391 27.164312 10.730224 
32.488255 -5.697531 9.333122 
-27.384518 10.957122 5.045928 
-20.941761 -4.385893 8.311512 
24.922995 2.596258 9.379822 
15.139046 14.772505 0.778927 
5.479735 25.715977 4.670616 
-21.776733 17.536930 7.776681 
-26.604607 2.016997 -7.541105 
0.579644 24.050793 8.404325 
12.144955 21.300219 6.264713 
28.643578 -14.697511 -5.697111 
-31.643425 -12.990547 -5.158031 
-20.947367 1.284423 -6.951223 
-16.935890 14.883300 3.535587 
23.080309 -10.774039 7.579131 
-21.552122 -6.040642 6.740209 
6.250254 26.641281 6.316726 
-21.854671 -12.572901 9.147259 
16.881998 14.377128 6.472185 
0.613427 32.591763 6.157634 
-10.307568 21.983187 -1.631756 
20.405516 13.964968 -2.613131 
28.216839 -4.568336 10.933884 
-26.861477 -10.183702 10.981422 
15.207071 18.037416 8.532361 
8.516796 29.154795 -1.528348 
29.309969 1.263874 4.596535 
-19.282032 16.717607 2.327367 
-20.961084 8.961419 0.526000 
25.856739 9.057715 4.240114 
24.674528 4.969152 -4.952966 
23.282629 2.224471 9.443706 
-13.062897 18.397758 -4.423012 
4.717764 28.306290 5.979142 
-31.721865 -13.431082 -6.703376 
24.712486 -5.145272 10.217248 
-21.030619 -9.523785 3.399569 
21.493328 -3.429353 1.179332 
-30.938049 -13.507611 7.305338 
-14.454468 24.622787 -5.508671 
-7.140662 16.044197 -11.793208 
-22.217123 -7.349463 -1.456282 
-22.303452 18.171371 5.587893 
-25.053694 -1.178744 -3.006993 
-13.745759 4.376149 -9.738276 
-18.833153 -4.539710 -6.143744 
-21.906561 1.205909 -6.846228 
-8.235894 27.056849 -8.477328 
19.863438 17.689432 -10.564207 
17.925564 1.570548 8.176306 
18.733707 -1.888240 5.757039 
24.200016 6.869744 -2.660672 
-27.099361 -6.401507 9.708449 
13.706386 29.649282 8.529329 
-18.412304 2.493984 6.367586 
-3.972488 27.937174 0.850425 
31.953999 -0.955109 11.197679 
18.420542 0.081382 8.345596 
-18.622292 2.337094 2.617689 
-20.011229 11.281018 0.566933 
24.813297 -3.654410 -1.110400 
13.647229 14.050962 8.763446 
-24.457924 -10.084119 3.182216 
-21.100178 18.140198 1.124096 
1.637391 32.035427 1.980058 
17.380116 -1.697156 0.359860 
15.839636 9.933881 2.973411 
27.810839 4.200577 8.608145 
30.481842 2.534488 8.959384 
-26.587904 -5.868185 2.291730 
27.936085 6.906497 3.362474 
-10.892716 20.904324 -2.797628 
-14.033355 20.963940 -3.972774 
14.784180 18.275669 5.752189 
23.331713 17.029842 6.475172 
25.303484 1.190435 9.347436 
-25.551405 2.976480 -5.090777 
28.507540 -5.521272 0.622989 
18.256506 7.979685 7.337813 
-16.374380 25.795675 6.025275 
-22.615704 4.870103 5.493464 
4.212947 30.169250 -1.079320 
-21.748356 5.921091 7.507618 
-16.189541 -1.503354 -3.853478 
-18.445555 15.861443 4.128364 
2.466737 25.786997 7.387285 
17.993637 11.165826 -6.518394 
-7.726206 27.088957 -3.742061 
26.561649 10.921506 9.059095 
18.335911 15.364813 8.056745 
1.726889 20.092859 -12.421926 
-22.171692 -7.583991 8.861579 
-24.474426 -1.720066 5.352331 
-17.764078 1.841124 4.923828 
-26.225981 -12.478997 6.191139 
-19.974905 5.641071 -5.369432 
-21.484056 22.133923 2.047865 
28.505560 2.044915 -7.619483 
-31.244226 -6.339055 3.898356 
10.170957 30.048759 8.881523 
1.437255 27.713606 1.825993 
2.323762 27.001673 -13.681175 
-16.354961 18.900112 7.905417 
11.477473 19.277561 -2.384435 
14.642586 10.814069 -1.859824 
-14.717838 18.703735 5.052496 
-13.770924 7.699965 -3.545683 
-30.927582 -8.179346 -4.324230 
17.743156 20.133493 1.270957 
-23.072187 14.841616 8.648135 
25.579063 6.003760 -3.601023 
-4.056440 31.673584 9.240106 
3.406017 27.887621 -10.520786 
-27.822323 12.173929 10.678033 
-24.526119 18.790010 10.531662 
-24.742617 -14.871361 -0.615455 
-24.918808 -6.566117 -1.706891 
-30.680954 -7.309371 9.456142 
6.981855 25.917446 1.757329 
-21.391510 2.765155 7.994612 
-2.454096 20.414154 -6.876376 
5.101460 28.146505 4.566587 
-26.061520 16.559029 2.771933 
16.871552 3.719424 8.153913 
15.731720 18.874802 1.746175 
32.474087 -5.941193 -3.737284 
-20.040361 10.629776 1.525368 
29.967497 -8.557436 -0.670645 
-8.750661 14.196362 -11.475006 
27.394053 0.384487 5.566960 
10.643294 21.174492 -5.551905 
24.002729 6.998494 -0.035776 
-19.505817 -4.833587 7.626322 
-22.634504 14.701400 -1.121900 
-28.940714 -0.638254 4.316186 
-13.480745 6.157321 0.226447 
-6.745568 23.138142 7.341740 
19.537266 -3.795004 -1.262460 
-13.932720 16.871017 8.738997 
-25.467802 -1.860296 8.606223 
16.713409 17.510757 -3.842240 
23.815287 -10.393194 6.186548 
-14.327399 2.475207 -4.214979 
27.435883 -11.210896 1.746463 
16.458845 6.971544 -1.083444 
-16.094919 8.555099 2.571313 
-14.842090 6.764753 0.517812 
-25.089857 -4.688632 -3.940305 
22.888170 -2.936933 0.770273 
20.769207 14.073412 -1.346029 
-21.106096 10.601065 1.477699 
26.846497 7.962142 3.851339 
-28.446342 -0.346749 2.996221 
-21.822514 -11.459885 4.958372 
-17.147379 -2.196751 0.124613 
17.739418 22.641220 5.875549 
15.752703 16.204720 2.009407 
16.259237 13.735479 -5.598139 
30.448067 -1.471387 -6.498509 
2.723709 27.046356 3.206620 
15.229218 28.280981 11.298326 
-0.157526 24.826483 -3.004297 
-11.983851 29.755108 8.251733 
18.845587 -8.030312 -0.905794 
-13.046136 4.950650 -4.596501 
5.543995 28.851645 3.969579 
12.080236 13.266583 -4.578312 
29.232353 5.545407 11.048419 
21.732050 10.697276 5.704379 
-0.759785 19.931879 -10.868467 
20.059635 11.267034 2.447355 
-22.357199 20.621868 5.325624 
17.768188 1.847759 11.653842 
-11.262865 20.441116 -6.334514 
23.265169 17.857727 7.757650 
19.538662 12.045163 5.034022 
8.181828 23.214428 -1.702996 
32.453236 -7.284746 9.246635 
9.684774 27.489279 -3.207397 
15.461788 24.150156 -2.742854 
-15.045205 -0.053496 -4.522645 
-23.003819 16.764454 -1.224157 
2.034523 24.646639 3.411824 
12.745577 13.823402 -2.349973 
22.979628 -10.053455 1.539169 
28.493429 5.087524 3.350506 
-16.010015 26.265125 6.964089 
25.869720 -10.449011 10.581946 
-21.592543 -0.056253 0.070046 
9.114708 21.286577 -2.839989 
26.603455 3.763250 -4.345328 
-3.665697 30.625568 4.058601 
16.025455 10.567568 -4.642319 
16.783621 4.829189 1.329462 
-19.800425 12.095800 8.147945 
-26.900911 -10.016937 3.967517 
-27.136576 0.305247 0.752366 
-26.018421 -9.527770 10.851679 
22.846785 -4.233902 0.912664 
-13.452760 19.626131 -2.750893 
-23.344057 -14.832131 -0.714148 
-24.462660 16.010628 8.170837 
21.681683 19.806932 6.344106 
-25.481209 -8.722896 0.340105 
18.596054 15.327924 -2.656082 
-21.470304 -8.436144 1.295969 
18.210587 3.205625 8.102578 
23.103994 -9.836125 6.021738 
-18.532192 0.363536 1.360846 
16.718365 13.705088 -4.126771 
29.192291 5.549775 7.898514 
19.803926 14.518037 1.738338 
-1.981863 28.857378 -3.038701 
-23.762568 7.308067 1.593148 
-20.212702 -2.046457 8.543793 
7.567265 27.896893 1.969684 
-16.670855 9.665080 2.516570 
-12.793605 27.368710 -2.070433 
14.996157 25.376995 -7.735489 
20.022303 -4.319963 11.504756 
13.252848 22.189020 4.833525 
-26.911432 0.617721 -3.570001 
16.621857 -1.350034 -3.469484 
13.920685 17.035746 7.706229 
25.765348 -4.058899 -1.005055 
-28.641264 -4.422633 4.876247 
8.215242 31.696507 6.091306 
-18.197504 16.653790 4.745528 
24.925379 0.384410 9.313258 
-12.233144 19.997179 -6.474535 
-31.730797 -9.648259 5.258154 
9.863815 31.666704 4.949902 
21.943514 12.572131 -4.393364 
-28.185518 8.468489 0.104870 
19.624983 19.013086 -4.405629 
-1.466418 32.047680 2.240785 
25.296183 11.162235 3.462351 
-20.133713 3.296786 2.187096 
-25.321991 17.698336 9.915422 
17.788200 13.969122 -2.647416 
25.565796 2.742801 2.634650 
0.029801 31.118193 11.830133 
-13.052565 22.153234 3.621757 
17.818827 -0.110972 5.316239 
-24.488653 -5.041444 -4.725973 
30.789524 -6.579763 2.854592 
12.131866 26.761244 4.314869 
-27.165279 1.370853 -6.200011 
18.662413 12.796462 0.870094 
-24.619646 -0.437998 2.820150 
-28.145012 -9.539450 7.223329 
24.366884 13.062094 6.765933 
24.375160 -3.551262 2.451853 
15.562471 11.396491 -3.145252 
28.357553 -13.900665 -3.524952 
17.552509 0.731610 5.196430 
29.325140 3.303473 5.039881 
-19.792837 0.780128 -0.029595 
-21.229193 23.475534 5.882718 
-9.167735 23.944143 -2.367790 
-27.631783 -5.914247 9.343792 
12.323809 28.393137 -1.225333 
-23.243320 -5.637446 -5.166148 
26.891729 -4.213599 -1.533644 
-2.347789 26.444834 -6.651238 
-21.988596 18.505514 2.667397 
-10.260063 20.587233 -1.143238 
-27.160120 -17.067450 -5.978065 
23.657557 11.065662 -8.515416 
-6.649590 26.033558 -3.410804 
-25.749809 9.739176 8.294158 
22.224094 13.755280 4.637645 
-27.488811 -0.249154 -9.066331 
-11.907292 23.617937 7.465066 
-24.902279 13.343615 -1.016292 
-23.134218 -8.056810 0.750063 
-20.075100 -10.470292 -0.303399 
-23.268045 13.041699 5.331630 
-16.546591 8.860721 3.354385 
-28.584341 -2.298799 -8.704524 
14.219889 21.475550 5.648233 
-24.238665 5.384335 -6.071420 
-28.801777 1.695156 4.395336 
-20.515841 8.983379 3.010823 
10.811956 20.837452 -0.578630 
17.087654 14.954682 8.041927 
-26.710697 -9.118599 -3.751516 
19.989349 18.026329 -0.529224 
-29.418947 6.841041 6.531500 
-19.819410 -13.341034 -1.968098 
19.097570 7.061488 -5.412779 
15.374338 29.044035 7.800851 
7.329808 31.611629 2.155543 
10.781940 26.744974 7.539461 
-28.885496 -9.569506 4.194911 
27.894073 -4.402625 -1.708409 
13.959922 17.882048 -7.925918 
-30.064903 2.041454 6.854366 
-6.705478 28.384693 8.261581 
19.074869 -0.119938 -5.388289 
-12.470441 20.579851 0.343219 
16.664326 14.230462 5.647401 
-18.081928 18.541893 -7.396272 
-24.070707 4.884424 6.991996 
-6.076682 22.943525 -5.901987 
-22.889067 13.525349 0.208589 
-16.831436 25.706249 5.095672 
-7.224074 29.379328 8.160483 
16.223366 7.313142 12.652319 
16.842852 6.832809 -1.843745 
-24.085955 19.449154 6.950339 
-8.761233 28.559366 -1.916722 
-27.268145 -12.633121 10.835279 
-5.989861 28.010721 -1.447891 
8.747241 18.029831 -6.754067 
-16.543190 16.488670 2.750419 
-5.845506 23.100105 -0.912971 
-9.919808 27.443237 5.872194 
-14.733375 15.827726 8.105861 
-17.931494 12.372831 5.249881 
11.480286 25.339344 -4.684595 
13.014875 26.992830 -8.093955 
-22.254122 20.772371 4.408738 
-20.823624 5.940245 5.934121 
1.779577 28.619249 1.614574 
32.221657 -9.081506 7.464022 
32.551525 -9.436298 12.369175 
17.924658 23.784170 2.443558 
-15.126010 17.110710 2.066778 
-8.398008 22.219370 0.710656 
-13.824965 27.870008 8.514209 
13.147485 28.846405 12.087542 
29.261515 0.335844 -3.731401 
25.110443 13.977938 7.856185 
-8.200432 29.559322 7.960567 
-21.125183 -14.950577 -4.406237 
28.918430 5.054980 6.507831 
-10.263433 20.121058 11.935111 
29.043003 0.497572 2.996849 
15.480682 23.758488 -1.089953 
-27.299784 -3.791833 2.022465 
-18.114357 6.768887 -6.651349 
31.398792 -12.923423 -5.987107 
32.646778 -4.909799 6.030580 
21.686131 0.601603 -5.665164 
-6.946883 26.593645 -11.894180 
-25.219360 -8.779757 10.566229 
-31.304743 -11.024498 10.104340 
31.351570 -7.818631 0.201012 
15.247614 19.905483 -4.921603 
23.637789 10.255087 5.298823 
-30.369452 1.123451 7.823354 
-20.329529 17.300894 6.422356 
-28.074207 -6.688345 1.340942 
-18.207321 -1.101639 2.686292 
14.137964 18.766527 1.501487 
-26.991344 -14.451657 8.486729 
-19.798244 16.299284 3.396359 
22.643679 7.496964 0.083319 
-4.386931 21.999245 -3.029063 
26.957039 -12.837104 9.663841 
13.551215 22.933426 9.707669 
29.924793 -0.855755 -8.218912 
-21.770481 19.515268 6.775522 
24.864162 8.973288 -6.434603 
1.521381 26.721670 -5.248653 
28.991261 -11.781097 9.154541 
-18.205805 11.501251 5.102794 
-11.778573 10.322865 -2.766738 
23.703079 -1.287769 9.059222 
31.496044 -4.677643 -1.438858 
24.808659 10.789377 1.409699 
16.319824 22.449583 -10.964268 
-0.511573 30.664494 -1.161556 
21.871820 13.286942 -0.921817 
-9.804807 20.862675 -2.409155 
26.600092 -7.750868 11.163004 
-8.369650 29.595409 5.577345 
-18.982893 13.836367 -4.872181 
16.444670 22.059807 9.478103 
12.112058 30.946320 3.667152 
21.314651 18.567125 0.775994 
21.890621 -7.765744 3.314633 
23.482702 -7.041202 -2.906062 
-15.421068 5.230804 -5.150611 
15.422139 29.624395 3.296613 
-25.769499 17.099165 7.756684 
20.299217 7.239690 -3.205275 
8.644491 30.261787 7.697224 
-20.387125 0.892585 0.674280 
17.067839 22.781834 -7.879880 
-28.385576 -10.673186 5.487673 
-12.292197 23.389973 -6.631015 
19.964733 -9.709212 0.119525 
22.035681 14.872713 3.995417 
21.340832 21.548025 6.942195 
-9.101398 17.114918 -5.288810 
6.354856 26.979879 7.846501 
-11.996247 8.260725 -3.820411 
-12.846211 17.115702 -2.896400 
14.728441 25.968767 -4.372569 
32.119434 -5.053731 -4.835761 
-28.985605 7.311183 5.975732 
12.535154 28.495935 1.386656 
15.656657 7.654224 -1.148802 
27.736160 -6.738613 5.863314 
-26.942301 -1.719092 -4.584906 
-25.930401 14.213317 -0.604601 
33.042137 -5.647130 10.281328 
5.387875 22.689306 -1.426122 
-25.023382 4.080195 -8.401092 
-17.448648 11.547784 1.237929 
15.277124 23.450350 -11.379070 
17.908112 17.714025 1.210983 
-4.831403 29.284389 7.769248 
-4.743070 23.864777 -3.894288 
-17.021280 17.887630 -12.257943 
-7.552024 31.279963 2.940949 
0.064431 19.905460 -12.408881 
-4.995311 22.946386 -1.845188 
15.050666 16.474735 1.667206 
19.468269 -3.849601 -0.469715 
22.064678 -4.268523 1.895669 
-15.137494 16.928974 -2.286364 
-8.721744 31.025915 5.840058 
-19.475609 8.447829 2.807317 
-19.079527 -12.873208 -5.105428 
17.887094 9.726840 0.369817 
-31.926691 -4.523792 10.891856 
-15.715023 17.546968 5.414899 
3.837873 24.758743 1.887300 
-9.632756 29.493618 0.936025 
13.867846 16.266432 7.584403 
-0.348587 32.433430 5.728961 
2.230178 28.786228 -4.292478 
24.459064 -5.854074 1.680764 
-10.959433 29.540377 3.576145 
-0.759768 31.948931 6.223125 
-9.545584 25.862349 3.958800 
-25.477552 5.449445 2.487951 
17.518421 -3.808333 -5.002442 
-28.034401 7.814457 8.170942 
-16.426821 27.407804 5.301005 
5.107147 24.924004 -2.668375 
-20.059879 2.336820 -6.777726 
14.305488 16.773129 -8.078489 
19.306267 -1.552777 -5.010851 
-19.599195 -5.987220 5.223593 
31.585318 -9.718742 7.609125 
-26.383295 13.009216 0.928508 
-21.750086 5.147232 5.222757 
-14.136910 23.946836 1.659564 
2.716815 20.730490 -5.314555 
-10.595757 11.218528 -6.613734 
28.203289 3.583707 1.909145 
-3.091704 27.211340 -4.135413 
-20.873497 3.768307 3.014216 
-18.121351 19.077305 4.863329 
23.137211 4.441298 2.813084 
4.761284 31.314638 5.250887 
22.107550 7.728169 3.968796 
10.153204 28.411709 -3.436058 
10.162493 30.809326 -0.423482 
-18.019798 14.601687 6.481655 
-19.215816 3.462595 -0.191946 
23.100229 10.381188 8.031641 
-26.376564 13.884979 0.561743 
-22.068548 6.710337 5.404610 
-16.868252 -7.214173 -3.439684 
9.903400 18.921732 -2.994946 
-12.832956 19.001781 8.205436 
-9.967155 19.966656 -2.889688 
6.043668 21.188747 -5.177266 
-5.893429 25.045044 6.976676 
-24.448931 12.781998 4.797696 
20.296530 8.693974 -2.354435 
23.946257 1.853934 3.205657 
-25.505571 3.634947 -7.314771 
-29.096910 -3.328244 -8.522323 
26.191355 -1.393220 2.607727 
-18.100807 5.927178 -6.423542 
32.883987 -4.066352 10.266015 
-19.225067 2.980445 7.363745 
17.162224 14.780725 0.707664 
1.947557 27.486940 -0.202326 
-23.221298 -14.265517 0.415930 
-8.985257 30.533985 9.690065 
8.080023 26.045073 3.520868 
-21.343328 2.469310 -6.670673 
5.326781 27.773336 3.545074 
23.648977 12.289406 7.900347 
11.814957 24.309446 -2.961690 
-17.383133 9.034636 9.192422 
25.661825 -7.852098 2.678602 
22.767025 19.073278 6.625295 
-21.737528 8.050076 -4.140645 
-22.134743 18.271717 0.375659 
11.740700 28.891396 1.935909 
-19.120600 16.581570 -5.323901 
-15.425642 17.003492 -5.401366 
-16.887690 24.589914 4.142456 
13.498248 21.525892 6.983710 
12.871674 30.029356 8.562766 
18.197029 -0.279085 10.700017 
13.729988 14.879283 -0.621149 
28.604584 -0.793185 5.188658 
-32.176311 -6.058621 10.306954 
-2.390481 30.824001 2.522359 
-9.622229 13.089592 -9.569605 
-7.400336 30.877075 10.011499 
-1.120490 31.034624 4.550746 
32.226875 -7.919950 5.129475 
-7.959820 24.912527 5.906403 
-4.722213 27.860327 1.132255 
16.850199 13.877337 -6.458714 
22.228519 11.502172 8.324802 
-1.380400 26.467442 2.393028 
11.818359 21.873392 -3.282087 
3.291784 24.339869 7.602999 
14.949380 23.234760 -5.604805 
-23.819916 6.091704 -6.162468 
21.174232 -7.243755 6.505829 
11.773099 29.259655 1.114331 
17.282219 3.430624 -3.053512 
-18.454418 -4.882644 2.984334 
22.569220 2.656643 2.519533 
-14.346601 20.824816 6.258933 
-28.175976 -15.180014 -2.231277 
-2.206992 27.380665 -4.674982 
15.579114 17.912245 1.922464 
27.363653 -0.685659 -3.478983 
-19.415791 -10.067373 1.911639 
-18.722555 8.426659 -6.485576 
-14.176509 22.576302 -6.857353 
-29.167431 -3.081186 -7.144032 
-3.038270 31.959530 3.772013 
13.997308 9.499399 -2.610805 
12.497166 12.771978 -4.056164 
27.212284 9.409648 11.333128 
-11.378967 20.262686 -3.059302 
14.641274 6.773841 -8.398111 
12.512732 25.133747 -13.207998 
-15.041066 0.278194 -3.786936 
-20.549490 24.101080 9.385216 
-13.321207 24.148603 -6.558516 
22.970449 12.867807 -7.340823 
22.055210 -5.235828 5.433080 
4.740647 31.702816 2.878718 
18.145767 8.791138 7.695297 
12.681790 18.466612 -1.527562 
13.880013 15.112811 4.346088 
7.720864 31.769131 3.085278 
7.693677 30.086784 9.212593 
18.589273 13.011136 -4.164090 
-18.638266 -6.276932 -0.008682 
-28.848831 -12.736538 5.117938 
-17.854927 0.393666 11.268696 
-21.492250 -4.394722 -6.187384 
-10.469914 11.517179 -11.005756 
-28.129383 -1.669046 2.273802 
-23.284441 6.939156 -5.550986 
5.962670 29.121260 5.017858 
-1.072321 32.668846 5.969635 
-18.972321 -0.865558 -0.518464 
-27.105028 1.519751 -5.120808 
-15.392532 -0.184533 -8.923077 
24.776115 -11.622131 12.077506 
-15.951892 11.481200 -3.417261 
8.982992 27.317757 4.197531 
-29.528368 -8.235227 0.548380 
13.072389 28.466721 3.844112 
23.687874 7.122422 1.723282 
28.600153 1.058856 7.167711 
-3.981046 27.157858 4.471451 
-20.848392 23.062508 3.074235 
-12.449485 12.181023 -3.733502 
10.711230 19.508217 -2.068351 
13.931731 17.850031 7.198949 
-20.687943 6.002863 3.431067 
16.768517 12.132836 3.182130 
29.056707 -11.036873 7.970074 
-19.815405 -10.065295 0.707673 
17.354010 1.651877 5.559004 
12.401643 16.526014 -4.356878 
-27.765671 -5.937038 -0.744691 
4.522641 27.549372 -2.080512 
20.470583 22.101442 6.000638 
-21.409918 -6.399311 -2.937018 
-28.592442 5.127022 2.945529 
-27.313171 -14.500457 12.503054 
12.210812 30.998083 2.558614 
15.351033 20.394945 5.057379 
-22.480188 -4.155452 1.975163 
5.642231 27.345446 1.939516 
19.554935 -11.368528 -6.424102 
-21.942621 -6.444687 7.967964 
16.957243 27.161961 0.315439 
24.755129 -1.155823 -4.614580 
-23.184341 -2.063803 -6.507557 
-18.484373 -5.246662 -4.380733 
-20.675249 6.093622 -1.481262 
-31.917459 -10.890437 6.262256 
-13.500900 24.963558 -7.656982 
28.791492 -8.553766 11.343716 
16.070646 28.045189 8.269554 
-11.867905 24.591145 -11.466183 
26.254927 -8.947958 4.068592 
6.025595 31.981039 6.835976 
20.049679 12.378114 -5.683599 
7.310206 18.781622 -9.733712 
11.982270 23.740482 9.229742 
17.480543 1.135020 6.209515 
25.792656 6.972521 -8.254162 
-23.732195 9.425529 1.352138 
0.568594 23.621122 10.020575 
13.516896 20.111616 5.077150 
17.142311 -0.860841 -2.972345 
25.547209 -5.463661 10.638456 
-24.437994 -13.664136 1.432095 
22.330711 -9.402250 11.034975 
19.658407 -1.438011 -0.600208 
-20.704443 -11.168900 -2.049782 
16.320347 11.524850 2.791577 
-13.973887 16.022999 2.553381 
17.883474 -3.120480 -7.958019 
10.656399 18.779572 -2.435328 
-5.147663 22.699148 11.952293 
-22.889002 13.405431 8.507576 
-12.866940 25.398720 -7.077287 
-12.045839 25.122765 -9.805147 
22.503633 -4.331610 -0.385044 
-29.519461 -3.971649 -5.647162 
19.208448 19.419739 -9.227803 
18.501284 26.090565 9.885397 
16.061605 9.710109 -5.337789 
4.147730 25.823164 -5.054971 
19.708792 19.038361 -8.369585 
-1.957433 19.360199 -12.334816 
-20.867207 6.244705 7.189125 
-13.413063 24.285400 4.945649 
12.776270 29.965981 9.372218 
6.423085 28.953033 -7.274328 
-26.511099 -9.675170 5.385272 
30.723841 1.780685 13.009429 
-26.531837 14.681970 2.472040 
14.611332 29.271523 2.177836 
-27.925730 1.029956 7.463562 
31.919519 -0.985947 12.120882 
6.174544 24.115829 -4.923697 
9.126067 16.814043 -11.725800 
12.636207 29.817205 10.231951 
-23.086653 -2.679789 2.318359 
-2.430245 31.485487 10.533537 
7.296259 27.619764 8.745386 
2.382902 26.263683 4.812874 
17.643242 -1.009709 1.824475 
-9.480454 29.227854 7.525456 
-28.713795 -10.032860 5.152058 
13.743652 8.918382 -8.628926 
-23.448952 4.685939 5.466451 
-19.001112 20.730825 8.314139 
9.664297 16.671766 -8.111497 
-26.713020 -0.213421 4.953542 
6.739705 31.088718 2.689534 
-0.336150 27.139524 -3.918190 
5.868867 28.279573 -2.686129 
17.449200 15.628195 -3.121405 
20.313257 9.099494 5.360912 
-17.389759 20.226786 -5.211493 
-5.275277 28.239555 -6.707512 
14.442543 10.706741 -1.095729 
-24.383904 0.135253 -6.213282 
16.623234 23.550524 -7.130110 
-19.168737 -2.841293 1.953529 
3.939514 26.374172 4.248325 
-17.472532 16.130299 2.297047 
19.257778 -9.070293 -0.880379 
-17.817972 10.055836 6.940932 
-7.879540 15.862541 -10.208675 
-5.398260 19.329956 -6.054095 
-12.706233 14.840163 2.179164 
1.318067 26.997498 1.509550 
-28.229765 -3.226512 -2.883696 
-17.820648 16.406832 -11.996651 
-16.630592 -6.830634 -7.720224 
-25.445341 -12.383590 2.808163 
26.584501 -3.785446 10.363837 
-24.326103 14.862579 6.159693 
-22.419493 5.900135 5.174966 
-21.479319 -7.140365 8.126814 
-22.231586 -2.040011 -6.750995 
14.867485 5.982059 -6.795866 
-27.797596 0.821341 1.354416 
9.991597 31.212978 8.728797 
15.255948 19.878849 -2.071790 
-31.300627 -5.290091 6.062761 
30.914915 -2.618232 9.950957 
-9.921531 26.008490 3.210476 
13.413551 27.679914 6.905149 
-19.526901 -5.086583 1.081052 
9.566561 31.760416 2.557414 
32.305271 -4.668618 5.014277 
32.651493 -6.787789 -1.976822 
-21.040518 9.593368 2.368444 
-5.696572 25.797615 -4.490910 
-25.406956 -0.303289 1.522530 
-26.848112 5.349597 4.687967 
-31.091251 -0.559141 12.109771 
27.087660 -10.150265 2.820925 
-19.144911 9.664162 -2.841294 
13.754846 17.783131 0.802421 
19.194355 14.923457 -5.242311 
25.284897 7.728261 -4.813303 
-23.786983 13.979902 8.402924 
10.929193 23.404629 2.257827 
-12.549626 8.340331 -0.415265 
15.832672 15.375055 -7.663858 
-30.800003 -10.929819 0.398138 
-15.949873 17.661631 1.897324 
16.933640 10.303728 7.232942 
-15.758581 13.151097 9.489304 
-17.410831 19.988117 -7.689296 
-18.662785 11.350746 -0.465429 
-10.209229 24.680002 -13.416144 
-12.912526 21.160942 2.739802 
8.240422 18.909779 -5.895292 
22.274851 14.092827 -8.131007 
17.404408 7.789820 -1.660510 
