-19.993021 12.684916 10.358760 
-0.253217 23.645512 -0.633746 
-16.109671 17.982533 11.761805 
14.961182 17.295208 -3.564058 
-8.304334 19.274057 -1.417888 
21.106838 11.014332 -0.025127 
17.549738 0.180839 4.243375 
17.068695 19.720078 12.905667 
-9.093330 24.016783 0.696573 
-2.490636 28.321678 10.769938 
-24.700663 -16.793253 -0.427731 
-27.431114 -17.249876 6.323781 
-5.664755 24.048552 2.919442 
13.239750 16.385855 1.347463 
-19.994581 16.448483 14.735066 
-23.074461 3.883448 4.391689 
26.314993 -14.328845 9.700933 
26.242313 -10.972952 -0.448758 
17.929602 15.158873 3.082400 
-10.870082 22.890072 -1.242875 
2.110247 25.242447 9.874190 
-12.504870 9.955779 -2.529094 
-24.152840 0.459547 3.981964 
-15.584988 10.078762 4.654450 
-20.727303 4.006616 10.987653 
2.502599 26.877262 6.539415 
-13.694457 17.866478 1.223766 
25.268278 -1.754637 1.482960 
14.948507 14.949010 2.032034 
-3.259299 24.853971 0.379138 
-7.538014 25.207850 -2.719372 
-3.374638 18.784796 -5.118304 
31.825785 -6.943183 -2.232785 
-25.258572 -5.186675 4.442930 
26.600424 4.136915 -5.717932 
-11.525145 25.627033 -3.430227 
19.206470 11.165504 11.690542 
5.071367 26.592653 5.577753 
-11.329497 18.803957 0.080755 
18.574059 12.448182 4.976448 
-0.044840 22.148834 10.579247 
18.773529 -5.275089 12.466176 
8.898226 25.835243 6.485697 
-0.955097 25.165424 -3.934579 
-11.589197 22.049700 7.498599 
20.438900 11.922291 3.947797 
21.570122 0.907532 -2.870396 
20.295164 -1.850219 -0.160436 
15.803354 21.686836 15.110852 
21.198582 1.654953 -3.049750 
28.267187 -6.143707 10.553791 
22.644140 12.795616 -5.259914 
-22.248289 -10.413085 4.496125 
-18.680429 11.128709 5.737904 
31.216820 -9.562140 -2.684340 
20.126003 12.710153 6.981150 
-13.934577 16.725161 9.517212 
24.505297 9.134365 11.287793 
-22.590656 4.669689 2.543540 
27.754656 3.371782 16.177979 
22.387266 7.344392 8.051148 
-20.783302 14.723416 15.467443 
4.817434 22.725893 -2.756788 
-24.212635 -1.072246 11.250381 
3.509046 28.089310 10.413643 
-22.933666 8.197033 -4.582121 
21.421713 2.627736 -3.118650 
-24.944790 5.550395 10.715837 
-18.767265 17.134018 -6.316903 
-25.316513 -3.140384 1.463820 
-16.580547 -5.140399 -2.912359 
16.532881 21.713339 7.753060 
1.704279 25.390854 1.939471 
19.381075 -5.867304 10.595037 
-20.973507 8.833117 7.369432 
0.592593 21.048164 10.818342 
17.144064 4.908345 6.573178 
17.779181 0.256591 7.407901 
-27.807844 -19.987906 2.865561 
-17.605083 21.278049 12.419758 
18.143394 22.136396 2.317967 
-24.755655 -24.161831 -2.470146 
-21.817644 -12.227530 3.874643 
-4.448985 27.053156 13.501987 
20.376722 -9.259874 9.799061 
-14.533500 23.659092 8.693810 
23.105444 11.991828 -5.105717 
19.826120 18.091326 8.824041 
-9.022503 17.542992 11.146614 
21.336290 12.903871 10.568000 
29.399689 -10.427821 12.298591 
29.270613 -0.773934 15.703749 
-18.674389 -14.110015 -3.280463 
-14.314062 20.314390 -0.806449 
-23.538883 -14.145509 4.950025 
9.797218 19.919310 9.522215 
-15.440934 21.037397 -7.461244 
18.609793 21.428724 2.608063 
18.105330 16.919321 9.547095 
-15.566788 -1.838727 -1.849908 
-20.694588 12.708969 -7.007690 
7.915397 21.568285 -3.710187 
-26.841522 -6.889949 1.250657 
-0.804820 21.612204 10.315006 
-16.551834 -0.835111 7.293781 
15.876805 19.196609 8.285849 
18.427023 9.039984 -2.662165 
-15.313680 13.126044 3.904978 
-18.510986 17.209728 16.856833 
18.105558 20.244219 5.089837 
-9.320202 25.680651 10.338370 
-20.330389 9.450701 -0.783888 
0.916779 24.687433 -1.727803 
-7.272352 26.282150 3.627680 
-18.744732 18.297726 -4.534937 
-0.714209 26.571924 14.844329 
-4.456925 28.083841 11.315677 
-17.344362 16.368464 6.686753 
16.278563 3.920996 -5.865221 
-19.992102 5.350601 2.306305 
19.281296 11.722491 9.080784 
21.098005 -9.799112 -4.907646 
14.819006 7.657549 -1.736308 
24.625782 2.277355 12.167868 
18.938879 19.913363 9.653820 
-28.009274 -14.608887 2.583825 
5.345178 24.599220 18.284821 
-13.162988 20.408009 -0.434427 
-12.246505 19.607063 -0.159995 
-22.671024 -0.782869 11.515907 
-0.844049 27.315790 13.964715 
-6.257036 27.428116 8.953282 
14.625624 8.786697 12.678956 
-22.049103 -21.119108 0.306999 
-15.376554 1.194301 2.966544 
-11.231495 20.027361 10.235736 
21.288857 0.183655 11.788023 
-14.685474 13.001592 0.657353 
31.676311 -5.865711 -1.631482 
16.607626 13.764230 0.953060 
6.963993 25.669937 1.054836 
-23.692654 -13.197022 4.960854 
20.118744 -8.303214 2.054009 
12.996542 23.007919 1.196943 
-7.609201 22.769203 14.464338 
-28.037214 -14.089788 11.328481 
-11.298165 20.730412 9.820006 
22.435795 19.403332 13.398046 
-14.138994 17.033346 4.984210 
16.843323 11.246883 9.257653 
-12.456034 21.002350 -3.440012 
13.274549 10.604102 -5.136361 
-19.971338 -1.716635 2.655835 
-22.792816 1.977997 7.910588 
11.029006 24.343138 -3.938354 
-19.469597 -6.434910 8.873752 
-26.283775 -7.348279 9.976867 
-21.478746 14.574107 8.646395 
4.856005 27.091980 13.888608 
20.259176 17.281973 -2.071388 
-17.770058 21.929972 10.445282 
15.253957 8.387707 6.941456 
-20.068779 15.000268 -2.024752 
-12.753016 7.827627 -5.278723 
-14.036731 20.293617 12.194544 
12.370257 21.952690 -0.920020 
-7.596826 25.853645 12.314847 
19.287090 19.317692 -4.840837 
23.084406 -12.868103 -0.134847 
-22.016380 -0.720114 8.943448 
-19.608963 9.656759 -3.357509 
-5.730810 23.105692 1.532542 
16.930399 20.596447 6.272000 
-21.577742 -9.511827 8.062330 
1.422992 24.228977 9.813721 
-20.106028 -4.321480 -3.546068 
3.841763 27.824799 4.881847 
-19.560844 -13.095205 -1.456107 
-26.404324 -1.838331 0.159122 
-29.301077 -9.476204 -4.586023 
9.413569 18.534397 -0.832390 
28.752338 -11.941620 9.636816 
-5.083643 18.711740 -3.564871 
-27.793926 -9.696935 5.101967 
19.853140 10.972749 9.312881 
-17.042358 14.121982 6.387211 
-3.976166 20.559055 -1.539781 
10.110419 26.631632 -3.482135 
26.689013 5.702936 -1.356451 
-26.911871 -8.415742 2.939687 
20.344551 -4.683878 3.901807 
-26.327423 -4.294936 7.665970 
28.037123 -10.487209 1.722562 
-21.778736 12.099524 16.159580 
24.602240 -6.468112 12.689424 
5.417687 27.839886 11.552059 
26.510956 5.510606 -3.990303 
20.790928 17.080633 17.703333 
-12.762321 14.460718 2.586050 
-21.500143 6.775009 3.609690 
18.311575 4.433012 9.904875 
16.361673 2.806496 3.844990 
-18.149151 10.793508 4.271869 
15.529861 20.307373 -0.846678 
-13.826056 21.236538 13.740698 
10.324450 19.711554 -1.949455 
15.084484 9.142358 1.631391 
-24.922380 -12.716032 6.212929 
4.450437 19.529104 -3.604188 
-21.884579 -21.838097 4.181027 
-18.237228 18.248898 2.570041 
-26.289688 -13.163948 11.939086 
-11.738358 25.663462 7.720690 
-14.987522 22.953053 -4.716132 
0.903653 19.970993 -4.388124 
-25.164406 2.818589 -0.041140 
-19.700710 2.144766 8.741375 
-14.521467 10.233089 11.533762 
1.226189 19.114666 -7.077342 
-24.208267 7.302715 9.493346 
18.596380 4.059542 4.670853 
-8.398852 19.251614 -2.363231 
26.344130 6.372845 11.197504 
-6.154415 25.799646 11.101028 
3.053766 28.008415 -2.426830 
-14.657971 15.090373 -4.468167 
-25.039375 3.841372 -1.632241 
20.328651 18.830914 15.567046 
-17.233238 6.879616 7.408507 
-0.809980 17.468452 17.276873 
13.797863 17.481464 -3.425197 
-1.183381 27.345644 5.078555 
2.386149 24.230247 8.949027 
16.080351 9.087956 -0.451789 
19.701250 17.570076 -6.689528 
18.164001 12.566423 8.347260 
6.214695 26.066093 -7.446484 
-18.976717 9.272595 9.792945 
-16.636461 16.239271 -0.721987 
21.756729 5.103570 5.689681 
24.837454 9.615943 15.575279 
-28.870384 -8.317882 12.665851 
19.460161 -6.533696 3.167468 
20.147501 -4.423554 2.919649 
-19.632427 0.708119 -4.191099 
12.851130 19.555828 2.952379 
-15.951147 9.405553 8.427216 
-18.572624 10.069162 -3.421371 
9.331511 19.802492 0.566957 
17.581699 11.586432 5.830715 
-30.472929 -14.434144 -0.648386 
14.516139 14.540811 11.705623 
9.615526 15.232757 -6.696704 
21.255693 -3.775992 3.859587 
-20.932550 -5.708803 3.186056 
-25.043329 1.720615 8.081497 
-21.167816 13.026545 4.194120 
9.307140 26.936922 -2.248483 
-15.294294 20.861490 14.864373 
5.478656 27.637699 4.859711 
18.648670 19.249981 4.270842 
18.104418 5.494793 5.686018 
-16.445831 -4.023903 2.213796 
-18.464647 -3.141964 3.823210 
4.938332 22.722057 14.735669 
-25.065920 -8.953121 11.161157 
-12.571834 15.818477 -0.270149 
22.041973 -1.894181 4.228476 
5.888418 22.992901 0.614380 
-25.143869 -0.312265 5.123452 
-0.780503 24.234732 11.364214 
20.986097 -7.478895 8.104537 
26.327902 4.081713 2.905578 
-16.975910 6.226966 -3.018642 
-5.087028 25.422235 17.213255 
21.812824 14.305272 -5.381135 
-23.024935 -22.856569 2.621420 
-18.641317 2.903747 5.954579 
-10.567759 24.362148 13.585361 
-19.877493 1.591592 3.827732 
-22.850464 8.115485 -5.606974 
-17.989222 12.866612 1.462791 
-12.990388 19.453770 4.250949 
6.566646 22.754107 14.955107 
-0.894575 28.987402 6.925067 
-20.015141 5.775957 0.300613 
16.687090 21.304041 -3.371357 
24.315571 -11.924602 1.975183 
-19.449274 -0.538547 11.276084 
25.448866 6.969414 -5.918067 
29.271814 -5.278028 6.321593 
-9.247203 26.007662 0.611780 
-24.361507 -1.953230 -2.766744 
-19.852793 -5.083910 0.816247 
0.289950 23.031910 0.084965 
-25.283474 -15.726199 1.739933 
7.395627 22.172436 -3.623848 
2.958367 26.670776 15.661054 
-6.572216 18.369967 -2.458737 
-15.872666 -2.603114 11.567026 
-23.968588 6.725954 15.453740 
22.874569 15.937082 14.084103 
17.607019 9.326931 5.272024 
20.213524 12.545774 7.805252 
-16.384680 23.034920 8.254477 
-0.791125 27.979031 -2.488870 
27.941462 3.549304 15.220748 
-17.595955 17.882048 11.706728 
-17.889395 -1.103319 -0.975060 
13.031093 20.282915 3.316128 
-3.061438 25.834599 5.502881 
15.284212 19.860409 6.833897 
28.354050 0.726567 7.820234 
-13.608679 20.523394 5.782592 
15.928403 2.739509 2.291657 
12.182952 24.041962 3.141668 
-17.701031 18.856379 2.267002 
26.372370 5.150246 0.896785 
-21.846596 10.990139 -2.119009 
-21.990866 -14.713029 11.172454 
-19.446936 -13.055273 3.002207 
-16.498266 3.034476 7.997861 
-13.482297 17.409693 -1.571849 
-15.466033 22.911287 6.113757 
16.467228 21.223173 6.424373 
-16.632042 -4.710048 7.531148 
26.015331 4.461399 11.559471 
21.433290 8.186766 -1.370476 
24.998196 -10.489975 -1.065960 
-24.948792 -14.853089 4.494149 
-15.955100 -2.110650 7.932753 
12.605391 13.744939 -1.337429 
-15.738890 19.345079 0.731065 
-1.272772 17.774456 16.103685 
-15.875031 -1.786156 -0.477463 
-2.297389 27.040113 14.557699 
-20.883837 -6.243025 1.449415 
-15.599707 22.582439 12.578441 
12.061675 24.455633 8.578161 
-24.805376 -7.159841 7.553442 
-17.757463 2.466561 9.144662 
-18.061012 19.047937 0.521737 
-19.945389 12.874948 12.417058 
-25.615950 -10.822917 -2.267746 
-9.115100 21.360378 11.473676 
2.477216 18.956429 -7.047633 
13.578361 17.845552 3.854893 
30.851032 -9.859811 11.936914 
27.858376 3.817642 9.583729 
-19.769411 -11.188412 -2.577220 
5.288281 23.210962 11.865195 
26.666430 -9.041102 2.671921 
-6.418010 24.390175 4.904993 
17.895279 21.915020 3.056988 
13.927607 9.329283 -3.132497 
-23.293932 -7.403337 7.070688 
21.938629 8.795207 5.228642 
31.312426 -5.808345 0.067813 
-25.462015 -13.294847 -1.992585 
-20.063221 16.658869 13.845903 
-24.895353 3.400982 9.028140 
-27.258322 -6.678887 8.664313 
19.532465 -8.898431 12.542939 
-9.703860 12.920356 16.524990 
12.859278 16.228779 0.604911 
-18.106321 -5.792019 4.566311 
19.541224 8.126121 4.852953 
28.480944 2.684151 14.153706 
17.422752 6.582901 -0.362407 
-16.604334 18.077192 14.404725 
18.865599 2.204371 -0.507542 
18.204527 -1.627338 2.246622 
24.010380 8.502095 1.225422 
-26.105682 -0.194958 -6.262351 
-4.819234 25.714838 6.950177 
29.771805 -10.232197 1.937113 
-2.530592 26.426756 6.332909 
-9.586753 23.929888 5.376682 
12.359852 16.562052 0.089406 
-19.387611 -10.721222 9.459735 
-7.724478 24.463299 -1.815131 
2.060214 27.919268 -2.922744 
-1.595741 27.669746 4.115990 
-17.624443 -10.868037 2.015196 
-10.797215 25.204472 -6.401722 
-17.399097 -7.968292 -2.473800 
-2.988182 23.559513 11.686249 
-29.336777 -12.704101 10.169256 
-18.330900 5.822451 0.910811 
0.637351 22.504896 12.423018 
-2.058545 25.857880 14.030675 
-21.823931 -3.637118 5.138314 
29.253216 -2.678782 1.784820 
-22.017338 8.941866 8.698082 
23.600309 -12.209325 1.794992 
-25.178295 2.804760 -5.324191 
12.354321 25.649216 -2.556589 
-6.245335 18.725447 11.485970 
-22.543179 -5.767406 2.466734 
-15.271319 5.514973 -0.037764 
10.510303 15.832629 -3.153725 
-0.986808 18.949715 -7.101290 
23.449951 17.301039 11.747618 
-25.223595 -10.821541 5.796109 
-4.675462 29.001820 7.665417 
-5.998192 21.429766 -0.049022 
-5.213122 28.782541 5.703636 
-30.350376 -12.759111 -3.739539 
-14.669917 17.884933 7.959422 
-28.645996 -7.228639 -3.433736 
-21.029083 -20.701580 2.388759 
-21.657074 8.403711 -1.501972 
-24.294157 -1.602604 5.126547 
22.740440 18.234495 14.472375 
-27.951780 -10.315480 5.786519 
-4.509723 25.308468 -0.411632 
-25.719965 0.814423 -6.321240 
20.847754 -10.012479 10.683897 
13.909339 9.282894 -4.048929 
30.986431 -10.768256 -4.690915 
-13.566219 10.518748 6.362379 
2.809108 27.457655 0.625420 
22.450722 -4.237026 6.775402 
-3.333042 28.443659 10.207186 
31.823792 -5.923607 -2.639976 
-29.869951 -11.113158 -4.176886 
-6.760093 24.432711 -1.083230 
14.060468 21.678404 3.889343 
9.261781 15.838369 13.863572 
-16.825291 6.631131 10.632367 
-17.208374 -7.024515 -2.501640 
-27.502487 -11.522307 11.563560 
8.488428 24.689707 -3.751271 
-16.933817 -6.101255 -2.586838 
-24.160583 -1.609488 4.288984 
-8.921381 22.930902 -1.936149 
-17.978830 20.936867 11.596570 
6.009733 25.316586 14.192714 
-19.498768 16.378626 -1.238842 
3.766173 25.480547 17.515430 
-12.679342 24.071285 10.417180 
17.236780 5.177059 10.890423 
-24.620268 1.930394 9.458626 
-19.617807 14.826994 -7.127083 
21.576597 17.596996 6.690763 
22.157574 16.445503 16.234291 
-20.529562 -3.058298 11.714021 
24.346149 -11.741142 12.098246 
16.833847 16.041681 9.767653 
-16.474390 11.798056 9.552516 
5.032649 27.682140 12.383846 
20.949469 16.998962 7.327254 
10.829833 26.823587 6.897188 
16.257971 7.676266 11.688937 
20.742855 6.502165 5.630260 
-10.187480 14.603928 -1.951535 
-18.126032 -11.533857 11.505132 
-19.453978 17.473623 11.251807 
-13.992577 18.302046 4.889024 
-25.860958 -15.868040 4.961474 
18.590078 18.897141 9.272838 
27.197134 -4.022518 5.316832 
-24.039181 -7.082327 6.623934 
-15.570843 23.467546 7.662790 
-20.856743 -10.491364 10.562105 
-10.671863 18.467333 9.748765 
-17.854593 -7.353255 8.651542 
19.005907 20.685936 -1.928386 
-18.116398 15.056071 -3.665957 
9.433544 24.121973 17.321352 
24.711555 -5.464567 -1.818175 
7.195896 21.815817 10.572806 
-25.326353 -13.734522 9.253088 
-21.731747 -17.464949 8.117463 
-7.718829 20.651184 0.690797 
-20.808781 4.892907 3.453325 
-14.343605 22.565540 13.502031 
-21.462952 11.641101 4.742650 
29.003489 0.367366 11.369371 
19.461517 19.372206 13.626705 
-17.542032 16.337589 8.415624 
28.662100 -9.098460 11.231340 
-11.856284 20.522577 10.351561 
-11.680067 25.362152 -0.400677 
-15.762689 -3.112489 10.024266 
11.187832 16.204767 11.600427 
9.473386 26.195795 5.856809 
-20.155870 -10.414776 10.026285 
7.647902 26.599464 0.974692 
-16.111481 17.255657 13.981601 
28.223083 4.047188 11.654827 
12.208946 20.506100 1.044411 
23.381203 16.646353 10.633512 
-15.418945 22.220686 -5.299516 
24.328772 -7.374821 12.809060 
19.077013 -2.464717 9.475795 
-11.608078 20.285942 11.145715 
-6.972563 20.555202 9.944332 
-21.468275 -15.106267 -1.707652 
-24.007933 5.209278 8.297465 
23.399395 17.649481 10.876290 
-16.256519 -4.075554 -4.031705 
-5.237141 28.525805 9.227859 
11.105508 21.006207 3.422917 
-16.852127 -2.243365 5.062368 
10.770937 20.204678 -2.369160 
9.917107 23.924225 6.416888 
-20.565554 -16.827881 8.937948 
19.020924 -4.262624 -2.977648 
25.559450 -11.550844 9.765839 
0.922908 20.425789 -3.278720 
-16.838428 -5.031863 -5.806590 
-20.249056 -11.278772 5.836279 
27.940226 -6.240704 6.264703 
-6.269669 16.337528 -7.015795 
-7.245591 26.217197 8.972613 
-6.061574 24.967150 11.146239 
-13.815767 18.825478 10.974774 
-21.218311 4.536807 0.646167 
14.504498 23.979959 -4.723054 
13.076522 21.253765 14.402311 
24.994425 -12.821198 8.801755 
24.301762 -1.373617 3.686848 
-7.671967 26.527868 -0.440200 
-28.287642 -6.180599 -3.340071 
17.625101 18.512344 15.178370 
22.980717 1.119961 -2.604361 
13.860563 19.008261 13.762966 
-20.347273 13.419329 -7.047949 
5.240142 26.407419 -1.167729 
-22.005648 -7.217293 -1.922601 
-2.522467 25.328041 3.925731 
-15.135417 23.005579 -3.934338 
29.890347 -3.404682 11.439013 
-6.229927 26.257189 13.686607 
-29.994743 -12.024839 -1.373443 
30.317495 -9.562332 7.564624 
22.772789 8.147758 7.144670 
-20.591141 -7.333808 8.388676 
15.163592 23.653975 -3.607882 
2.921500 24.997505 18.280397 
20.180531 9.278218 5.533378 
7.466316 27.553749 9.612299 
-27.678257 -24.175383 -4.744759 
-15.940238 17.175339 -0.413417 
17.451796 11.839884 9.130306 
-24.792980 5.281534 14.109086 
-20.668907 6.568442 3.612861 
14.898739 9.936037 12.396412 
9.634357 23.757689 12.779841 
-18.107235 19.419601 -2.098545 
18.707371 7.750356 4.771719 
24.143124 -12.501185 -4.686330 
28.015955 3.324439 10.243440 
2.784494 27.536833 6.099771 
-13.080537 19.250904 -2.227765 
-2.604119 29.115870 5.781459 
27.696087 -7.620642 -0.896568 
-15.601084 5.461545 7.184059 
11.659059 18.785868 0.959376 
22.629047 5.373383 -2.664917 
-25.522800 -22.443972 4.193713 
-21.250698 -17.064840 11.747006 
-27.896187 -9.121780 1.909232 
-27.122105 -3.307566 9.115195 
10.832805 23.905796 6.416275 
16.777603 8.311934 1.002270 
-15.181571 1.205595 -2.218699 
-5.580642 28.619410 8.272523 
-24.342905 -23.292118 2.114929 
-23.773104 0.674662 -0.509553 
-1.627013 27.392797 14.050972 
-1.290236 22.790718 0.207191 
-11.435100 18.108910 0.534687 
17.403868 0.569034 -0.595830 
-0.579288 24.752855 15.173283 
-8.604686 18.647949 -0.896890 
-24.634121 -17.780779 4.730394 
-13.179335 11.058068 7.090696 
29.982100 -6.856158 12.596816 
1.777199 25.749590 5.832393 
-20.201200 9.785577 3.470788 
-26.749243 -6.962158 8.099890 
-21.305662 1.778213 -0.640278 
-1.531708 24.556976 -3.677111 
1.711082 17.963648 15.711116 
16.362652 15.602494 2.606659 
22.004021 13.675037 -2.325921 
24.562613 -2.238862 5.614463 
-16.439356 22.411863 5.231211 
-22.416489 0.405019 11.211332 
-18.436008 19.866581 10.828746 
-12.648225 17.630516 8.225217 
-3.426844 24.723389 -1.560463 
-14.873461 8.791235 10.285699 
30.847431 -9.061849 0.049680 
21.075974 -2.569870 10.794881 
-27.070210 -11.721721 9.642865 
15.809188 12.241816 5.364789 
-16.089268 19.723324 17.217665 
28.755871 -1.392252 -1.302157 
-3.031625 20.593132 -1.940385 
-4.804314 27.606951 -2.582292 
29.684046 -2.449527 11.802017 
-24.669373 -6.319124 3.315080 
-4.886497 28.809006 8.577968 
-29.769178 -11.197781 -5.611980 
21.927118 2.766848 4.807168 
-17.057951 13.008773 -1.439349 
-24.219793 -0.151972 4.542196 
-21.842279 12.455923 6.903133 
-9.058545 18.215218 -1.388540 
20.764402 12.423955 3.216095 
-13.810727 24.477793 -2.636840 
-21.448135 -20.049938 0.841692 
7.042585 25.156128 5.102964 
-7.071391 23.509855 0.085663 
-25.645086 -15.053512 2.860872 
27.507280 -8.695988 13.202761 
17.727051 19.726282 -3.565940 
-5.219917 27.351357 1.924343 
-25.676662 -8.284605 10.732478 
17.677711 15.868979 9.649150 
-17.551182 -9.086802 -3.533865 
-17.876137 -10.903999 -0.955782 
-18.708158 8.980984 8.172859 
-22.470673 4.757123 8.549437 
-8.090998 26.224680 5.678832 
20.469755 8.868160 4.023340 
-15.015617 17.362600 10.546382 
18.210924 14.408067 -2.564433 
-18.004313 9.110554 11.424596 
26.659988 -10.448900 7.464424 
-13.541275 24.721004 0.183536 
-22.411226 -7.242109 5.163916 
26.486708 -2.029680 9.968175 
29.455051 -0.535505 13.553464 
4.568368 27.115812 5.322044 
-22.306164 2.353609 5.082342 
-18.452444 -9.130280 0.258356 
10.093809 24.986540 13.325775 
-3.580717 29.033495 5.524209 
8.791463 16.352949 -5.374102 
26.691755 2.513182 5.187870 
22.965528 3.137749 -2.807934 
30.140366 -9.833010 11.358248 
22.968761 9.103081 7.148020 
-14.429218 14.228198 -4.346950 
18.595531 -4.358923 11.758425 
22.434826 -11.239815 -4.794121 
-11.846363 18.765326 8.938156 
9.701695 24.760088 15.564952 
21.592600 4.251152 5.624051 
-22.621689 1.665107 10.662951 
-7.023195 17.262936 12.868265 
-20.918608 -8.343790 8.102788 
19.911072 -2.005513 3.112009 
-21.406696 -4.427526 -3.286438 
-19.255518 2.065324 6.422101 
-19.924568 -8.182396 9.052244 
-12.500941 20.074867 7.923460 
12.148461 23.862883 -2.731331 
14.909455 21.542154 5.567338 
27.087278 1.488732 11.649841 
25.279125 -14.493557 13.936714 
16.893698 10.717209 -3.475361 
22.630005 -0.425256 9.324385 
24.339439 -4.661833 5.854185 
-22.158785 -8.537845 5.878171 
-7.341890 22.819883 8.093925 
16.395304 3.098548 11.836604 
-19.849520 10.397906 -0.470690 
19.115955 -6.032992 11.423697 
3.008149 22.576389 -0.498684 
-22.631483 -18.303051 2.232996 
-26.699369 0.122333 10.804074 
26.818209 -7.859723 -1.308722 
22.235783 3.428350 -2.989066 
15.843572 4.379114 0.984572 
8.952902 21.832138 10.113822 
-18.800859 17.934072 2.104940 
25.037935 -1.549926 11.512193 
22.485001 7.683504 0.446812 
21.845613 17.600428 16.114521 
-20.835197 -12.483261 3.089561 
25.897995 3.365032 5.468968 
25.230026 -2.375707 -0.300500 
20.444258 -7.158292 -0.153490 
27.516609 -3.883078 -0.398911 
-11.739055 23.987137 -1.619801 
23.213999 -5.538102 -1.903635 
13.863069 17.837898 10.820793 
19.447361 19.024111 -0.406227 
23.242117 -3.765162 4.743608 
-6.572408 21.210871 13.317184 
-16.827501 11.324827 4.215994 
23.103037 6.423185 9.983935 
20.509436 -2.114597 4.530203 
2.860602 27.817039 12.338367 
-28.847532 -13.768493 7.472090 
-14.204831 22.235487 -7.518991 
3.765731 26.475136 15.957687 
-28.441538 -16.187866 4.077271 
-0.380824 24.643978 8.805717 
-25.195671 -15.181680 -1.313908 
-21.954903 4.994935 0.571180 
-16.056789 3.710136 9.823611 
-27.227797 -15.969770 0.780682 
-23.910995 7.586407 8.610690 
-16.170038 6.724149 -2.384346 
-19.694658 6.246182 -2.969692 
5.515125 23.445393 15.184731 
-16.734838 7.244593 8.876046 
28.677362 -3.772296 0.445457 
5.963906 16.296621 17.282049 
18.009148 4.429925 7.570682 
10.117292 18.729486 -0.097141 
24.858276 -7.388462 5.111443 
22.560160 8.808541 0.271915 
-0.337109 25.230404 18.237411 
18.108988 19.782057 17.124075 
17.986612 -2.582780 12.295985 
-22.925791 -10.075175 8.441640 
-9.071403 24.708696 5.837258 
-17.890312 11.760048 2.979271 
5.465881 24.809423 -3.470695 
0.547974 28.681973 9.890421 
24.210907 -0.958623 11.802984 
16.650921 18.785049 11.731831 
17.767998 14.156649 0.780034 
23.038248 6.040108 -2.379738 
16.574398 21.680529 5.638571 
-19.242083 6.162180 0.928178 
18.172571 10.107400 5.418541 
-28.261114 -9.672831 10.759048 
-17.320181 10.104962 5.332406 
10.842030 24.855761 8.304071 
-17.661034 13.141788 12.586475 
-16.266878 7.459450 4.061964 
-23.891634 5.711438 -2.966601 
-19.547630 3.639497 10.862050 
16.543280 2.145979 -3.992775 
-16.044046 -2.091399 13.332212 
6.192495 19.435301 -2.131021 
8.822974 21.716381 11.456155 
-16.711102 19.437235 0.897943 
24.514496 0.555771 9.540545 
-1.182211 26.811321 15.960539 
0.449417 25.448746 14.531939 
-8.432684 20.332790 13.642342 
15.052287 9.490907 0.913059 
8.525134 23.844088 18.262150 
-8.696484 20.492140 1.223602 
18.140219 10.608702 12.100735 
-8.787169 18.578514 -2.257832 
-2.662223 24.207657 0.572458 
-20.068205 -8.673455 0.427050 
3.576366 19.797415 11.568797 
-17.190714 18.619974 12.790975 
-17.021482 4.642423 4.290970 
-29.509735 -21.937010 2.738758 
-7.469533 25.649689 14.768171 
-13.871501 13.020043 -1.002693 
16.963112 1.186289 13.059324 
-27.158072 -17.152637 -0.690997 
-25.928625 -16.592247 5.484135 
-2.594268 19.018003 12.774889 
-23.356752 -4.340421 4.152001 
-21.325647 -15.878625 0.506933 
8.583172 20.162867 0.707980 
16.799021 20.225706 -3.668470 
-21.575628 -16.932301 7.581798 
-19.459330 -12.370639 -1.816247 
15.214200 7.670417 6.529057 
6.453146 24.154684 -0.638959 
-16.306526 -2.962911 -5.931335 
-2.868958 25.511425 -1.417895 
23.851242 6.715566 -1.869273 
18.861946 15.440758 0.832932 
-14.570611 21.560034 13.831929 
-19.512146 -4.079214 4.424428 
14.727051 13.712595 4.173525 
-27.082722 -2.103516 -3.725382 
25.020893 -11.625710 2.664407 
-8.887200 23.137539 -1.159685 
15.459744 11.674410 -1.782782 
-17.648123 -9.138793 -4.500328 
-22.464167 9.027547 -5.757441 
-18.129175 8.611985 -3.867270 
-7.220411 17.618155 12.170856 
-19.782707 11.083500 -2.645112 
-15.742626 5.589780 5.691963 
24.984713 -6.413670 -1.891780 
21.580715 16.534502 17.292910 
-5.220107 26.906382 -2.671003 
2.108488 25.090715 18.273970 
19.906418 -6.952546 3.989012 
17.092503 9.076014 4.696627 
-24.094904 -17.882513 8.005579 
15.755346 4.459230 3.936724 
18.882637 -2.026977 3.319686 
13.721660 23.389818 10.525676 
-17.845083 9.019867 5.409398 
-15.854318 -1.380546 10.521865 
18.683548 8.348370 3.446647 
30.886181 -6.975353 12.650300 
20.143145 9.888227 4.118850 
13.614673 22.479528 13.569504 
2.248492 24.152851 10.157442 
-20.386879 -14.062864 -1.883685 
-3.484322 24.040714 14.883142 
16.908730 14.740077 4.116524 
-8.830219 25.064417 14.859871 
-16.038361 -4.439502 10.777357 
19.324137 -2.934067 8.885642 
-21.987570 4.440437 3.315963 
21.429237 -7.960656 6.800503 
-23.300379 -11.168062 11.795378 
-21.627270 2.389850 9.956130 
18.811424 19.969366 -5.109797 
3.927505 20.643312 11.281812 
28.152613 -13.050900 9.314675 
22.454081 19.727350 12.700495 
12.733694 17.718496 -1.071354 
15.361208 5.618437 13.613511 
-4.135995 22.114950 13.244450 
5.167672 23.155647 -0.374471 
-2.969737 28.884972 7.895142 
-26.633699 -7.054568 -0.511413 
-24.415691 -10.495716 0.774551 
0.964047 23.980829 13.572363 
2.270132 22.769072 0.213266 
-2.737067 25.161253 18.176291 
-20.916733 11.194810 0.294371 
-15.954225 -2.776648 8.483816 
-6.991097 23.716141 12.618895 
-14.425584 20.792160 -1.699711 
-18.751135 -1.423914 11.254630 
27.464075 -7.137917 13.141288 
16.286888 21.643785 9.187868 
-7.510326 26.452694 -5.785538 
25.643963 -11.319682 4.431431 
5.555210 27.786522 -2.829185 
-15.378406 13.043445 4.751941 
-10.578152 20.480963 10.116417 
-0.202908 24.742981 -0.929197 
22.323616 6.992418 5.193334 
-9.030113 13.622495 16.625725 
-12.969692 21.777266 7.575879 
-30.821001 -19.908703 4.489563 
26.756674 -4.701254 5.675815 
-19.690762 4.666510 3.702024 
-23.279377 4.260215 8.969538 
21.448341 15.207639 -3.376939 
-18.424522 19.611105 6.024539 
-23.139536 -1.477102 5.554709 
15.950933 4.815881 -5.927885 
27.902081 -5.015402 12.463370 
-24.357718 -21.838346 4.617007 
-13.147120 15.162589 -2.321950 
-1.772583 17.345297 17.240677 
22.649353 -10.876948 -1.034947 
0.298370 25.866556 6.009249 
-19.923876 8.939001 -3.396130 
20.729954 -5.675496 -0.386145 
-18.571125 -12.231905 -5.370621 
-24.945736 -19.445524 -1.335964 
-5.580344 26.507315 5.408200 
-27.901392 -16.834476 -0.257171 
-27.360065 -14.701202 5.722339 
19.392233 3.836533 10.868110 
29.110846 -11.732121 1.068251 
15.591233 17.870317 0.067235 
21.159136 -3.151872 2.314311 
28.654293 0.070737 10.262949 
29.384502 -0.542045 12.626942 
-21.375147 14.667749 10.035509 
-19.201660 7.966025 -0.289446 
14.319436 9.217117 14.927819 
-22.965797 2.798717 8.023904 
-27.992016 -15.888313 3.422361 
-1.748631 29.046976 6.904033 
26.762533 2.696226 1.693032 
5.502666 27.480310 -1.261344 
-16.995184 0.316981 7.893950 
-17.669748 8.502821 -0.319664 
-11.785437 22.697897 17.676220 
-14.715815 11.350507 9.183059 
-5.908850 28.174442 5.927879 
-21.330051 11.734201 10.578593 
-28.480097 -22.788935 1.355682 
-10.674978 21.078186 -1.326810 
-21.318098 1.758733 10.666593 
8.426308 21.569473 13.313697 
22.298424 -5.619566 7.489800 
-24.882215 4.289813 15.135479 
-14.614167 21.996183 -2.508510 
-28.383192 -9.290561 6.992482 
-15.094519 17.276924 6.121294 
-21.349230 10.577942 7.522120 
-25.632294 -13.996105 4.714604 
-20.261242 -6.629475 3.109388 
-24.004864 5.472858 -5.260566 
-20.321421 -2.825037 9.080511 
-9.893081 23.286053 13.362361 
-30.875565 -15.276074 -3.555814 
-26.898865 -10.227136 9.227705 
-8.496225 23.561792 7.684407 
1.668449 25.266071 9.115094 
14.172310 12.975007 1.393829 
19.164656 18.357641 9.152270 
18.598520 3.476490 -3.137251 
-10.818369 22.983856 13.086125 
-22.180687 -20.873117 -0.754082 
9.200486 21.185572 10.780423 
-25.851427 -15.936951 1.089923 
15.445232 8.857472 3.935316 
-0.211230 27.321394 15.008209 
-19.755108 -17.516943 -5.049236 
12.839756 21.714661 0.862554 
25.925310 -2.782539 -0.577528 
-23.664982 -4.046314 1.180633 
11.814682 22.117451 14.205423 
-19.419838 15.367155 1.531160 
-28.720417 -17.030607 0.046176 
29.770561 -9.746566 12.615378 
-16.473200 -4.460755 -1.034447 
-17.477940 8.807824 6.918072 
-27.653341 -15.119534 9.928250 
17.806669 6.614871 1.082584 
-12.891601 18.911915 3.326044 
-6.293062 26.184486 10.067967 
-7.163089 15.157536 16.854597 
13.226171 22.520510 17.339581 
-15.745338 -2.141438 10.202020 
16.222034 2.760073 -0.717763 
-19.192179 -16.770336 -2.389488 
-18.717360 6.567312 8.199545 
-18.780382 -13.128430 -5.316234 
-15.887669 -1.901101 12.270051 
-13.485803 23.285349 8.846195 
-26.348467 -3.193261 6.725751 
-22.352140 -2.178454 9.111985 
-17.895247 8.550544 7.554065 
18.060995 -0.349347 10.200741 
-16.278044 13.541207 -3.924585 
23.573950 -7.328333 12.511637 
18.989046 19.520834 12.810625 
3.215291 21.014349 -1.790750 
16.632082 14.187766 12.042242 
6.832352 25.452173 7.603848 
-13.574729 21.351595 6.172440 
18.374836 16.502726 1.644632 
18.566391 20.721806 -3.187302 
21.751068 14.186558 -6.439931 
22.129593 6.515263 8.299298 
28.919121 -9.803053 4.259167 
23.877222 -3.644656 9.153148 
-23.143154 7.211786 10.845630 
17.307877 0.053403 -3.887820 
-18.643162 2.953373 7.861860 
28.515860 -0.523180 -3.876591 
10.864571 22.718430 -0.951642 
15.178016 7.351277 10.205669 
18.967152 2.767839 4.915230 
-16.102442 19.396534 2.533077 
-20.275927 14.324673 -5.763729 
-10.044788 23.120701 14.790836 
11.263683 21.206497 14.107132 
-18.367172 17.771433 12.056084 
26.995264 2.805490 11.635416 
-14.051301 20.485394 14.470099 
-9.058435 22.951817 1.041688 
20.566040 -8.660198 3.025522 
-14.081619 22.909906 11.101029 
19.459452 19.419132 -3.989854 
24.509670 0.660602 5.249529 
23.754662 -6.041003 4.834737 
-14.807086 2.924139 13.980717 
-24.472229 -1.978564 11.278225 
-25.905426 0.956524 -5.397221 
-24.082172 2.037817 4.850883 
-14.088738 9.920620 6.202710 
-16.945436 7.782762 7.913838 
-26.523621 -10.691996 4.618361 
18.322964 8.342692 12.351768 
-20.608490 -6.256286 2.279926 
25.124271 8.300969 -2.627970 
-22.825348 4.103602 3.098698 
6.859781 23.826603 9.015988 
26.852900 5.186518 11.109892 
21.328495 2.672198 4.240239 
-28.588154 -7.127418 11.837455 
-12.190573 24.298056 11.367826 
-7.154462 26.692144 1.249952 
1.018656 25.175812 3.414584 
10.878881 24.010201 8.232281 
-21.757711 -14.292708 0.062548 
-20.747450 -9.299934 -3.086467 
-20.096251 15.131468 -4.779405 
20.920658 -1.200457 4.346032 
12.296618 24.143311 2.027501 
17.941320 16.391039 4.241139 
-18.469294 16.922174 -7.243887 
24.256124 -0.486881 -1.099192 
6.689872 26.567930 0.660680 
15.889481 17.095558 0.672652 
12.834825 18.470831 10.419818 
-20.109049 -19.247944 -3.489639 
12.509109 20.208990 2.580150 
17.592985 13.346328 9.373116 
-24.963825 -16.165874 2.499553 
-16.885817 -5.657407 13.191084 
17.086752 8.025215 1.916121 
-28.481382 -7.021534 -1.646151 
-24.546928 -5.911727 2.534751 
-6.750289 18.244812 11.817112 
19.112627 -6.263607 14.808871 
-14.697260 13.911028 10.793431 
-9.578269 18.088392 -1.963574 
16.585192 19.218903 5.806212 
21.347076 13.122068 0.750419 
19.015203 8.960779 4.911281 
21.388935 -10.115925 2.805819 
-17.401772 -6.962465 -1.621541 
-14.382151 23.445242 9.800626 
25.293612 -4.049452 1.527118 
-25.089167 -7.764555 10.403284 
25.516737 -7.399091 13.098059 
-15.745183 -1.030703 12.141275 
-12.851106 18.492867 2.540366 
17.682281 0.812226 9.598207 
-15.304531 16.526089 7.752192 
19.574770 8.472747 0.757867 
0.116865 23.032631 -1.833844 
-23.541306 -10.378698 11.640991 
28.119314 1.820850 10.971378 
3.081521 25.843458 -0.096001 
2.244976 25.459368 -2.857714 
-28.125292 -5.185644 11.959892 
-12.445783 25.302618 -0.877848 
11.453261 24.329344 5.901367 
21.448233 15.010302 -5.349103 
19.763317 -8.941289 14.495364 
-19.509760 3.881021 8.391090 
-16.483236 -5.757510 9.311963 
26.689951 3.776180 2.077951 
8.793830 20.442862 -1.411930 
13.112504 25.092815 -3.402693 
-30.150293 -20.811195 4.400914 
-2.182123 28.107306 -2.602822 
-19.045956 -12.579678 -0.910095 
29.713608 -2.836633 1.153861 
-12.288790 21.630461 8.659478 
-19.779972 4.195498 5.288044 
23.603001 -4.713971 1.039983 
-6.121737 22.175680 10.519623 
15.107816 6.451551 9.292105 
18.605446 -1.530642 0.600992 
25.192589 -10.781994 5.647091 
-15.011234 1.488526 -6.197375 
3.600432 25.688803 -0.915203 
-21.685297 -3.587197 -3.510029 
-29.307388 -16.508820 2.356043 
23.469217 11.084337 -6.213603 
-9.911284 14.275780 -2.953899 
-12.355359 18.489803 -0.490966 
14.992220 19.719200 5.055468 
-15.547408 23.294840 6.872155 
13.315419 19.993376 8.267667 
19.050226 6.098705 8.568689 
13.235596 21.803968 3.160261 
-12.821177 23.348392 13.680499 
11.015759 26.027308 6.849014 
-24.306341 -18.625874 3.217513 
-18.350849 13.919147 -1.858757 
-19.732376 1.055670 10.800571 
-7.635797 25.515429 5.674245 
-11.556854 16.364759 10.525862 
-26.261406 -19.073147 -1.156366 
-20.493967 8.433044 -0.405855 
-25.586248 -22.814644 3.432445 
15.660528 17.670103 13.047207 
19.250652 18.221159 -6.738434 
-19.171968 16.430191 -6.183824 
-20.194407 2.285111 4.506009 
10.702273 18.860025 0.530821 
15.555297 5.616860 14.807232 
-5.546046 24.160456 8.935597 
-26.841602 -22.506327 3.842500 
18.179363 18.066517 -0.087382 
-21.197166 10.863445 -0.439796 
-27.526030 -5.235558 9.753315 
-29.382351 -10.398480 0.095686 
6.215467 27.942928 9.233201 
21.911114 -5.373260 0.634136 
-18.029415 3.442352 8.316959 
3.222145 24.906582 7.610141 
-27.777992 -12.626943 -0.474234 
-14.057790 11.254346 11.578799 
6.658826 26.594038 5.569024 
26.528458 -14.424236 11.797144 
18.149593 0.424866 10.403244 
13.713170 24.123478 -6.006624 
22.908846 15.552621 12.830507 
-3.341704 23.458231 -0.857662 
-17.072708 -4.986248 1.434127 
-6.780781 22.304514 -2.334811 
-18.840292 2.838852 -3.411655 
17.030069 11.816267 8.403234 
-13.117829 21.598177 -3.446177 
-27.334888 -7.514458 9.850492 
19.902119 0.369330 -2.861557 
25.217548 7.964650 -4.733000 
-25.868618 -8.524920 0.971847 
11.739267 17.286125 11.900815 
27.602747 -11.716344 7.943567 
21.186758 12.173644 2.400784 
-27.530397 -7.811212 5.702336 
11.810907 12.188962 16.907501 
-10.239563 17.299950 0.305655 
-17.117275 -6.110007 -1.721753 
-15.693212 21.360987 14.370999 
-15.573033 21.220724 5.950729 
-24.898497 -20.470770 5.056045 
19.760765 5.080743 7.930789 
20.384163 4.207010 8.554283 
22.550253 -11.498633 3.941715 
-23.563726 6.524573 -3.039878 
15.915396 22.212517 7.724246 
-5.975740 17.877789 12.856068 
3.658290 23.954041 14.735344 
25.426788 3.377243 4.748586 
-26.593298 -2.828837 10.358238 
-20.657681 10.503707 -2.614019 
31.846937 -7.764739 -3.248357 
-14.123230 12.958189 4.893384 
-14.055381 24.162956 0.040403 
-19.604631 -8.893036 -1.313902 
-12.987686 24.249687 3.455059 
-25.529139 -2.900942 -0.273455 
27.158596 -12.027100 9.760489 
-26.499050 -17.624624 11.431647 
-24.220898 -11.995599 6.051995 
-18.162111 -0.362128 8.341308 
28.315374 -8.374872 3.074434 
-17.671152 12.623790 3.456314 
17.292336 5.390327 5.740564 
-14.265690 9.002403 9.813622 
-16.162401 12.617372 -0.911249 
-24.023973 -18.236275 12.396824 
16.100897 20.775381 -3.554300 
6.603129 28.205698 6.824280 
14.672050 15.482357 11.138614 
23.979269 -12.508471 11.585150 
29.125957 -8.821666 4.409286 
8.732566 26.386261 1.763912 
12.490906 24.228563 9.519354 
16.710968 9.476165 0.667698 
-22.844973 -7.464325 -2.453663 
-16.325554 12.921112 9.429255 
-24.136358 -9.826821 -2.799034 
-13.527328 12.700658 5.842091 
-21.792233 4.779458 11.091211 
18.389624 18.027319 9.379929 
13.138762 18.046867 3.186457 
4.695869 24.208023 -0.884569 
9.768453 27.606472 6.448020 
-19.921875 15.911632 -4.097180 
-4.742769 25.677654 12.945621 
27.664351 -12.835275 2.049655 
-15.612289 9.734418 -0.756206 
5.552238 27.525843 -4.030751 
-5.221402 22.462688 0.926882 
21.826334 5.137756 -2.890403 
-10.191923 23.462736 17.804808 
19.286324 14.723616 15.753981 
19.362906 -5.202399 -1.907894 
29.119112 -4.284983 11.915419 
26.126978 5.919898 10.284209 
-16.606791 7.029543 -0.043498 
15.980320 14.316360 -0.175011 
-28.131020 -13.168421 11.401226 
-6.849708 27.215033 -3.504822 
-21.351360 -22.069044 -1.809712 
-15.824769 13.505286 0.439173 
24.677509 -5.607847 12.395259 
-18.557217 18.546713 15.010798 
21.958424 8.037677 -1.912088 
6.151142 16.784996 15.704800 
-1.137720 28.845043 8.347996 
23.824209 -12.691572 -3.338104 
5.086119 21.902685 14.239276 
-23.057230 -10.076446 -3.085995 
17.604610 0.087843 15.553285 
-18.902189 19.078487 10.363223 
18.540583 4.808833 10.625938 
-8.422796 21.650871 -2.705664 
-24.006199 -20.784143 -0.757934 
-21.529533 11.410188 -5.795089 
-5.237083 24.802090 11.108440 
4.275957 18.807764 -5.720180 
-22.946009 8.243864 -3.659885 
-3.179171 28.334518 5.033272 
-30.145931 -19.629070 5.967346 
8.576132 20.750340 9.995062 
-8.315802 14.279071 16.721769 
-27.907091 -15.199960 8.381724 
-16.659336 -4.680427 13.374427 
-23.134575 -7.988553 10.295237 
-17.608974 17.976099 -3.394105 
25.707636 -4.403314 8.851254 
22.597157 -5.785598 4.755337 
-17.538033 4.269945 8.462218 
-17.113855 -6.367567 7.578585 
-27.073362 -4.413047 9.066163 
-13.155200 10.056696 9.587018 
15.711335 12.437282 -2.025879 
-23.923561 -6.705701 4.274938 
17.278399 2.939050 4.044166 
-21.554831 -12.772977 3.312512 
2.923942 27.395988 13.908076 
18.572203 15.239145 2.648502 
-31.003477 -16.071863 -0.787493 
-31.466656 -17.960476 -2.222203 
-24.912642 -6.791822 8.997081 
19.949478 12.906098 -2.609004 
-27.619215 -3.193346 12.370399 
-26.707411 -12.843730 4.548011 
-13.182923 11.996416 6.531854 
29.022898 -6.729669 0.001221 
-21.918612 7.578058 8.813722 
22.418421 -4.626782 9.499472 
-3.957170 28.071600 5.136058 
-13.021941 22.881887 9.312006 
19.248613 8.714214 2.607182 
20.798519 9.096967 1.536518 
8.178410 24.342087 8.407718 
19.337124 -8.063561 13.446767 
1.043044 25.931931 6.195662 
24.946766 -1.934978 8.836705 
15.720649 8.703413 1.163625 
18.541891 -3.552145 15.128267 
28.926346 -13.153669 11.353602 
-19.449686 -12.713568 6.806061 
-22.476536 -14.993592 5.648733 
-12.324394 21.753166 11.473544 
21.700911 9.515820 4.975838 
-25.675707 2.067805 -4.466692 
19.362814 18.422922 0.149025 
0.761899 26.422377 -2.302250 
17.115957 8.770124 -0.941176 
-2.759687 26.447975 -1.526918 
15.655107 9.398369 6.318417 
-21.504221 -10.100279 10.805266 
5.193690 25.093149 8.174694 
-15.358816 1.659671 10.588054 
-17.676752 -10.065872 -2.859282 
-6.293229 23.897505 11.066070 
-14.819677 22.469639 0.191920 
22.289316 -3.241746 8.550398 
11.737741 23.233778 17.271971 
21.515736 14.575068 7.533222 
27.521816 0.512505 4.710954 
-16.592085 -2.639270 10.389408 
19.525242 -8.792915 11.741141 
-14.828916 21.906553 1.047054 
21.533567 6.935865 6.718660 
19.675598 -8.469186 10.458652 
24.806452 1.834446 5.008931 
30.011869 -6.654875 7.990858 
16.502632 21.130753 14.936707 
17.070200 1.200521 -4.859989 
15.802208 17.715332 12.294302 
15.521752 10.783382 -1.791609 
-18.239008 -10.688885 13.447647 
-21.359434 -6.754930 4.569428 
-22.359076 -11.161754 3.719650 
3.172241 26.062500 10.655656 
3.019954 24.563490 9.461997 
2.258621 19.716770 -4.721478 
15.539999 18.769867 9.034776 
17.094114 2.777766 -2.395480 
-8.076907 24.915977 16.431414 
-10.254437 21.257015 -3.389991 
-27.837706 -17.546797 3.948267 
9.686921 14.142517 17.100042 
-22.006006 -13.881662 -2.743238 
29.878391 -4.756690 1.168350 
-28.612095 -7.450903 13.616427 
20.164652 8.813634 2.098403 
28.616400 -10.428227 12.741846 
22.852131 5.055311 11.514617 
1.953069 25.237474 3.669063 
-14.790300 18.197081 -2.734726 
-11.254505 13.103409 12.431754 
20.845503 -9.451223 7.563773 
21.416534 12.896574 -1.581087 
10.397942 24.273333 11.245595 
3.761178 27.628046 1.265878 
8.804190 17.149933 -3.387352 
-24.581463 6.399253 9.742549 
-6.365659 27.300573 8.044819 
-15.037750 2.070250 13.798416 
27.431292 -10.695235 2.480215 
-25.547239 -10.179347 11.668743 
20.133640 16.904972 -6.640005 
-5.057683 25.135624 14.417150 
23.903786 5.305258 9.640290 
14.019127 16.079945 -0.604413 
-11.819750 10.149472 16.139376 
29.990229 -11.219561 10.756508 
9.443419 22.014812 9.542128 
8.005852 26.040241 1.619159 
10.765811 16.917164 10.981792 
-29.302914 -21.686451 3.960594 
-12.688178 21.404100 6.514985 
24.670906 -3.874417 6.382356 
18.519651 5.023871 -2.986335 
-21.495441 -5.831808 4.865886 
-28.046669 -8.488542 6.118682 
-16.351709 10.310863 -1.283118 
-18.817532 2.299492 9.354021 
-14.402685 23.441570 0.397712 
-28.030100 -9.683328 -0.268081 
-12.563375 15.158851 0.152667 
10.565381 18.342766 9.979746 
-15.097490 9.114494 -0.128043 
-14.343335 9.048733 10.883104 
22.595284 12.704487 -6.331439 
-18.600883 9.927707 -0.274952 
21.202208 -3.748817 5.459354 
-6.402582 23.184172 7.718616 
-3.406400 20.924646 11.875461 
19.451605 0.600863 -0.153537 
19.219429 10.377328 5.346895 
-2.284203 27.915178 -0.247790 
-7.643845 22.309904 11.027611 
10.233882 20.060699 10.362946 
-20.323652 7.071771 8.531134 
-25.597763 -7.898153 8.026674 
15.851723 4.160803 -2.698252 
21.142229 13.450102 1.591222 
8.620565 26.183226 13.224107 
22.454197 14.008082 9.519009 
-21.146181 -2.053403 3.659640 
2.144624 26.445997 -7.534468 
19.652443 2.554922 4.145750 
-11.015594 23.186016 6.454517 
-12.061607 23.414600 6.793287 
-19.648912 17.421822 13.270710 
21.040459 7.787502 -2.181915 
-16.463505 -4.833232 10.031266 
3.924863 28.386786 9.317039 
-22.614185 -20.946873 2.967440 
-21.007854 -18.612324 3.789931 
-19.187092 12.130092 12.504869 
-7.937657 24.766935 -1.047982 
-1.889953 24.735380 12.991780 
19.227922 19.625090 -1.730230 
-17.854273 11.429866 3.764893 
18.582792 -4.426738 13.782805 
22.999870 -4.345447 4.257301 
-17.007620 -4.263094 3.502401 
-30.164003 -14.511744 0.407058 
-13.342412 17.352518 9.695474 
-16.230570 16.523237 13.472921 
17.614237 8.342803 0.622782 
-21.815365 2.029212 -3.592142 
-21.237553 -5.717831 8.770002 
31.603817 -7.876676 -1.821962 
0.397917 28.128544 5.057181 
-21.445164 7.583033 -0.208314 
-19.091566 8.497421 4.839267 
7.080445 26.400618 14.405501 
19.247105 5.674512 3.979703 
-22.660236 8.220394 -1.497044 
16.466551 22.600609 3.442554 
-21.285116 -6.294843 3.906096 
-15.162762 12.442853 1.231117 
-26.466822 -0.884181 9.520050 
1.344867 28.300377 9.985710 
25.941753 -5.702384 1.537291 
-10.985632 21.773966 -3.555128 
11.841091 20.256241 1.927546 
-18.759722 14.459571 -2.680661 
-10.955522 19.423025 12.353076 
-16.367908 1.737785 -1.157907 
29.609604 -1.531867 12.594047 
-28.209259 -10.737289 6.444171 
-1.723439 19.186348 -5.708326 
-18.661160 20.137558 9.716049 
-20.993656 -11.690874 4.597113 
-22.043226 -5.901154 3.207402 
-29.321945 -9.342079 -2.630871 
2.793972 26.400492 12.854131 
-18.560068 -12.594851 12.320813 
14.404894 23.698792 -5.888553 
-14.418084 18.041925 10.915751 
-6.727087 25.543558 10.260361 
15.198299 11.760986 11.843830 
-12.538239 13.276592 10.307215 
0.076158 27.085121 -3.781292 
29.770863 -9.580670 1.321026 
-14.927576 1.557369 -4.922672 
-28.513763 -11.570095 6.661783 
15.898788 5.841887 0.087794 
-25.232395 -16.038082 8.590133 
27.328503 -2.663800 8.542735 
-15.160359 0.687258 -4.998012 
-14.386691 4.276122 -2.956617 
20.746267 -3.908875 1.304878 
-1.333573 20.437046 -2.930021 
0.448837 27.975191 -3.903132 
-28.299881 -22.483828 2.789680 
-10.133939 25.106955 3.009217 
19.571266 -6.388414 -2.144258 
-24.165697 -6.485792 1.350681 
-25.093225 -12.667356 -2.334259 
5.701272 25.144342 -0.300391 
-25.513857 -0.760815 2.391595 
23.152395 -13.091759 9.003940 
-20.900848 12.123004 4.004390 
-21.612766 -15.901292 2.375832 
-27.473618 -3.447240 14.131507 
14.862857 7.454059 -6.114532 
16.654552 2.257400 11.804800 
-21.951132 9.801877 -6.840359 
1.385255 24.240280 11.416899 
17.660761 8.308410 4.013855 
9.429389 21.925215 3.123131 
-15.195490 7.235867 8.231933 
21.362263 4.329611 11.484636 
-16.680965 -5.196245 -2.131196 
-1.833903 27.328754 5.534942 
-19.007090 -2.616215 -4.072181 
20.974659 12.936851 2.617132 
-3.156618 27.521837 -4.124113 
1.514384 27.508776 13.893904 
20.330074 -6.335520 0.051667 
-3.355157 19.735430 11.652277 
-14.872980 9.502936 11.339225 
8.826797 27.204805 10.200336 
-14.777216 22.021460 1.872655 
-22.771292 -8.916964 10.788528 
-20.362801 15.024228 4.606813 
22.093185 0.905018 9.432007 
-17.786703 19.186735 13.938995 
23.327093 16.628824 9.234424 
-20.021393 0.856705 3.583901 
-24.091339 -7.962876 5.113461 
16.768812 11.137954 6.108193 
-12.608027 14.928905 9.492867 
-15.607328 16.821512 10.020725 
21.321663 9.227275 2.300130 
-24.332541 -10.374120 11.746321 
25.323034 -3.158322 -0.944761 
14.807316 14.495514 4.468992 
-6.464801 21.010683 10.585839 
-24.219902 6.084886 8.064925 
-9.438653 22.443014 0.073506 
-14.925637 2.824746 15.174588 
-9.472032 23.992666 -0.792592 
-24.969269 -13.282703 1.459227 
21.101011 -8.382751 -0.991326 
-17.911371 1.709303 3.117901 
7.645208 19.240746 -1.336888 
19.376003 8.220142 12.354104 
-13.040997 18.487804 7.853703 
-11.674140 25.207569 2.653126 
-26.848501 -2.272899 -6.140320 
17.787161 21.668600 3.788810 
-8.465930 14.230285 -6.914576 
26.152729 -2.249969 -0.066962 
-15.414285 22.139610 5.988868 
-28.416584 -6.272603 12.780557 
3.857596 27.733850 -1.607541 
24.925402 8.463571 -1.759251 
5.879670 19.824350 11.752025 
26.910509 -12.244211 8.259637 
26.828537 -3.409351 6.110359 
-19.506857 17.118494 14.931673 
-5.282191 22.046915 -1.451659 
-6.411026 25.783846 -1.965780 
16.205048 15.760571 0.384185 
24.213678 -3.346514 9.967899 
16.643908 21.200111 -6.970710 
18.729027 11.311855 -3.214436 
-19.057762 17.968122 -0.867128 
-20.897839 -0.926156 11.589520 
-13.599694 12.193183 5.234057 
-13.263989 7.479272 -3.397531 
9.139474 23.786083 -1.098291 
14.887635 22.166866 13.309305 
-20.345644 5.091387 5.094625 
-19.491314 7.835453 5.413705 
-16.270914 -1.472278 9.844404 
-12.914551 24.462820 9.067410 
-13.060490 22.674561 11.936923 
25.847263 2.977731 9.906603 
8.205579 21.156025 12.581071 
21.874655 -2.717564 10.911057 
17.176889 4.364290 -2.376074 
4.931045 23.727766 1.358764 
25.397621 -2.909898 5.765037 
-24.269876 -11.455791 11.993389 
-18.119070 6.558043 0.251354 
-16.208885 -3.689960 12.518717 
17.286936 11.501322 -3.485435 
-17.994576 13.502011 -1.147961 
16.270393 23.086454 0.868461 
-18.545725 20.305326 6.399945 
-21.257257 -13.379726 8.678240 
-0.375138 22.506737 -1.204584 
21.353512 13.255514 -0.327288 
-30.719343 -14.417066 -3.531920 
-20.366489 -10.218746 -3.165580 
19.728119 10.147432 9.241146 
2.130409 26.034407 9.632620 
-2.213926 28.963209 7.671056 
22.829903 -7.969350 12.226135 
-19.644297 16.009241 7.360372 
-15.866678 -0.542954 14.741691 
-24.107697 -4.332609 -0.692210 
-15.175334 21.999544 -6.366127 
29.077684 -13.126173 12.139851 
-29.047482 -9.528069 13.352603 
-16.183956 1.396580 8.884966 
-14.777182 19.530964 12.439397 
-18.505056 16.566223 8.312035 
-19.432262 -1.063995 -4.261898 
-23.245348 -17.694843 -0.395930 
-10.336739 24.633871 -1.068867 
19.608381 -8.951588 13.459166 
-26.074219 -1.363480 0.832666 
6.684939 26.036684 15.239068 
-29.900984 -17.365137 4.059481 
-18.696482 -7.203108 10.080934 
-26.487976 -1.238109 -6.201237 
15.058228 7.457250 7.562526 
15.907817 19.407391 10.320312 
12.956073 24.982853 -1.517401 
-4.247387 25.025389 18.126522 
19.989347 4.657232 -0.241611 
14.573008 7.609444 12.208226 
-24.222181 7.998453 11.164409 
21.599552 6.602740 5.618651 
23.492762 0.604095 5.616451 
-8.983729 19.765398 13.202257 
-27.490681 -15.382977 6.809731 
28.427134 -0.437809 -2.562161 
20.985523 12.671619 9.858595 
-16.968088 2.744816 8.572665 
7.299272 17.212879 -5.966509 
19.860703 13.168469 13.175172 
-20.749218 -13.839702 -2.756175 
27.990648 -12.131298 10.896699 
-19.282661 -16.816719 -1.370036 
