16.932257 4.848156 10.790592 
26.036234 5.629217 3.649149 
-4.751204 24.637758 14.432738 
-9.279854 19.867649 14.917695 
17.579197 17.033258 -2.943457 
-29.532061 -9.545097 9.086144 
28.713448 1.175225 -1.146459 
-15.084991 13.655167 12.458043 
-8.111174 20.777649 19.430273 
21.541203 -12.872443 0.807935 
29.771034 -16.274069 3.338142 
28.627060 1.155761 -1.915046 
-22.871218 3.180882 14.433301 
-23.672489 2.679949 13.840775 
21.045530 -0.514327 14.839622 
6.938195 24.499285 1.338828 
26.922432 5.214368 -1.951217 
-1.482740 23.392256 16.955849 
11.101166 20.942379 5.697186 
-16.732096 18.870657 14.374491 
14.261343 7.276785 12.884913 
28.122717 2.334392 -2.232757 
4.852637 26.550568 3.713445 
-20.845507 1.790556 10.598360 
29.791798 -2.557943 0.231310 
19.912117 -1.478934 6.696846 
5.929132 25.243361 1.840873 
15.907556 17.247984 15.831420 
10.243327 18.897018 8.525368 
-6.762867 15.796650 19.869097 
-12.093349 18.225958 -0.480976 
-21.144077 2.496925 12.906788 
-13.344152 26.317312 5.305930 
-9.096766 22.784372 20.137102 
-27.195362 1.201713 21.031279 
7.264857 20.049433 18.378075 
13.003072 14.655604 1.807837 
-26.426571 -18.931187 5.106062 
-21.428217 14.505857 5.272421 
10.112175 19.588007 8.889265 
8.951111 21.576262 -0.747402 
-22.646624 -9.174035 8.219022 
-21.167437 14.544794 1.630391 
-19.992561 16.646578 -1.960551 
-22.274658 -9.428640 12.207110 
-25.498190 -0.210670 15.808815 
19.476274 6.137925 1.706732 
-26.430347 -11.314074 16.814466 
5.705162 19.110428 14.717413 
20.157558 -8.164129 13.288767 
21.242044 -13.760919 6.405239 
20.488520 19.110189 5.752542 
-12.727916 11.244193 17.863277 
-25.863279 8.996915 11.820026 
-15.596871 8.604347 0.584732 
-28.311646 -2.133432 20.808805 
23.915657 9.445004 2.405408 
-30.009447 -1.465206 -0.939154 
16.052189 16.184263 8.398540 
-25.922346 -9.299980 16.198637 
-23.321510 11.601422 11.435792 
1.234030 28.192383 -0.074616 
22.229769 6.501879 8.017586 
-19.824484 16.073606 17.848684 
-24.132214 -7.832022 13.083871 
-31.828442 -13.502719 3.525828 
14.075909 24.651726 -0.249332 
-27.650751 3.356803 5.510136 
5.590152 21.670170 17.081076 
-10.855223 23.265104 6.616361 
23.373005 0.188381 -1.267289 
0.736900 28.140135 8.032863 
-17.802765 7.482590 -0.120533 
16.675409 7.183873 1.024886 
24.028341 -1.872916 10.932894 
10.947783 16.189096 10.054954 
-7.399177 26.522137 1.978133 
16.639938 -1.553168 14.347940 
25.339802 8.487044 11.032093 
-7.251118 19.581282 18.398890 
-27.292896 -8.978426 8.898821 
15.166110 11.231697 3.876507 
28.728773 -11.310758 10.387692 
1.716168 27.927931 0.616649 
30.432322 -4.768797 0.580117 
-9.260559 25.485382 1.314886 
-17.403675 -0.301610 6.669577 
-17.457949 6.550455 7.875927 
-25.021175 8.982856 5.683458 
20.049679 7.029579 13.702784 
-19.576986 -12.181804 17.885454 
19.102966 15.233407 12.989861 
-26.685377 -11.373473 7.822511 
-28.192703 -9.698282 16.989132 
19.336681 -6.027137 0.120433 
1.832767 27.824203 -2.316915 
-25.188635 8.502425 14.416738 
-24.373125 -9.480586 0.642802 
-23.447994 -8.363666 3.765300 
3.952527 27.937216 -1.242528 
-12.397399 12.868259 -3.431574 
-18.919493 -0.608040 15.291150 
-20.454163 -10.390714 11.708600 
-16.317354 7.273659 5.009093 
21.795565 5.119298 1.013555 
20.242062 -7.792694 9.262288 
16.425785 8.904855 0.168463 
-14.459741 21.723829 11.420322 
-21.706585 13.232121 9.509153 
-0.896618 26.814590 9.174522 
-21.619602 11.713350 0.805032 
29.404150 -11.482166 9.608051 
-18.054180 17.893097 10.072257 
13.536841 17.160206 1.869440 
-29.434389 -6.114861 4.154821 
-14.947569 14.381476 6.085541 
-11.373407 21.144411 -2.515963 
-31.117300 -14.076198 19.980684 
-15.442482 21.257936 11.461411 
3.620432 24.073626 0.630919 
-15.147400 11.568876 15.606833 
-18.805447 -6.827319 20.203199 
17.805628 -1.255580 12.585071 
-25.098217 7.436151 16.159506 
29.812357 -6.947665 7.548944 
28.057547 -14.483373 1.798544 
14.998362 17.800808 17.356974 
-21.216011 12.006873 15.799698 
-30.095957 -15.383024 9.430985 
13.688561 19.527763 -0.256898 
-0.789076 23.351702 1.186904 
26.058029 2.859540 6.951654 
-22.838011 14.429538 15.947398 
-15.137166 22.918900 8.227606 
-0.399788 27.192465 -4.306301 
-25.169882 -18.515245 5.233612 
-19.258467 6.501746 8.034701 
-27.952751 -14.791136 8.139334 
12.226062 24.746378 -4.650202 
22.987173 -2.084636 13.726143 
9.591672 20.059563 20.622818 
31.691031 -9.643550 5.731874 
-21.123402 5.840689 1.252217 
17.321222 5.717891 10.395736 
23.126583 -10.313141 14.357976 
17.754919 20.447563 -4.220408 
-12.516240 17.057182 13.995028 
-14.692245 20.091349 14.979704 
-26.251587 -9.651402 13.564075 
14.051239 4.633636 20.201424 
-18.705524 -2.466876 -3.257275 
-24.214174 12.820140 10.340325 
-22.496525 5.145131 7.551152 
14.362781 24.235153 6.020690 
-11.879550 24.632002 7.305830 
21.445641 9.985557 13.584940 
20.594095 17.813040 -2.013437 
-16.258041 4.650345 11.914443 
-11.784181 17.907568 13.783322 
30.994987 -11.329808 2.302239 
24.759695 -5.052537 5.972551 
-31.926558 -13.164032 11.924032 
-14.472848 24.906834 -0.562811 
13.897343 4.727099 18.361702 
26.150400 -7.998235 7.790296 
-25.515009 -17.716934 6.870865 
-19.362429 -4.913343 3.416566 
18.264925 13.701409 5.201483 
6.469613 20.071882 11.212560 
-20.831347 4.448950 17.174641 
13.940825 23.384949 -2.257012 
10.724428 22.991606 -2.069331 
-8.392286 24.987749 10.404650 
-19.078283 10.387637 -0.031477 
10.618169 25.080393 -5.680293 
-13.468476 16.416683 13.784310 
-7.052602 23.387447 7.946847 
-2.253287 26.250143 -0.811686 
17.117422 0.427165 3.698395 
15.362081 15.048521 2.382925 
-17.388847 0.156529 4.688699 
8.320446 23.386259 12.495579 
14.098758 18.168148 18.132853 
-16.020235 20.047495 2.657421 
-6.884281 26.132725 7.697231 
14.656984 18.412111 0.548960 
-17.785421 10.007096 13.829556 
-19.020729 20.055719 -3.107867 
-15.311817 25.343685 1.953640 
-0.928069 23.218874 12.656153 
11.640320 18.875858 21.341000 
20.145971 -6.261065 12.208066 
-17.752958 1.512157 12.761812 
0.277533 25.728683 0.807133 
22.179935 4.293055 6.948994 
23.665113 5.257658 8.328365 
-22.617462 -15.372717 -1.207514 
-19.795691 18.030346 8.487730 
20.492613 15.169037 5.675876 
24.397064 -2.569120 10.860136 
-15.266294 17.930428 9.549524 
-20.563339 5.519865 1.742514 
25.686293 1.689765 15.819885 
-2.543647 22.539520 0.134933 
17.647427 7.070742 9.260151 
-18.929691 -8.976381 17.977425 
15.477221 1.627732 13.361755 
15.126215 14.414023 9.909179 
-6.450236 25.972221 -0.102275 
13.709965 10.916246 9.261550 
-23.792795 9.377232 13.767071 
17.291626 0.118797 0.863236 
-23.510534 2.271121 14.866954 
-24.048506 5.814528 17.521854 
15.151835 9.051692 4.646194 
-20.179579 7.230110 6.449555 
-15.926437 15.451867 14.120063 
-9.989386 24.614109 10.156242 
-18.361757 -2.455110 -1.645437 
-26.983255 -5.125753 15.801328 
-23.552786 10.451667 15.821746 
17.433514 -2.498167 12.123759 
-22.973326 -10.886121 0.487347 
-17.562498 -1.592341 12.626015 
-20.073122 12.497506 8.256495 
21.032204 -4.711615 12.642249 
27.185062 -5.985653 4.034101 
-17.482887 9.682516 15.442737 
31.241236 -8.344261 6.396980 
23.555883 8.650078 3.240838 
24.287786 -12.515310 9.405274 
-12.997654 22.839043 7.924862 
-22.050127 0.796209 2.496810 
-25.144438 -13.802124 6.556194 
1.444993 19.408621 16.887415 
-9.379065 21.983398 21.366318 
-27.561836 -8.415493 1.312206 
-24.364120 -14.646289 2.992220 
-15.529470 13.613339 -0.067149 
-21.195520 -14.118920 4.728059 
-25.444994 -18.704655 2.257430 
12.753066 19.029942 5.177363 
-10.962080 21.817911 11.449724 
25.269583 6.382297 15.042097 
-27.546082 -1.164586 0.598783 
-1.830710 22.968277 1.898724 
-30.112375 -14.496932 15.761787 
-11.427258 17.874876 1.528185 
-1.487182 21.330015 1.631505 
6.453608 25.124670 9.716771 
22.243469 -8.474369 14.416410 
21.239780 -7.097950 14.007026 
-8.336910 26.268259 -3.775644 
24.767797 -5.990642 2.612485 
24.893103 -12.305428 13.315536 
-23.864159 -14.300374 15.635432 
-16.952330 9.695684 12.376180 
-16.628174 23.505703 2.119375 
19.444889 19.731291 6.466649 
16.695204 2.675097 8.334098 
-22.849323 9.207755 -0.869209 
25.669737 6.744471 14.058824 
24.124657 8.672368 12.318702 
-21.165070 4.132681 2.290495 
25.648474 -8.173311 15.489010 
-5.695065 23.261538 7.954763 
-28.067045 -17.303616 7.183417 
23.896980 -15.626782 6.714917 
18.761967 -1.841961 9.377915 
17.515265 4.412113 14.234717 
5.655349 16.263416 15.549617 
-24.091795 8.118011 16.137089 
22.566339 9.447972 7.654211 
20.864759 -0.391760 -1.303546 
16.508932 2.391771 13.975354 
20.412134 8.943708 14.924449 
28.118034 1.490413 18.584450 
16.218035 -0.538281 14.758824 
-27.462893 0.414848 20.978901 
-9.541718 16.916590 12.917784 
31.167995 -12.818180 2.919761 
-16.901810 4.602860 16.091022 
-22.761295 0.044703 -0.519645 
-4.090854 23.889053 1.093121 
-20.056881 5.745279 17.423859 
30.864380 -8.514314 16.052364 
-29.138754 -5.380891 16.943029 
25.384056 8.134535 7.842225 
-4.933463 23.647369 12.163620 
24.058023 -10.040594 -0.240520 
-10.854900 21.688236 15.324413 
27.831377 3.735527 9.983068 
16.384216 -0.620834 16.995806 
-27.153446 -6.735873 3.605470 
-0.795960 28.038630 -0.567428 
-12.479332 25.394407 13.396826 
-18.359831 -1.671424 10.722424 
22.910408 11.190913 10.741579 
-26.729486 -17.146803 3.791589 
-16.616522 0.983485 15.738314 
20.944794 -4.745948 6.950988 
-1.542937 24.966848 11.742577 
13.376433 16.104696 5.090778 
17.028111 19.295753 8.209509 
6.661815 27.569429 -1.781223 
11.217940 24.186554 0.666027 
-19.798531 -7.051554 -1.714313 
-28.799120 2.199214 -0.622165 
-24.903812 8.188868 16.450933 
-20.588057 18.780249 1.642574 
-6.860064 27.118750 14.643173 
-18.783161 -4.889790 6.322549 
-16.675859 23.217081 4.170855 
-15.696362 21.044601 7.307111 
-14.708339 19.626333 15.866358 
12.618649 20.054703 14.996694 
19.388210 4.863447 3.334599 
19.860506 -8.923000 10.287449 
9.104235 25.605349 -5.718747 
-4.860141 23.214657 21.327257 
-27.875225 -5.093629 8.581500 
21.299778 11.855850 7.955255 
-18.964651 4.163950 5.108657 
-23.377308 2.287898 0.037216 
26.312298 7.246925 9.108669 
16.372942 22.305386 -1.095707 
-6.579140 27.922335 9.979179 
11.937833 25.168041 0.387570 
14.020854 23.907026 7.180149 
11.876290 22.807861 -2.362290 
-20.897150 -14.641670 11.585463 
18.134380 -3.041547 4.399596 
-26.034142 5.618680 13.699244 
-6.539685 26.475054 -4.524270 
-18.785965 7.077325 2.275874 
28.738062 -1.293188 15.333924 
23.805471 12.352224 3.288016 
30.725531 -8.666609 14.873248 
-15.397683 22.064257 -2.967564 
-28.520330 -15.459329 17.042622 
-17.944853 12.467038 10.878052 
26.057447 6.012566 15.736824 
31.642475 -10.321450 2.631325 
-26.865051 -8.787663 3.761910 
1.444923 21.492279 14.039598 
-0.485026 23.889168 2.753778 
-12.308854 18.394650 16.953209 
-11.746657 22.757256 9.129885 
25.274561 -12.332957 9.003157 
-15.457500 18.953466 8.769395 
-18.040796 4.557350 4.766888 
0.100143 28.212423 0.396443 
27.329634 3.719568 2.379857 
11.525693 20.071182 7.629774 
-22.753174 2.797235 12.032847 
13.498357 5.792376 14.641098 
11.912868 8.314559 16.031244 
13.013752 6.185577 18.767975 
-7.770916 20.438457 1.589360 
-13.520673 20.072817 0.693815 
-22.369728 9.984431 8.720715 
-26.497454 -16.458361 8.612631 
-0.397166 16.714943 20.101458 
-5.006623 27.648443 10.328189 
-18.962286 9.887070 15.352861 
23.120058 -0.871294 6.229455 
26.873735 -11.320889 11.949105 
18.561266 14.615707 8.709917 
17.545660 -1.285761 0.821598 
-11.473718 20.195330 8.672450 
8.572854 17.150902 -5.006643 
-10.402020 26.770861 13.225300 
-25.539730 5.305417 9.135930 
21.166317 -3.150494 9.224919 
-13.200509 19.122345 9.674251 
13.433108 23.517351 -5.559489 
0.066639 27.894894 13.448030 
2.142042 28.464764 6.042987 
15.532756 1.207970 15.393906 
-27.358467 1.643359 18.336840 
26.426945 -7.468959 8.292241 
5.487837 20.428415 15.791492 
-12.993382 21.360460 15.432864 
21.048622 -11.673681 -0.318236 
-2.838647 24.913860 18.736694 
-17.216803 14.171861 18.267622 
23.748926 -15.485004 3.818123 
-0.967305 19.857777 14.764211 
-10.757857 25.853146 -1.407263 
12.017735 15.297655 17.700584 
-4.406278 25.630783 11.117391 
21.214161 -10.353097 6.176562 
-18.003826 12.166211 5.747392 
-24.185825 -15.409513 1.073460 
17.607836 15.425725 8.898145 
-19.771788 10.135315 13.483992 
9.535411 20.862635 1.196214 
-5.993547 21.502039 19.212532 
-23.284378 -7.981112 2.647074 
-30.625601 -4.086601 -3.076836 
15.211475 23.340826 -1.339558 
-24.922289 1.538304 0.079241 
-24.616148 -17.544052 12.182279 
-17.931255 -3.242810 5.308536 
21.655933 -1.501102 6.293419 
-19.618032 13.479351 -0.421434 
16.352415 7.701881 11.344713 
22.724270 -12.412149 11.097089 
19.719265 14.590606 15.586054 
24.260704 -2.295691 7.284975 
-10.773609 21.309334 12.270640 
13.509364 19.563023 6.515151 
-17.064577 -0.636951 15.525655 
24.943422 -2.600568 14.612853 
4.599655 22.545631 20.106459 
-29.317467 -1.313589 13.309899 
-12.242118 18.259289 1.019194 
24.794525 7.906288 1.553141 
-23.023560 16.214010 12.326019 
26.089048 4.628897 15.486364 
12.579862 6.872891 18.964581 
-7.346711 26.520708 3.719769 
23.384071 12.987226 -1.871375 
-21.772722 -14.454261 7.196853 
-2.863137 24.071180 2.076711 
18.720297 7.279809 13.757343 
19.934498 -5.876760 2.438910 
-3.869497 23.146740 1.669536 
-24.456646 10.540179 -4.328376 
9.348023 17.914671 10.261662 
-4.450264 25.873949 2.530626 
-31.036243 -16.636480 -0.235706 
-14.043244 18.765123 17.293768 
-24.857092 7.575642 20.562801 
-25.202921 -19.162884 13.884061 
-25.912392 -17.844006 12.380913 
16.444859 0.162510 19.800455 
26.957632 4.928375 0.455670 
-24.764420 1.592768 16.691605 
29.050749 -15.315095 2.829209 
12.567885 7.139671 16.472258 
-14.341199 11.223934 14.921468 
-3.040399 27.494480 1.310355 
19.036835 -4.924368 -2.110940 
-27.243879 -6.318843 5.314609 
-16.112644 20.817350 0.404204 
-15.047585 6.468198 16.500057 
-15.841912 13.066051 17.052727 
31.712509 -8.102786 3.869666 
24.197750 -9.973786 14.807159 
8.505980 17.849688 12.212327 
-14.795490 19.051504 3.357391 
-30.653625 -8.390987 13.441574 
20.573841 -5.736823 3.474353 
4.704599 25.415154 8.648335 
-16.059765 10.021695 2.553347 
-11.858891 23.483183 -1.558758 
21.620552 17.473209 4.729453 
-22.049786 10.770874 12.101189 
13.789123 20.493752 10.194527 
15.037675 19.431368 14.704346 
-28.964869 0.900303 -2.467597 
-19.305969 -11.132346 17.819399 
24.915897 7.095384 14.376089 
-19.756815 2.979056 7.922176 
-10.267488 22.973391 7.548001 
26.889029 5.055803 -2.948702 
20.760178 5.866478 7.508271 
-18.297115 -6.855050 16.823236 
-19.537889 19.186228 -4.093511 
-25.346161 -14.793496 12.214405 
20.281275 18.253393 6.670698 
15.180478 11.582740 7.098011 
-28.444597 -5.535112 9.500331 
-16.398800 4.744898 -2.706954 
-23.446795 7.000297 7.562147 
-20.493073 -7.134306 14.664540 
-17.223551 2.091145 -2.342845 
-19.819624 -2.851525 7.527862 
6.123013 25.347582 8.858435 
-24.220123 -4.148740 8.174876 
23.529734 9.178019 0.291653 
9.159352 24.021196 4.043918 
-25.430540 4.646301 9.730544 
14.921936 7.420510 -2.381677 
-8.731944 27.486570 9.812288 
-17.820663 21.220858 -3.343952 
9.520269 19.192564 1.391578 
-27.124874 -10.432867 8.568804 
-9.450508 26.249277 15.328135 
25.670244 5.327400 5.134199 
19.166739 3.858553 6.149242 
-21.492624 15.632233 17.327473 
-21.338766 7.250575 7.620318 
-12.403564 14.371813 -0.221707 
30.529697 -12.185635 2.202168 
17.412420 21.487101 5.758091 
-21.739067 16.291143 15.938714 
-25.289232 -11.840672 0.177731 
11.862074 7.897016 18.805822 
16.457806 2.054169 10.039641 
-21.629425 14.764297 2.450622 
17.560686 5.920657 9.228280 
-21.136652 -9.029840 6.258445 
30.542929 -5.987760 10.872742 
-17.192900 17.554760 20.857378 
-17.542406 18.221367 15.603014 
18.490499 7.109951 12.937688 
-28.941046 0.878291 9.552905 
23.588541 8.409217 4.679042 
-14.532763 19.226212 0.827157 
26.150288 -3.087472 3.807576 
-7.814223 27.454050 12.346147 
10.637295 25.871565 0.517867 
-1.707989 25.674021 9.355996 
-10.009741 21.596937 1.212734 
-20.579411 -5.625246 3.111747 
-20.381769 -14.210320 18.029919 
-6.219656 18.928389 -1.076200 
20.579269 -9.508403 -2.812128 
20.986589 13.303954 7.815137 
-18.999100 14.372858 1.968425 
-19.429907 17.939434 14.244695 
2.970728 25.752613 9.897665 
24.373287 10.402293 -3.553467 
-13.328736 14.127247 13.050144 
-22.755943 -6.910308 6.994576 
3.152114 25.283491 16.139620 
6.497529 19.795254 -1.216359 
18.136997 -5.377848 17.433321 
-11.643200 14.884810 12.594229 
20.924227 7.853604 1.797034 
-28.471643 -7.120313 12.341747 
-18.170380 -1.692076 13.392689 
-27.491385 -11.386981 0.479795 
-25.520685 -18.836426 11.764690 
24.285675 -4.877315 7.337214 
16.810076 1.249070 13.866807 
-14.945103 16.334595 16.483320 
20.987114 14.553368 13.948952 
-23.295944 6.683784 15.837914 
9.455791 18.754269 12.030533 
-7.285136 23.188936 7.234903 
-23.513727 14.520518 14.535166 
-29.742535 -12.774282 17.229557 
-17.629976 19.577492 8.073895 
-10.148972 17.815207 11.618892 
-3.255676 25.979275 16.063829 
14.838643 12.340704 11.384440 
-19.307789 8.423709 6.790473 
10.386048 18.348650 13.494730 
-2.235526 23.705948 12.032321 
-27.055651 5.673855 -1.334858 
-22.142729 -12.965783 6.749876 
-23.924974 15.281226 10.716331 
21.477385 16.319307 3.759697 
-16.083574 5.745044 -1.898300 
-11.486152 25.253065 4.648114 
-17.570993 -1.983472 20.536528 
30.482996 -5.571133 15.987312 
22.356239 -5.445281 5.715858 
5.111884 16.495356 14.218673 
22.793612 -3.880549 14.297521 
28.326464 -0.834214 4.246519 
-5.682158 28.068630 10.565287 
-21.667070 12.031803 16.534533 
-20.617111 -15.275459 15.449770 
10.860252 20.461910 5.046706 
-19.190619 10.805091 7.434932 
-20.875956 -14.158667 13.443574 
26.227367 -6.389202 1.603100 
-18.418139 11.576381 2.583058 
-4.275587 24.766642 1.412625 
9.810371 23.289394 2.071105 
16.212160 6.324055 4.394990 
-30.162771 -8.727089 15.109504 
-28.885452 -8.666588 9.039487 
22.200068 -12.855185 1.893783 
-10.205027 20.626827 9.644889 
23.032684 0.143629 15.380296 
16.305851 7.538866 8.455422 
-26.847467 -18.855007 2.641246 
-22.170347 -10.949430 1.392164 
22.877184 1.973137 7.242220 
-19.817844 0.826400 11.973681 
31.156139 -11.237358 7.365403 
23.385811 0.359501 6.295225 
-16.892550 21.218510 5.194401 
19.324354 15.002196 17.013351 
-23.564445 -0.294567 17.441284 
14.536093 13.449427 12.048369 
1.666254 24.925482 5.905125 
-23.402040 -11.636271 0.319076 
-12.044974 23.821682 -0.868392 
18.652876 12.971520 7.454964 
-30.930620 -9.260918 8.908098 
-19.114674 8.218523 15.444109 
-13.231049 12.317216 15.079966 
-22.278503 6.190677 1.749052 
16.522959 2.741105 9.171436 
-18.564787 3.562500 3.156485 
-1.480005 21.986031 2.635142 
-7.516734 26.217234 -4.737184 
2.300288 25.760839 -1.280917 
-16.126989 4.833723 12.681781 
-5.107355 22.080275 17.514633 
-21.750330 4.243616 1.786415 
15.578844 15.224304 15.201170 
-9.197145 16.725496 14.247581 
30.269758 -6.856604 13.264531 
-31.741940 -15.195786 11.675869 
15.173657 24.405384 1.615824 
-28.672878 1.109160 2.955061 
20.866194 -6.940965 3.559275 
21.925152 7.945260 13.306436 
15.293889 18.403809 7.629890 
25.968397 -10.494633 7.681800 
-21.704973 -13.883051 -0.185284 
19.793964 19.152592 -0.516383 
-23.472427 6.426164 3.688178 
-28.723087 -1.761341 5.459456 
-2.501820 27.414326 8.408702 
18.655661 -3.792607 -2.295559 
-27.854647 3.710051 -2.462509 
-28.467855 -7.525721 9.417489 
-31.775921 -14.690749 10.071396 
24.427307 -3.221535 14.690548 
-21.470928 -13.462396 3.399725 
-23.521753 8.541003 15.664965 
6.539545 20.805861 18.503103 
17.113840 2.062502 3.573776 
-5.180375 22.960238 17.526667 
19.391960 -9.085138 17.561352 
-7.803107 19.080502 15.354654 
-19.337183 4.381546 16.889067 
21.194759 10.737650 8.344913 
-21.690090 2.288869 9.543764 
11.381389 17.251268 17.912086 
19.974886 5.628099 6.715404 
4.319113 25.872910 2.172745 
-20.266769 3.602032 2.290345 
30.307610 -8.540770 7.837886 
-12.913857 18.784319 3.339302 
15.596441 5.599109 -2.951979 
-29.059126 -17.712641 -1.938160 
-18.828609 1.121231 0.872862 
22.156179 5.542204 1.590845 
24.857628 5.887340 2.063546 
-16.749557 1.933320 14.064357 
-2.075552 24.084650 1.663023 
4.443607 21.502441 15.799964 
15.342157 13.767551 -0.682869 
16.540974 18.261240 8.166667 
-25.301880 7.210203 8.399918 
-23.315340 8.052646 8.173676 
27.127489 -11.068921 8.806284 
18.104002 20.305189 1.318211 
5.077497 21.875240 9.605283 
-26.066971 5.389796 18.681770 
2.108269 20.525726 16.337543 
14.603560 6.621598 11.164429 
-24.081572 9.202516 20.543171 
18.850845 -6.741397 12.639513 
-29.627625 -9.507715 16.607767 
-31.624369 -6.266250 -0.091348 
-25.550884 9.374222 -0.245539 
-22.476290 11.109862 13.356095 
-29.786238 -7.210987 20.464163 
-13.143997 20.468267 4.953684 
-17.890160 0.207869 -3.484975 
2.941235 27.562944 0.168178 
-28.404037 1.721621 -3.572966 
-24.454954 13.470638 11.969165 
-24.690641 8.639410 8.103366 
-13.944179 26.190060 4.638837 
24.585238 -4.134832 7.543288 
28.722080 -16.002028 7.801255 
-6.070609 26.089695 1.595791 
18.780085 -1.046845 7.783283 
15.813591 12.118511 12.405728 
26.566477 -10.676497 15.017868 
0.984576 27.454977 0.542273 
-7.113737 21.252922 13.177501 
-29.057920 -5.399700 4.186537 
-13.937092 22.572561 9.531751 
-24.789074 -4.283185 17.373224 
-17.415804 18.437338 0.738134 
29.347918 -11.702882 18.563389 
-21.135199 -12.677259 -0.106733 
21.733059 14.610835 -4.842303 
-10.824621 24.100254 5.077303 
-19.433718 -4.421882 8.750620 
17.063627 7.352305 8.678155 
24.988049 8.348336 12.202196 
30.201031 -4.385426 16.909422 
-22.662880 5.360617 8.510375 
22.247581 10.944109 -1.323447 
-26.505816 -7.751249 14.883794 
17.089428 13.576243 8.952645 
18.644529 15.679749 15.830796 
-14.647975 16.050587 1.012883 
12.353091 22.359957 8.817373 
-24.516647 -5.478186 2.567197 
15.263719 15.976122 -2.677738 
-13.793843 16.581654 5.092211 
16.949770 20.567745 7.711463 
-30.022419 -16.554302 10.440394 
22.391451 6.177316 2.742461 
-17.137562 6.740595 6.269403 
24.071156 6.572667 3.879627 
24.029434 -8.848352 6.499659 
-27.324759 -16.779552 13.357593 
-18.687092 17.817467 13.015606 
-18.844622 -5.864080 13.235965 
25.771519 6.550623 17.470478 
17.386379 21.340982 -2.212262 
16.744715 16.231449 12.710423 
9.864593 23.650869 5.938328 
-20.452677 -7.846199 2.037173 
-17.439758 16.825739 10.719313 
25.316921 -13.603587 18.526241 
25.983055 -15.898179 1.945390 
-21.815296 0.285049 12.926389 
-32.162571 -8.930637 -1.387231 
-20.769068 -6.910758 3.125104 
21.175632 6.353207 4.681168 
-1.735078 19.412823 16.867767 
2.771765 23.164495 3.719096 
-17.155075 -1.565180 15.743390 
-17.056757 2.878880 -3.712428 
-6.516077 24.371490 9.404987 
-29.628901 -9.865505 3.986930 
26.822275 -14.335845 1.261599 
17.907585 11.372053 -0.561717 
28.933342 -12.306778 14.612433 
3.269194 23.231552 11.859149 
-17.757805 7.053300 16.036995 
-9.577800 23.470247 8.670340 
30.726038 -13.427155 6.745715 
-16.629843 12.261674 11.950767 
-23.797495 -5.244262 3.989049 
21.083435 -8.769116 7.368594 
-31.718422 -7.798959 -2.760949 
4.723826 21.119198 16.728184 
-25.319239 -18.769297 3.194041 
-21.642883 9.180583 1.524309 
-29.386854 -17.195295 15.396335 
-16.684689 3.971841 -1.454007 
-25.111916 8.886053 4.760418 
15.445642 19.225554 11.630611 
19.965803 -6.793167 1.933397 
-16.080286 12.686529 5.987656 
16.627312 9.968867 0.026659 
-27.376894 -0.445622 8.775933 
-24.353737 4.113799 14.790645 
17.573854 15.075193 12.462065 
-15.890565 2.554464 17.829338 
23.422710 -8.549231 2.128418 
-21.253649 1.108272 7.497123 
-23.476599 11.030127 18.577160 
13.989480 24.198311 -1.280525 
-25.233278 8.929005 -4.190153 
-3.038080 26.584152 -5.755742 
-20.474667 10.422446 14.620014 
-4.532261 26.732805 10.589385 
-24.382030 -17.890442 0.607582 
17.341255 8.475734 -1.893792 
20.879005 -5.161839 11.284406 
-27.058554 -18.684881 1.386107 
20.111877 8.156817 10.898683 
0.945477 24.520998 -0.633528 
-24.308641 -8.118178 8.087001 
19.209267 12.946016 1.457405 
17.770309 -0.791017 9.866730 
-30.372164 -2.737612 -1.829473 
-11.944124 25.723190 5.738012 
24.735065 -3.215260 11.699094 
20.109137 15.146090 13.282806 
-26.881506 -8.031169 9.021521 
-24.304327 13.640169 10.016691 
26.026892 -1.797819 8.407246 
24.157703 8.714005 19.091354 
23.846474 2.998792 16.136347 
26.419058 7.017266 11.702326 
13.847709 4.854111 16.761805 
-18.717863 -7.904947 18.191917 
-20.995277 10.865839 10.861942 
-16.868162 8.496368 10.137785 
22.176470 -9.852152 1.169178 
-20.545237 13.080975 7.400712 
-22.106005 -4.174890 7.527946 
-23.652466 -16.844360 3.993148 
-19.147974 13.704180 2.907561 
-17.914886 -2.641983 14.250538 
-3.971567 25.535070 -0.290324 
-29.788166 -7.946870 16.586548 
-22.923906 3.289476 15.365257 
18.293114 8.054687 11.535898 
-19.661013 4.301541 4.248983 
20.339520 15.882429 10.770800 
-31.589844 -14.042816 5.205451 
-10.999932 22.485180 16.003675 
0.960849 26.681562 16.475019 
18.209637 11.106556 6.352794 
18.877901 -3.782039 -3.286774 
22.336163 -11.577094 8.732127 
15.413733 23.144903 2.973583 
4.060612 16.724491 14.417359 
-13.631323 15.810843 10.752873 
-0.868516 23.451447 0.328668 
0.697842 22.004416 15.489216 
-19.161678 11.838618 2.416884 
18.978851 17.922337 -0.041848 
7.378629 22.213831 1.897473 
26.497278 6.114375 -1.817684 
-27.822344 -2.837547 2.657416 
3.266501 21.606546 1.230851 
8.662769 11.423681 20.856653 
-11.391852 21.158340 21.025936 
-7.290355 18.869026 -0.400721 
-24.376635 -17.466639 5.509433 
-25.070311 -3.488542 3.535106 
3.224377 19.944645 -5.221384 
25.102612 3.294336 1.415688 
-24.882992 10.378761 1.692042 
-17.990337 8.444195 -0.708353 
22.967331 2.537658 16.012951 
16.503059 14.128577 8.984492 
23.252169 2.623391 1.464074 
10.014175 18.752392 12.651639 
4.079205 20.254869 16.225208 
-0.195403 19.807631 14.559120 
18.706442 13.952033 3.903664 
2.138678 24.039982 19.210920 
-26.235559 -18.543045 6.105478 
-23.544168 -6.813555 4.692851 
1.784306 22.999477 3.428548 
25.764292 6.148374 19.069632 
16.910795 2.762033 0.471206 
-28.359795 -5.898452 10.466615 
27.548143 3.852523 0.539867 
24.451012 8.505964 16.034903 
-14.361423 23.799173 -4.308071 
17.521360 0.242087 -3.619725 
-18.981777 -4.987731 4.528591 
-15.783187 6.602333 -2.099539 
-24.456398 8.357078 1.549061 
-17.796745 -4.660909 17.473076 
-23.990732 3.792611 13.964272 
-20.594765 -11.926077 10.685969 
-6.642723 19.060253 17.594839 
-3.079103 26.762484 9.376071 
-11.285571 20.080273 14.191568 
14.940184 12.009599 2.286828 
-2.147639 19.839468 -3.790792 
22.582834 -10.624464 7.188802 
-7.999467 25.926758 16.750116 
12.623528 7.295020 15.414586 
29.113041 -1.497401 -3.516788 
-19.319365 19.914011 3.543800 
-18.074635 19.528986 8.827843 
-15.790601 15.726023 15.251612 
-16.982796 6.233038 15.937809 
28.335037 -12.226483 9.806089 
19.724703 -7.851940 11.622315 
-19.077223 5.643910 1.508611 
-24.277483 8.200067 21.482916 
17.632994 5.475015 3.645465 
-0.532695 24.594501 6.709638 
-28.270689 -11.398688 0.685479 
-26.835630 4.443895 4.226904 
-19.270218 5.073495 2.599569 
9.488068 22.640368 13.150621 
15.845407 13.937799 9.397629 
2.187169 28.298996 2.018312 
-25.434147 7.001294 19.147541 
-17.319420 -0.210962 5.459189 
-26.768513 -2.971710 3.836787 
25.231512 -8.523006 -0.112073 
-29.899258 -1.525665 -2.046836 
-1.455672 21.035112 13.500423 
16.700508 19.074329 -1.605627 
-31.217213 -14.262611 14.256915 
19.003626 10.144528 7.107155 
4.657664 23.668257 13.525040 
1.642165 28.341564 3.335331 
-5.117258 21.246189 17.287659 
-21.335594 17.750408 1.245093 
-20.476770 -5.791197 7.993492 
24.628952 2.640775 7.076700 
21.613079 5.717572 2.338166 
24.428259 -13.617574 3.325149 
-11.251002 20.220919 1.430068 
15.177076 9.798668 6.723068 
-22.659401 -6.596821 4.162095 
17.731527 7.152629 -0.765297 
-20.710522 -8.784989 11.258145 
-25.924046 1.833818 8.638219 
29.631773 -2.646409 1.183404 
17.467472 2.469938 2.995925 
16.373260 12.633762 5.398360 
-6.804981 23.468166 12.258615 
26.475241 -12.476267 10.874920 
-3.363000 25.167719 16.037638 
21.940987 7.455813 8.015055 
-27.839880 3.939518 1.990291 
-19.047857 10.932885 11.549538 
-20.044857 9.237478 8.027150 
9.496473 19.449690 2.142636 
10.345717 17.352713 0.037310 
8.215616 20.737026 20.251612 
14.486524 3.903866 20.134802 
-19.813951 -0.816260 8.083556 
-22.992563 -4.914799 0.857893 
16.748526 16.761719 19.155972 
-1.893177 25.141630 8.288655 
-26.918108 -15.944075 7.858458 
-16.745497 8.324228 11.922093 
-16.184223 19.043896 2.873312 
27.418005 -2.553055 2.868861 
24.789526 -13.797026 11.042146 
19.907616 14.794992 6.366808 
25.139297 -4.771127 15.280333 
-3.901837 24.453566 14.787760 
-12.701778 18.383703 -1.265251 
-23.808720 10.173104 19.510014 
-4.403309 18.490421 16.408573 
-4.486021 25.723797 12.305757 
-25.041121 -4.095515 8.608918 
-20.104696 12.384315 10.787215 
-10.078231 13.105873 19.914434 
13.339393 20.134724 1.492383 
-31.598845 -11.638391 7.058117 
20.097712 3.367465 12.287753 
21.900347 -11.831018 1.876079 
28.616945 -13.895055 9.488335 
15.283696 23.749628 3.524409 
-17.184134 9.659132 7.469198 
-22.067970 -15.655417 4.078672 
-26.350777 3.547637 21.186199 
-22.510263 11.646525 0.600565 
16.583435 13.291418 2.391295 
-29.518492 -13.195377 1.097679 
28.294611 -12.543760 18.527679 
-30.882113 -16.863897 1.337100 
1.617561 21.330870 18.842916 
30.023092 -10.063838 11.474602 
21.694778 12.861254 15.110158 
-30.410654 -8.466986 14.182927 
-25.359077 0.429863 8.800613 
20.745449 0.588943 6.121909 
23.282158 -13.689782 14.349363 
-13.914182 10.180880 17.207018 
24.569437 -0.419801 -1.010497 
-14.158324 17.926435 3.918868 
17.965054 0.065081 14.047501 
11.582905 17.393074 1.441695 
-2.456864 23.407568 21.380917 
13.863618 18.479473 19.854410 
-23.154463 5.932023 7.980414 
1.254157 26.751017 1.351571 
-11.069777 18.607845 1.766477 
-25.236082 -15.186978 6.916357 
6.370900 22.888683 15.523892 
-12.089256 14.255095 13.772640 
21.010790 16.219503 1.840102 
-23.362782 -16.808933 14.595180 
-5.542398 22.833878 15.063475 
22.316963 13.532327 3.627808 
1.563013 22.621666 2.061978 
-19.304874 -10.961943 14.595614 
6.538357 21.650272 17.397598 
18.494068 -7.173936 14.631775 
16.471340 13.832649 13.216331 
9.926660 15.868038 -4.903933 
-15.992788 22.784304 -1.827983 
-27.405733 -3.074796 17.603800 
-27.676559 -15.079779 0.735873 
5.091301 23.315523 8.380043 
15.055506 18.011494 -1.293416 
-5.645680 26.011999 4.837851 
-18.751448 -4.934488 11.021541 
-19.225145 -8.930637 13.541425 
-19.643559 -4.091517 1.786757 
-31.956478 -7.495217 -0.184235 
-4.828086 23.126492 4.136107 
-28.962233 -4.166073 20.672430 
-24.718655 -10.861295 0.301821 
-17.149965 -1.775190 17.099894 
-19.646053 -12.940768 13.875071 
17.702923 8.494012 12.162108 
-1.234717 20.098522 -2.951961 
-17.883907 0.130333 8.008271 
-21.403549 12.917694 3.323102 
23.148853 5.945059 6.893520 
21.405499 13.796955 5.736609 
18.675261 -3.987024 1.529304 
17.780003 13.591640 0.380963 
22.841881 13.768988 -0.823865 
-22.742540 -0.337849 7.033839 
-21.820417 1.079542 16.721296 
-4.515980 27.445650 7.424045 
-23.503975 -9.874660 9.008121 
-16.208155 5.947809 -0.289658 
-16.676983 15.376674 15.963863 
-12.834621 15.420335 15.641271 
-32.897301 -11.374420 2.024602 
-22.753387 4.522942 17.245359 
22.627253 4.098741 1.784674 
-11.303137 21.870798 1.327449 
-27.899340 3.910171 -1.332514 
-22.505743 -4.540026 0.147514 
10.258379 21.822750 0.937181 
12.187133 12.611817 14.910520 
-10.319813 20.762962 11.368961 
13.089652 25.864180 3.646075 
-31.099840 -10.668277 14.788893 
-4.435086 24.559443 2.828164 
-15.206773 4.442025 16.447697 
-3.773125 24.735558 -0.314060 
-20.995747 1.721087 12.670933 
15.027864 13.951971 5.952088 
0.504127 24.873005 11.858493 
-25.255507 -6.691200 7.798975 
-23.684904 10.003142 20.538700 
-14.391197 9.165054 16.681171 
-18.044270 12.741655 1.146859 
6.128220 27.474340 -2.768032 
-17.591654 -4.563522 15.129170 
-6.442419 22.551743 5.485883 
-23.603474 11.366671 0.664467 
6.297706 13.374862 21.066504 
9.082714 18.697937 0.801961 
-28.658312 -5.524695 11.371861 
-23.802328 -12.355297 6.753585 
-23.557568 13.254558 -1.132811 
21.316345 12.073454 15.708353 
-19.590492 12.548427 3.431915 
8.512195 19.175745 17.393166 
15.266006 7.884392 0.699635 
5.838068 27.762053 -0.432708 
-21.110849 19.033659 3.986537 
-18.068136 -1.465436 -1.537689 
27.431087 -9.398970 8.334908 
-18.525518 19.833549 6.803303 
-16.874826 15.741602 14.514854 
-0.733689 21.332283 14.438508 
29.901705 -13.605721 2.350573 
13.552576 16.112970 1.654736 
28.260965 -3.366267 3.776824 
22.081919 12.178866 7.139242 
-8.435902 26.537882 -1.582146 
-25.146187 -8.691688 8.275257 
3.182649 25.924450 7.871437 
-25.070234 -4.869154 4.317612 
19.462545 -5.988418 0.994366 
20.512400 12.652034 0.123463 
-4.184545 23.887720 2.085567 
9.551950 17.095560 -1.845686 
21.386425 1.947171 1.510083 
-18.840330 2.602010 12.099648 
-23.339283 -16.083723 14.863635 
28.663759 -11.810346 1.027979 
24.887033 -0.413205 12.084553 
12.413395 17.793205 18.117369 
20.788574 13.990699 4.281341 
5.747410 26.222170 -5.758056 
-21.493742 16.810472 0.480783 
4.184005 19.173273 17.383884 
-20.903450 -12.250999 4.821439 
20.225077 13.423338 7.420261 
-18.863247 13.225666 -1.085413 
-2.801851 26.882633 -0.737971 
11.250029 16.346134 0.104991 
-19.169220 -9.957351 14.670719 
30.929518 -8.377519 17.727974 
-2.156037 27.038717 -4.603878 
-29.483622 -6.218151 17.743738 
-11.036689 21.830452 4.245728 
-22.537645 -14.938087 7.247078 
8.867835 20.313894 20.752302 
-10.781780 19.900221 2.757680 
21.793180 -13.904261 4.120178 
-31.202257 -15.409188 13.182660 
-28.619289 -0.402440 14.920443 
14.646193 3.444058 16.391811 
6.737632 26.469379 -4.991347 
18.346333 5.595427 3.054786 
-30.918137 -8.007813 11.115171 
-8.427222 25.718193 -0.179956 
21.574202 -10.931786 13.453001 
12.892324 10.631278 11.844435 
-32.467777 -14.432901 0.446631 
19.577219 2.060766 6.277134 
-4.517132 25.468464 10.225384 
21.078371 2.604362 15.750619 
20.330231 -2.826177 8.733099 
11.626886 20.194874 -2.027261 
11.149610 13.028635 11.841681 
21.887266 -8.778908 11.059505 
-19.039175 3.338428 6.820786 
-23.058077 13.988785 -0.168049 
-28.805283 -1.612236 14.907516 
-6.036094 23.930052 -0.780302 
-0.906019 24.535648 12.115376 
23.645750 -5.982799 15.027519 
-22.128759 -7.757956 4.747941 
-17.540350 -3.671681 17.364735 
5.362686 20.817711 -0.718607 
-19.569000 18.603725 10.262787 
17.681208 -1.567631 3.353536 
-12.592269 16.180065 16.148840 
21.525305 17.078024 2.345617 
-23.177782 10.239156 12.739576 
2.885819 22.464111 16.756617 
-23.132652 -4.751721 7.036336 
20.940369 -9.527132 3.351834 
-21.751881 10.925265 13.930997 
6.862462 13.517872 17.573267 
-17.418715 4.919990 8.757800 
18.272791 -1.863217 1.456628 
-25.317698 8.239651 8.581388 
-5.144485 23.631887 17.036846 
12.680408 8.620629 12.820383 
3.066998 28.230495 2.084858 
21.319057 -6.698213 5.374428 
-20.288740 14.886430 1.664777 
27.616150 2.871754 1.788283 
2.791440 25.784781 1.290463 
-1.059500 23.473030 4.758348 
-21.510363 14.340097 4.264204 
-21.085756 2.602498 14.577324 
17.250084 -2.523976 12.949854 
10.488219 12.783347 12.313136 
-29.599800 -6.174881 19.618629 
-18.319702 16.166727 17.385078 
12.061759 13.585126 -2.444030 
-1.901277 19.856565 15.948629 
31.314638 -6.934676 1.851135 
-12.997557 21.207224 18.153708 
14.867980 13.581481 11.286993 
27.960594 -11.528436 9.898931 
21.814480 -12.854768 14.666487 
13.604823 17.564045 16.577845 
-29.541481 -17.978447 2.868048 
-11.057430 20.829611 8.363050 
10.832756 9.593928 17.035480 
3.285361 23.223869 9.132748 
-15.579950 7.489974 -1.106554 
29.665674 -13.119611 6.471301 
19.098980 20.874586 2.774659 
-26.008938 -17.586447 7.623445 
-10.345313 22.943829 3.341722 
-19.628637 -2.882432 16.113617 
-1.271058 24.367523 6.198409 
20.071793 12.060705 16.798496 
-2.565337 26.315092 1.164166 
-4.817921 21.251312 13.925307 
20.796211 9.006228 13.521321 
-24.628387 -16.289902 7.402823 
-23.141296 13.599809 -3.368323 
32.565178 -11.290183 2.021488 
-28.736824 -3.374577 14.273719 
-11.431091 25.142279 -4.518397 
22.558445 -9.388084 6.340992 
-4.804133 27.513367 0.508939 
-27.036098 -15.837409 0.791692 
-31.689577 -15.298594 10.540653 
15.801754 6.940917 1.221297 
-2.530432 26.756025 15.966026 
-22.226980 4.097435 14.060457 
28.814350 -0.413307 17.284760 
-2.369326 23.865683 -0.503119 
19.450661 6.070330 11.422485 
-16.574907 16.901142 14.730076 
26.464432 3.277536 14.771128 
-11.300721 18.850918 13.463957 
12.927720 21.030737 12.554308 
3.567273 20.365225 11.433911 
4.101459 23.629436 16.661293 
-29.558685 -0.194739 -1.244830 
-24.586296 10.263864 10.936225 
-26.283051 -7.618415 9.875854 
-16.774799 3.756890 14.354809 
-24.618082 10.719148 -3.394589 
21.960363 -7.359159 14.379113 
-3.497079 28.208977 12.350946 
18.945265 -7.243072 19.174984 
-28.767317 -7.290212 2.282990 
10.835690 12.638733 13.588052 
-25.660736 8.013904 -4.111698 
-8.113907 16.257771 16.818853 
3.196654 18.753874 13.086939 
4.922241 15.038172 16.991371 
-25.878883 3.620905 14.552732 
24.035894 9.364074 10.882663 
16.232328 21.245665 4.265142 
17.560295 12.634089 2.084543 
-8.721308 17.717630 -1.258941 
22.287821 5.739142 8.183069 
-17.315298 0.536921 6.821827 
-18.980711 19.849945 -4.104098 
12.563721 24.450748 -0.259337 
-19.994263 -5.972537 6.274095 
16.651073 0.707392 11.128247 
8.075625 19.789217 18.147261 
-21.315224 -11.186969 3.296841 
-16.689079 9.016170 12.753691 
3.111575 28.212337 10.293247 
-28.594265 1.308447 1.900167 
-20.370808 6.505090 6.890160 
17.814669 -4.410956 15.859073 
1.418553 28.174507 12.185989 
30.039732 -5.268900 -3.203454 
-5.594527 26.007677 6.575377 
-17.232088 21.837416 -2.034552 
-17.009014 4.313018 1.083199 
28.493441 1.099743 -2.773522 
-17.897814 5.438905 13.288340 
-28.256079 -12.169727 0.618227 
23.931814 -12.001483 2.687045 
15.070761 12.368448 7.853273 
-0.780904 20.319647 13.965741 
20.046885 -4.630355 6.076903 
-30.042854 -8.212450 19.583265 
16.926813 -1.547104 18.097445 
23.244774 -15.736476 1.003933 
-26.355978 -16.046768 1.162573 
1.359563 21.859276 1.983862 
18.816256 12.913155 14.732591 
21.795425 14.818727 11.567940 
-4.965911 24.211868 6.330849 
-26.136667 -14.886398 7.146782 
7.983617 17.396534 12.932888 
28.818949 -1.913708 2.608803 
-21.876839 4.545845 2.707790 
-18.244457 -1.704400 11.887850 
-19.635035 -8.890255 12.575336 
-28.014145 -18.510054 16.756826 
-11.370118 23.424442 -0.093502 
17.112581 5.683798 4.495266 
-2.651207 23.255495 18.636902 
-8.817545 19.090424 16.367918 
-0.574596 24.313423 5.852512 
13.202914 25.465542 7.708680 
-15.684556 21.855122 9.172433 
-17.802887 12.948446 -0.388841 
-23.229879 -16.966896 12.037166 
20.110643 -6.653261 11.296154 
-18.256266 11.322588 12.500430 
14.481002 15.313311 8.807814 
-12.214132 14.090364 -1.103099 
-14.385151 6.890147 21.122753 
10.416497 24.633627 2.889877 
13.225570 19.142822 2.399085 
-21.527552 17.901930 11.103974 
-12.452953 21.772552 17.062778 
21.195055 -4.911100 10.551152 
-10.535970 23.740499 8.744707 
-28.549120 -1.236428 6.763406 
-21.636679 -11.200302 2.533054 
19.514513 -4.979218 2.292778 
-15.362957 18.322241 16.588511 
-10.000898 16.705706 14.165307 
-25.043036 -7.836617 13.817770 
-19.456713 0.375962 12.940557 
28.389126 -7.661430 0.796223 
26.415169 5.233322 3.074142 
23.108513 5.923734 1.922229 
-7.471233 22.406403 12.713117 
22.481312 7.272371 6.009122 
-16.463772 23.021872 6.980873 
8.771228 20.076395 21.507452 
20.901251 -11.021878 9.662060 
-28.778872 0.767974 -3.491469 
-6.289829 23.206411 19.837404 
-4.313077 26.269325 9.907937 
-13.811776 19.303837 9.213284 
2.973931 22.353727 21.832567 
-15.951295 23.814329 7.633547 
27.524529 -15.091580 1.926547 
17.124025 3.061081 1.237556 
21.694223 10.714253 14.173403 
-0.397769 27.597811 -2.941651 
-3.564281 23.259457 13.145755 
3.807572 28.024818 8.566773 
29.874897 -3.682166 1.397815 
15.120120 18.095308 1.863020 
-25.192606 -9.968490 16.084312 
-21.970663 11.422256 -0.075725 
-19.863266 10.231352 12.692747 
-24.170341 11.769699 2.751733 
2.299989 22.677954 18.853453 
-17.601919 -0.050561 0.839855 
29.777693 -6.387267 7.015665 
-17.672600 5.809573 6.977363 
-19.180233 9.942794 10.711817 
20.876286 6.354870 15.453519 
-25.842670 -18.370186 -0.277140 
7.308470 19.285610 -1.098914 
-18.646656 12.556634 5.199648 
-20.487217 1.912925 -0.064149 
14.481807 8.085048 9.181822 
-28.738626 0.572814 2.302295 
27.855885 0.895443 0.126532 
-17.594904 20.281782 8.811953 
17.008596 13.391337 1.135217 
27.551220 2.420601 15.713561 
-18.767138 4.287335 4.270686 
18.332483 -3.280930 5.264646 
14.177077 9.275093 -3.039797 
-29.034710 -10.097101 1.206184 
19.686268 12.523299 0.114116 
-27.851223 -17.210779 7.992988 
-24.146223 -6.193925 4.709800 
-20.227749 11.773970 14.763562 
15.292857 16.142570 14.874042 
-26.638998 -13.344688 7.126236 
-4.931800 22.434286 16.259884 
16.862612 17.041315 17.457388 
-14.562587 20.907890 6.361432 
-9.683234 27.241274 11.434322 
-26.328913 -7.482527 1.525656 
-19.416103 13.196500 18.930580 
15.698114 17.367374 1.596845 
-8.472851 21.350424 0.123986 
-26.274179 -3.205427 0.208181 
-19.143877 -1.719308 -0.398161 
-15.387569 24.902847 0.314728 
10.525115 18.819290 1.445089 
25.386570 6.030580 3.402762 
-28.461588 -7.328336 13.187127 
30.269274 -6.382993 5.700985 
-28.937458 -15.499540 1.239594 
11.038992 24.601059 2.206505 
30.798681 -7.008748 18.879696 
19.474482 10.378396 16.449652 
22.408493 -7.013351 2.674079 
24.341578 11.179374 3.545631 
23.167282 -3.512850 8.658064 
-11.052999 19.497707 -1.742880 
-29.423826 -0.276136 -2.262052 
-12.828000 15.606316 12.933695 
9.050979 14.285907 13.492031 
-31.957924 -14.079295 12.043901 
-7.144139 19.358187 0.574118 
-23.809990 -1.865078 -0.509573 
17.763071 14.963123 7.845146 
-7.907202 22.648764 17.049934 
24.310913 1.722051 15.894159 
-4.319886 25.503674 1.701648 
16.660770 -1.563623 15.448431 
-31.511686 -14.615972 13.336637 
26.843426 5.378208 -1.052538 
9.490488 12.941949 12.889100 
22.044842 -4.416435 3.405900 
-12.952889 24.457188 11.438581 
-7.604725 26.661860 -0.341100 
-21.793749 7.051448 2.670892 
-27.314497 3.643473 6.202295 
-4.133665 27.041534 13.569703 
-0.783139 25.897127 17.626240 
24.395580 8.096701 14.471572 
22.111786 -3.918311 9.896243 
-32.190662 -11.336925 4.480920 
29.204041 -2.804469 14.642192 
-24.566275 -3.005225 -0.292854 
15.032036 8.864129 0.879982 
-2.320495 25.198715 1.399867 
25.901522 6.703304 -4.193640 
29.636469 -9.450531 13.740490 
-31.933569 -10.264202 2.865482 
10.706419 16.344622 -0.922749 
28.182589 -1.442834 5.835824 
26.459915 -15.971444 6.017944 
-7.447464 25.120802 9.307073 
20.194496 5.951142 4.281148 
27.566677 -13.296401 12.605982 
-32.452400 -14.500157 1.530113 
17.960070 -2.655467 -0.301698 
20.960846 -10.887312 5.064085 
16.932344 8.312874 7.313871 
15.894692 13.245487 13.395121 
-19.260067 -8.959163 20.054153 
12.971725 6.409275 16.127142 
20.671251 16.817444 -4.074744 
21.928009 4.254694 13.480755 
22.432018 11.022348 8.610638 
-28.731937 1.167072 5.226394 
-25.013443 -11.511813 6.775404 
11.059679 16.099590 17.696222 
25.061831 7.659031 16.399595 
-16.828049 17.976856 1.740097 
-30.119371 -16.380714 6.625165 
-16.618843 5.352504 16.159437 
24.126392 11.213538 1.835560 
31.809225 -8.562088 0.350757 
13.063377 18.937666 4.192255 
12.655161 14.992456 13.650614 
-28.095774 1.335808 14.240120 
-15.076968 5.271872 16.138880 
-17.906178 13.978297 14.200584 
5.116312 18.488743 13.540629 
-8.932600 14.497409 18.415535 
-14.741529 17.206709 6.196646 
-19.599377 5.853465 0.715967 
8.273291 21.857687 1.772150 
-18.427416 -1.543603 -3.335860 
-26.301264 7.416791 -1.748081 
-21.566212 -15.630988 6.114514 
20.895102 16.280373 0.113097 
22.077291 14.302060 9.661067 
-11.624798 24.211308 1.496214 
-22.246300 16.630516 3.530514 
17.350363 13.406183 5.010172 
31.719025 -14.109324 3.665473 
23.671724 -4.041511 -0.268440 
27.663576 -1.340979 13.051246 
4.446435 26.234385 9.118538 
-14.928027 8.539537 -2.840095 
17.168045 1.123325 3.101496 
14.971025 9.871934 4.337678 
-5.713073 22.570959 -0.398326 
8.803324 20.420235 -1.245917 
20.569111 -2.230359 6.995205 
24.835747 -16.375654 -2.251171 
21.264021 -6.945768 7.600361 
22.797541 11.764687 8.689343 
-15.411617 19.457537 2.850874 
19.421274 7.785776 10.393037 
-5.421138 25.461550 3.293904 
-25.018749 10.348303 0.789903 
30.673687 -8.359057 9.353094 
-17.339266 1.990066 -3.636721 
-29.592205 -14.582496 16.485676 
-18.967567 -4.040867 7.315386 
-23.807535 10.385429 17.551743 
-20.819456 7.355146 7.054785 
19.230221 7.557945 8.359486 
-11.101879 16.907393 15.899045 
8.957500 19.277220 10.222138 
-23.803833 14.320418 13.842217 
2.905094 17.192152 15.235678 
-20.209616 -7.971186 1.264818 
-24.196098 1.019652 17.336964 
19.305544 4.978730 4.855340 
4.012948 23.347734 18.379486 
-8.195952 23.040335 6.977204 
-15.631886 20.763884 12.482155 
1.293658 28.377020 9.317316 
17.318521 2.168566 6.379032 
-22.992884 -3.305835 7.139050 
-19.683216 0.351669 9.346264 
-11.818015 22.043055 17.995541 
-29.811504 -17.121403 11.445381 
18.119944 -2.628855 -1.658348 
19.446396 -10.129197 13.460241 
-19.219687 1.528549 11.529634 
-17.608889 0.611142 -0.348237 
-27.956264 2.021188 13.467764 
19.500969 7.442061 11.958771 
-27.357908 2.038387 14.055039 
29.203936 -6.224097 3.091377 
-27.281275 3.996382 5.034182 
29.376577 -2.265661 16.495270 
-1.334769 16.807665 20.134167 
20.615076 13.353345 2.115771 
-17.122116 21.694996 -0.573244 
-17.090263 18.730618 7.947870 
18.488676 7.197785 6.220158 
-16.314499 7.047292 9.764345 
21.532246 15.663724 0.104891 
6.473915 23.789856 13.673543 
28.013721 -5.312027 7.743323 
21.182392 19.056555 4.667691 
23.921829 9.236224 16.022589 
19.627787 20.842695 3.406543 
-16.289103 5.564753 10.370186 
-11.145905 26.190889 14.017813 
-22.435194 -5.117882 7.013627 
17.610113 20.639650 2.145472 
20.610109 2.215741 -1.227879 
21.214432 -6.102410 8.291533 
27.744501 1.986538 10.121209 
26.123432 6.393517 0.108406 
21.032206 4.555346 6.382167 
-0.083947 26.613884 9.299163 
25.144297 -3.563150 -0.104617 
21.629375 -12.887456 -0.316551 
-26.585520 -19.063049 15.295060 
-21.151066 -13.431531 4.170930 
25.606247 -3.049011 14.932383 
13.417197 5.550799 17.066202 
-28.696217 -13.886891 15.531788 
-20.425591 11.100873 2.095611 
-21.753199 -6.681324 5.633318 
21.370689 -0.764979 5.913393 
-7.517040 27.641560 11.157110 
29.085958 -12.147147 15.697690 
9.117422 19.794266 9.624520 
14.250176 10.610983 7.488136 
-24.376768 -1.198437 -0.414303 
27.458914 -6.668901 8.617904 
16.085539 6.897067 9.769344 
-17.976295 14.215849 10.048971 
-22.869884 -8.573138 2.298751 
25.791027 -4.696467 5.702657 
14.418177 17.496227 21.163425 
26.399038 0.699161 -0.522271 
29.496450 -1.351259 -0.221667 
-6.138869 18.736713 -1.885926 
-31.947315 -10.737247 10.395871 
27.881744 1.422709 15.892074 
-31.858706 -9.882632 10.266219 
15.046943 11.900943 14.107753 
21.176868 17.498619 0.778879 
-16.742355 21.805464 1.091512 
18.928410 0.870288 -1.074880 
-24.336821 7.125944 5.317872 
20.668442 20.184084 3.575882 
23.279400 -6.608296 2.494883 
-28.596357 -7.967446 1.846255 
28.638704 -0.414550 16.279257 
22.322336 11.111606 12.820380 
13.168325 13.838922 1.551738 
-15.969880 6.006351 12.080761 
-2.561222 23.874285 16.197683 
17.852236 -1.188793 11.277720 
-22.589338 -16.298077 4.287552 
-13.539638 21.562075 -0.910011 
31.582716 -14.107492 4.724230 
25.527851 -5.600522 13.008761 
-15.315440 19.016087 20.168472 
22.053717 -10.997094 1.323483 
23.114874 -4.401433 7.918790 
5.142022 18.905483 17.777166 
-14.654616 15.587209 16.012360 
28.464279 -3.052168 7.344663 
22.175083 3.530180 16.067236 
3.713460 25.038025 5.805118 
2.204111 27.626579 -0.421896 
13.402204 20.904379 13.477077 
20.082161 15.816497 9.006602 
-6.579998 15.363234 21.556747 
-14.212161 12.349770 1.759522 
-7.036634 22.114784 22.078844 
-17.311308 -0.361745 14.335254 
27.788559 -16.723818 7.181932 
-22.473988 -17.703215 12.058798 
-8.949708 22.130638 16.532490 
21.163712 -3.402170 2.409791 
14.320749 4.362707 15.018687 
14.534352 16.649206 2.242688 
9.834152 25.072933 6.053243 
-31.712971 -11.261359 9.529847 
-13.294819 18.113392 17.109058 
-2.546257 27.680401 2.284653 
-22.971739 -11.594396 15.164021 
-27.063251 -2.909100 0.982602 
