23.470556 0.358884 -4.854342 
-27.191023 4.425584 0.220365 
16.567116 25.292847 2.582495 
29.834538 -11.784434 -3.800453 
22.507431 23.180645 3.393609 
25.025917 11.099970 1.096912 
14.906967 24.498051 3.181788 
-18.459333 5.386734 2.490232 
-27.899384 3.162480 5.716126 
-2.899636 27.340607 9.664412 
-25.408701 7.646064 -2.335868 
-27.209551 1.509247 9.981050 
-17.622038 24.579378 3.248693 
17.357889 26.966873 6.721482 
-15.618711 6.459109 -7.067735 
-16.056826 26.493599 2.212268 
4.836042 28.336220 -0.923416 
-5.337966 26.855190 8.990888 
-17.512445 15.143640 -2.892627 
-23.244270 9.086019 7.987723 
-19.629045 -5.239751 3.141683 
27.587162 9.984108 1.743284 
-18.982279 14.672682 7.540143 
-13.750968 20.650534 -2.673156 
-22.129673 3.225482 10.166267 
-5.258951 19.502306 13.797080 
-27.326067 3.421031 9.311170 
-21.759392 -13.280379 -3.166601 
17.453203 2.593463 0.007629 
-24.321236 8.905168 5.960547 
-18.662910 -2.020727 4.854019 
-17.272690 -1.260603 -4.857672 
-10.887455 24.265949 5.409037 
-24.652185 10.978440 11.223564 
-22.766958 -2.879587 9.613162 
25.225945 -4.930248 2.274419 
-14.693251 18.062038 5.844523 
23.279263 12.290158 2.600753 
-23.084732 6.561156 6.112738 
-24.790169 -1.384232 2.769695 
28.459984 5.142727 9.411441 
13.409276 22.588522 4.950813 
0.625188 32.102783 9.143600 
-28.038176 1.503262 7.878532 
-25.936054 8.207871 12.726394 
2.725306 31.064524 8.008423 
24.340057 7.057436 -3.526164 
-26.477638 -12.572827 10.917673 
21.722862 -10.898845 7.296468 
-20.252584 16.048571 8.885964 
-24.505959 -7.877423 8.015950 
22.584164 10.758830 2.392554 
20.670122 -1.674001 -0.550133 
-5.140981 26.308414 5.523808 
20.873875 -12.670113 -4.589231 
-20.741661 4.775178 9.365672 
19.115391 19.863682 -7.216016 
20.769913 17.028597 -0.807596 
-10.950472 21.094519 -2.893394 
-29.915728 -8.216396 -1.791887 
28.115435 -15.215028 -3.355125 
-27.344982 -12.999680 7.041158 
-21.399714 12.053023 8.409269 
17.392254 14.465792 0.734112 
-10.953524 18.221611 -3.802577 
-23.191460 -12.373860 9.683827 
21.377239 -12.831018 0.426463 
-13.652497 16.134663 -1.738634 
-14.564534 21.197241 9.281680 
-21.479866 -6.323696 7.584449 
-17.064716 22.673235 9.861188 
16.505558 22.524080 0.926870 
29.233088 4.166784 11.273255 
26.066019 -14.409489 2.578207 
20.310362 -7.332779 10.457810 
17.391903 10.702423 -5.684557 
11.024747 18.566078 -4.060843 
14.301778 29.127489 9.592753 
-23.189735 -12.385718 4.101742 
2.728302 34.270332 4.798478 
22.281301 10.268566 6.878405 
-2.418853 26.432896 8.710817 
18.371283 22.418856 -5.246682 
-5.003240 31.676229 7.922436 
-18.560127 18.197298 -3.758545 
1.804230 31.672400 11.138166 
23.926813 9.264892 -1.092973 
-9.719810 29.433334 7.862385 
-22.777739 10.039322 -3.768612 
17.583685 22.090378 -11.439591 
25.855179 13.319105 9.176077 
-10.088127 23.230425 8.812073 
-12.905816 24.790066 8.543145 
-10.302863 24.633694 7.635667 
-17.474838 16.100973 0.422474 
-17.933586 1.608290 8.647312 
-29.714951 -10.411275 5.917962 
16.484360 23.327648 -4.276857 
-18.844860 18.576061 1.676188 
-9.762495 26.699236 -3.882319 
19.895107 -1.088982 -4.085412 
-18.821213 7.066922 2.429008 
-24.167416 -13.165295 1.903822 
27.958469 -4.180979 1.923217 
29.583275 1.849032 6.554446 
-27.139395 -11.621500 9.562539 
-3.192669 27.804970 -3.689230 
4.800091 26.365866 -2.160025 
-19.617868 20.889423 6.427345 
-15.526652 9.588534 -2.710322 
24.495739 -6.892634 2.038564 
0.105677 26.291433 4.791415 
5.880542 29.388521 0.950677 
27.299500 5.534011 -3.593537 
-27.374180 4.439452 -6.840700 
16.262903 24.208746 8.609713 
-1.176683 26.219755 -1.983773 
21.128239 17.131445 8.444454 
-21.391033 -4.808001 5.162190 
-10.649733 26.337151 -3.833661 
24.118107 -4.210688 1.904422 
30.159527 0.355685 13.563118 
-26.500408 -14.609031 8.252684 
23.019066 13.688416 -0.869293 
-1.902941 23.606136 -1.858942 
-15.714297 14.229796 3.376734 
27.409613 -16.602449 5.209092 
-25.693005 -12.055857 8.737897 
-24.646650 -8.353765 2.745799 
-21.211607 -8.686288 3.321534 
-28.109808 0.346678 7.636568 
28.910753 -14.184164 7.166565 
-16.692560 3.876439 10.700565 
-0.787552 29.622803 -7.173048 
16.536743 18.128796 2.294465 
-19.617277 7.425846 -0.330339 
19.317579 13.943022 -3.477239 
23.358782 -6.005791 8.210094 
-30.291563 -11.080609 5.822398 
12.282436 25.195282 4.335914 
-12.416628 22.690958 3.437980 
24.424547 -3.679831 0.927693 
-17.269354 14.582776 0.538853 
21.666933 -11.774926 5.129268 
25.625999 8.946734 -3.937877 
15.563857 18.338449 5.995161 
-18.105289 22.720604 13.908295 
8.182369 33.248428 2.228490 
-12.929885 26.771385 3.363189 
-27.646906 -5.466458 3.859403 
21.431250 -10.253517 13.729191 
2.407628 29.916742 -1.081455 
-20.977880 19.288918 12.991732 
19.576096 6.656803 -0.811848 
30.142618 -8.557829 9.323711 
-27.801170 2.728864 -0.417213 
-3.181442 30.461475 2.603932 
-18.843643 11.910154 7.865233 
-26.673779 -12.120903 4.382831 
-24.067892 12.502202 14.042758 
18.430948 10.645849 2.224998 
20.711052 1.329177 6.667668 
-14.350620 10.551039 12.013134 
22.362883 -3.447506 1.738668 
-13.019636 20.587801 -4.333845 
21.691891 19.836689 2.450744 
-18.246565 12.056418 5.068678 
20.197563 -6.295179 10.493335 
21.024218 2.165951 4.334104 
-6.806150 28.398808 7.623625 
-9.708666 28.215569 9.267281 
-6.102800 19.144102 13.808414 
13.917273 16.161098 -5.531549 
-18.742931 -3.954235 8.466289 
-19.625704 14.428734 4.136272 
-24.138485 12.553673 12.824910 
15.377647 26.032848 -3.125626 
20.531298 18.771841 4.740431 
-21.818859 -9.392720 2.997350 
18.773573 6.331137 1.700058 
16.721897 10.732129 -5.236814 
25.768513 -3.982067 2.588480 
-27.076221 5.085032 6.280907 
-18.681416 -4.896913 -6.875664 
16.396353 6.748433 -3.731419 
25.023157 1.790203 3.323939 
-19.754740 14.541350 5.044921 
22.829947 20.317038 8.519563 
-18.087870 3.998077 6.774137 
13.582281 15.375329 -3.667681 
12.615973 19.798433 -3.884452 
-30.397070 -11.336372 8.489390 
-14.032390 27.090622 10.619578 
-28.925205 -3.725160 8.578460 
20.435011 19.441679 8.175021 
-27.515245 0.026448 9.455685 
-16.783554 1.995557 1.154596 
27.114241 6.047632 4.333226 
-5.422770 24.592190 5.833979 
21.535646 -6.228340 5.357095 
-10.057814 27.547915 -3.336406 
-16.719870 20.716114 2.444708 
24.041723 -16.114851 11.955806 
-9.359112 21.679832 6.150727 
21.314482 -5.419764 7.801525 
-18.800619 -3.408109 -0.132723 
-4.248415 26.675636 5.206601 
-13.509149 26.667404 13.118444 
5.067711 27.422203 -1.515194 
-27.946898 -0.516511 7.381145 
-22.537561 -3.836470 2.512654 
21.111721 23.226704 11.005586 
26.408587 3.469373 -4.556504 
-13.304844 17.731869 6.019436 
-1.848181 28.837484 4.183672 
-29.366053 -12.422839 -5.587467 
28.327179 -8.656547 9.679385 
-16.396141 21.806211 4.846870 
22.064566 21.349928 5.446101 
-20.828289 17.547314 -6.642550 
19.102661 18.277563 5.876758 
4.203856 25.801012 -0.239214 
19.093805 25.598116 8.827758 
2.527270 30.435453 13.638541 
2.589155 24.688971 6.794184 
-7.968538 26.607409 1.436761 
9.774878 26.080257 2.341251 
-19.649706 -7.234547 -1.418762 
28.143179 4.349577 -2.036080 
-21.205353 -6.172350 -2.841595 
4.070432 32.531303 6.975093 
19.965378 -1.434323 8.386595 
28.285892 3.772597 5.872878 
-27.966122 -12.526112 7.158792 
-8.522551 18.756138 10.939944 
4.870990 20.760962 -7.802958 
31.189631 -12.982833 6.970197 
-27.558535 2.363718 9.518569 
18.245489 19.158474 2.858903 
24.394840 -7.317257 8.646111 
-22.548491 10.502696 1.098360 
24.751362 -12.542830 -4.508822 
-9.122596 27.552673 -0.780072 
5.456399 26.810678 5.042021 
31.373564 -7.372674 3.195210 
-19.215105 19.685780 8.497291 
2.350952 27.134190 1.850164 
8.565175 27.173918 -5.051384 
-23.309692 13.273020 -6.745976 
-4.475076 23.554419 -3.260489 
12.450538 31.433781 2.109723 
29.167488 -1.111658 -8.672618 
20.595741 -7.891361 -2.890632 
29.497477 -13.991323 -6.971620 
13.192250 27.625954 -6.266222 
0.437675 28.741491 -9.760464 
2.764163 29.713402 8.232670 
-15.509506 23.888554 -1.291869 
3.473605 26.313171 8.261613 
-16.755299 20.835217 3.326828 
-21.473677 15.653286 4.970527 
15.843341 8.317734 -4.511139 
-16.202312 14.045951 -2.053003 
1.995079 31.772743 4.447360 
-19.244610 14.464382 1.555564 
3.813321 30.781992 4.388332 
-23.938292 1.351074 -4.158440 
-19.397388 -4.845814 8.415820 
-14.803571 24.045803 -2.717825 
-17.294142 25.138273 2.092242 
-7.351699 27.978712 4.230192 
-26.875198 3.058513 2.135960 
30.753237 -10.814386 1.997689 
18.743349 5.435667 9.771277 
20.250664 -9.098359 -1.451753 
15.860055 19.325830 7.575392 
29.820482 -6.447304 1.611512 
15.805984 22.359730 -5.081922 
25.871233 -2.176797 -3.419865 
-17.305624 8.780179 -4.729309 
21.428761 -13.970145 -2.500419 
15.711022 7.687481 -9.476780 
27.473639 5.049662 3.369880 
24.500988 -4.547587 -4.219392 
-8.916062 28.489948 13.771648 
-9.586512 26.140064 1.566733 
-3.653021 26.447704 -2.624117 
17.080132 11.559487 -0.392187 
-26.473139 -14.375384 7.505967 
9.963367 30.337809 10.790004 
18.163889 18.072910 6.944837 
-29.297865 -2.631428 9.761792 
28.478952 -0.577484 -1.032181 
-18.090347 6.461245 5.108354 
19.712879 7.720171 0.610083 
27.932947 -13.901700 -1.628409 
-15.313667 14.046419 -2.335000 
-19.369053 11.243518 8.392584 
-22.799892 -1.555221 2.231581 
26.629572 6.095431 -9.560789 
-0.821718 29.196306 -8.510411 
-20.833517 14.997622 -0.951700 
30.939613 -7.256812 -2.828397 
22.435057 11.741168 3.736552 
-9.836662 17.547091 -7.121097 
19.689442 -4.641174 7.331791 
29.832354 -13.354835 -1.835168 
26.904993 6.391332 7.436098 
14.509546 23.431734 -7.083053 
-29.533985 -5.418240 -0.871616 
11.573599 30.379597 8.919617 
-17.841970 8.512280 0.812076 
-20.943209 -8.348353 6.785993 
15.028058 26.199600 2.332692 
6.722895 32.455727 6.524653 
17.281353 -0.881565 -2.983777 
26.803038 -2.590485 2.726908 
-17.570389 4.375192 7.419595 
10.688587 26.341095 8.364964 
6.994504 20.813356 -5.209032 
27.258768 -13.068627 3.180141 
-27.357140 -7.961820 5.811974 
3.270056 30.359636 6.123048 
18.719620 21.915604 -4.065060 
-28.653791 1.401251 -5.355653 
1.110223 25.787918 -1.173698 
17.902822 17.840761 -7.909390 
20.629095 -6.246667 -0.582693 
14.640034 22.196007 -6.597772 
-8.429066 25.624786 -0.183779 
17.034157 10.940077 0.525467 
-23.546329 11.173559 6.954368 
-3.113266 32.002964 8.163763 
22.171654 0.254950 -1.293468 
-15.950147 21.235107 9.158251 
15.733844 14.813302 7.144388 
-22.847897 -12.943975 7.954709 
-12.639874 27.114403 -0.980952 
-1.558416 30.350266 0.267372 
29.551847 -0.693345 -5.385858 
-23.289377 9.394267 -1.733936 
1.714131 26.588097 5.256385 
-24.572056 10.768961 -6.025839 
1.224883 27.911247 -11.769839 
19.160387 7.233442 5.883163 
12.049834 27.689678 -6.516107 
17.852381 -2.215870 -5.468789 
-7.773656 25.909912 5.538462 
16.410465 22.488939 -2.530916 
3.978488 22.087534 9.259922 
19.878368 -1.855274 12.509419 
-17.727196 8.032191 7.533298 
-10.130250 27.919584 8.636512 
19.400839 11.953987 -2.039219 
10.765221 24.326141 -3.077891 
-26.715382 -12.607613 1.636520 
29.878321 -7.883083 2.335101 
20.670099 -11.313445 -7.088339 
25.907042 4.531566 2.537474 
-2.586085 34.020935 5.294548 
-29.208973 -3.595794 -1.734732 
17.492052 15.110725 -6.938222 
-10.769366 28.824694 8.831072 
-4.418968 28.221033 -1.631559 
21.992014 25.111994 1.558342 
19.461500 -9.087749 -5.961390 
-16.068411 13.904658 6.536674 
21.543720 7.893709 0.808945 
-17.488207 -0.406183 -0.304193 
21.607473 17.030954 -6.813877 
-27.151997 5.431753 13.018379 
-19.724464 4.574507 9.040648 
8.979517 33.645081 3.072886 
24.528893 -15.382452 -6.652521 
28.047447 8.904641 4.920013 
12.705233 26.946728 -9.268288 
2.053956 27.868132 -11.786545 
-28.499485 -3.170542 5.563222 
20.711721 24.008379 0.890081 
-27.107862 -6.005874 11.502016 
10.389010 24.594088 7.023904 
-23.156656 10.470074 1.752588 
24.237766 14.221112 1.353764 
-4.012181 21.377451 10.676557 
-28.446476 -8.103062 10.045370 
14.877955 15.065070 -3.392353 
2.101801 23.565737 -2.494461 
-24.244207 6.415489 7.264082 
-29.921942 -3.066965 -4.413318 
-28.452328 -4.779473 -2.165402 
-16.455149 15.481808 1.127833 
-27.594185 -2.288832 5.438348 
27.214952 3.684155 -4.298914 
17.823122 0.028285 -1.367954 
-7.496844 29.310837 13.017196 
21.148283 22.246727 13.502258 
-13.214602 26.438215 -6.660267 
-1.855562 24.966293 -1.975987 
19.671638 1.814481 8.300677 
7.355473 26.265474 1.082590 
13.717194 21.408335 -6.299644 
23.933205 -8.394012 -4.975250 
-17.074862 14.035563 7.357633 
0.741936 27.849993 4.361420 
27.989594 -3.596312 9.348873 
30.054123 -5.630448 -6.921882 
-10.857427 24.757278 -3.922862 
15.578344 24.776564 7.236095 
-0.105435 27.605246 -3.551450 
-27.606321 3.375191 7.867509 
22.174660 11.585775 2.143192 
15.370215 22.225119 -6.037330 
4.077335 28.078016 -3.466134 
-22.396555 17.142414 11.800625 
29.693928 -5.924874 -3.800245 
-18.495718 10.998734 5.255106 
30.993814 -13.046531 3.110776 
-24.050150 -7.773014 -3.492823 
29.192795 -12.423033 3.155823 
-11.941537 23.495302 -6.392025 
-16.640398 21.452858 7.802243 
23.989330 -8.464201 8.954754 
10.729703 25.032761 -6.476090 
-25.310272 -10.468700 3.174977 
-24.114559 -3.677189 3.056024 
0.110863 27.424746 10.248114 
-18.186462 5.843613 -1.802186 
-16.864983 23.977036 13.886472 
6.228040 27.866005 3.738011 
22.469093 -14.325639 5.918247 
12.629170 27.682133 -0.330529 
-2.318226 26.317818 -1.952694 
-30.289686 -8.543842 10.876976 
-20.701441 17.164896 9.171287 
5.310176 33.840229 4.616160 
-14.256780 26.421518 12.640677 
24.249203 11.706426 3.725802 
-24.337467 -4.120251 3.899684 
-10.682597 27.617893 3.979189 
28.833063 -12.194984 -4.065730 
-11.099177 23.539330 3.933481 
31.252756 -10.688684 -4.351543 
-17.903906 15.312548 8.740421 
-17.532173 25.345182 6.981704 
4.869871 20.535313 -9.240514 
17.089264 20.940264 -2.430291 
31.961836 -9.027964 8.720120 
-28.086094 -3.905104 10.461386 
28.888712 0.345220 2.873354 
-25.518585 7.656329 0.397392 
6.103899 22.438997 7.588577 
-29.237631 -5.043947 -1.545692 
14.344304 24.233887 -7.273993 
-22.994106 -5.136653 -3.086902 
-4.075468 24.827785 -2.435381 
18.313810 5.687382 1.710609 
27.829632 -0.574476 1.640263 
22.008884 3.773552 5.781392 
-30.017241 -9.280427 3.033908 
19.485758 -2.167793 -2.911252 
-26.354237 -7.985410 11.862234 
-18.601183 10.225087 8.331375 
14.874999 20.914289 -3.124996 
21.677542 -10.969506 6.273821 
-15.674759 7.085837 11.181811 
-24.913877 -9.530307 2.843698 
-16.817150 14.882022 1.614119 
-28.167658 -1.208181 5.932197 
-24.965105 -4.534149 3.543206 
-3.173490 27.935329 2.411326 
-20.464561 18.488033 9.230437 
3.889608 28.525490 4.286020 
6.944157 27.825634 -3.131662 
18.853848 4.601256 10.747423 
-16.240229 3.093632 -4.418062 
9.743231 26.547260 9.070806 
26.193356 -2.587993 -2.258591 
8.405242 30.710770 10.683205 
-25.727453 8.198698 -6.020516 
-19.890726 -9.619010 -1.554106 
26.528952 -6.548725 -4.761586 
9.400170 29.533325 7.778367 
15.165737 29.791914 6.902294 
-13.142040 16.345345 -3.923877 
19.957964 15.011197 -1.571174 
27.408901 -14.961357 0.699163 
29.542238 3.176001 12.446684 
-22.580666 12.947339 -4.777174 
15.337785 25.223024 -9.784051 
-0.137194 28.358967 -2.582914 
-4.205717 34.473465 2.846326 
19.690765 15.680149 -2.974399 
-2.123577 26.886093 4.526019 
-29.009409 0.138812 -6.052971 
-19.698969 -2.953894 0.776259 
-14.406111 11.051919 -5.453819 
21.287794 7.287009 -0.458242 
12.547906 15.889412 -5.257715 
22.939938 -11.556847 2.187120 
-19.038736 0.651487 9.289574 
28.752275 -8.538301 -4.540669 
19.474010 10.763973 1.556415 
-4.815799 31.215069 10.099550 
13.004522 15.904118 10.618351 
21.581476 9.558981 -1.896575 
22.511784 -4.631323 5.750284 
-17.848063 10.572505 -6.018928 
7.958663 27.686899 -10.588480 
16.296970 25.262566 -4.988075 
-13.805687 22.026720 -2.804557 
15.205862 15.649604 7.193314 
-15.240122 21.543152 -3.820719 
16.562376 23.230032 -3.475122 
3.139097 31.122437 5.113131 
-14.302393 24.195080 2.960594 
4.747603 24.530293 -2.797957 
26.919453 -16.488905 13.716057 
-19.441652 5.449658 2.516494 
-20.608437 3.644598 -4.265088 
-14.816753 25.566113 13.853870 
22.704170 -13.689980 13.740221 
-20.179363 -1.107875 6.543411 
-25.444750 -1.675249 3.418221 
-17.619379 -1.624386 9.581763 
21.709469 11.525602 2.780228 
19.093979 14.132837 4.404173 
22.562510 -1.846685 9.536829 
-15.519893 7.926734 9.193564 
-19.614515 13.650941 5.435478 
21.420952 20.563763 1.370061 
14.723536 19.809608 0.111323 
-22.728588 -3.492048 0.386451 
10.371700 24.796947 -2.216167 
15.156214 19.235424 6.707338 
15.948409 20.710680 -6.809146 
-28.947548 -10.387697 6.139099 
-21.875074 16.323048 5.961854 
-17.513147 23.660326 5.692544 
24.309423 13.758850 8.252854 
-21.841068 2.347605 -4.417746 
-10.927323 27.231531 0.898488 
-3.527197 32.465378 2.987167 
-28.598570 0.017487 9.373191 
24.468082 -7.251606 6.728851 
23.920277 9.995396 -3.396728 
5.214908 27.610321 -2.679157 
16.943033 11.276647 -2.706009 
28.108740 0.598238 3.199828 
2.100330 29.046625 4.544169 
3.744061 27.159950 5.265972 
14.284903 26.047224 10.511482 
-16.324945 22.517334 -10.578974 
27.167713 9.026156 0.605639 
22.170177 -12.343094 13.736264 
-27.402321 -14.052414 -3.691206 
-29.202015 -12.942296 -1.477951 
21.402241 2.416767 2.994572 
-18.231361 -4.498594 -1.944571 
-24.686184 -12.951378 5.215543 
-7.030249 28.975506 -6.320779 
19.212729 6.073416 -1.649219 
2.319868 31.631895 7.147890 
-21.085308 -4.648478 -1.593211 
16.888092 10.288527 -2.420782 
-19.629150 -7.603711 9.453548 
-20.581221 -11.231517 -0.684859 
8.454120 29.364597 0.954507 
-26.624605 5.382535 7.821530 
18.935143 20.961327 -4.109190 
0.210426 23.496355 7.582296 
16.290930 24.170979 1.668451 
-19.942896 -8.502193 8.326949 
0.331454 25.292791 -0.823586 
26.705172 3.915255 7.275256 
-12.263933 15.143629 8.457683 
4.810836 26.070091 9.392411 
22.224741 18.848511 4.041563 
25.388918 -0.089106 10.103732 
-25.802021 7.949393 -7.133863 
27.559584 -12.920869 6.878073 
-28.952168 -11.566014 10.882028 
20.546734 -8.020074 2.802531 
6.029433 24.228611 -2.554276 
30.414452 -0.671863 13.567727 
10.919750 26.398354 -3.356551 
-19.455635 18.815550 1.145837 
-23.578310 -1.405231 -0.613482 
14.382193 15.895672 -3.217573 
21.048019 -10.366343 12.152194 
14.705020 19.669067 -4.488887 
-25.080282 5.793067 8.848595 
12.168700 30.314785 7.828455 
28.569859 -16.803923 7.940831 
-18.296350 20.830898 -9.201028 
-14.921499 14.734084 -5.749857 
21.826635 5.145714 2.513514 
20.810083 -6.032171 13.705809 
-19.206253 16.385298 -2.220282 
-4.691801 28.153301 -4.115266 
19.443962 14.217087 -1.577300 
21.283007 16.354862 -10.778209 
-0.422647 22.668913 8.837381 
2.234851 22.198423 -4.205540 
-2.020869 30.756296 4.623615 
24.590689 -7.385649 4.050063 
-21.975992 -13.196738 -4.340643 
11.054017 28.510391 5.140514 
-15.014812 19.479614 -2.734260 
30.949438 -2.985414 10.575421 
19.007246 0.186708 2.580636 
-21.181236 -5.733422 3.957694 
10.296425 27.499617 7.906723 
31.202917 -3.935151 11.289960 
-17.051502 18.208307 -7.093918 
-9.942393 28.801104 11.635983 
-29.625000 -2.371287 -6.914922 
14.298588 18.045645 -0.386238 
-19.493607 10.382276 1.663751 
28.693581 -11.786856 9.954078 
15.386874 12.435624 13.631742 
-30.017359 -6.100672 4.738806 
19.897799 7.688794 6.104093 
10.282187 28.040117 2.608877 
20.971905 9.234128 -6.118815 
-22.496696 17.104870 10.031997 
-14.341252 15.338333 -1.467654 
4.227481 21.098330 -7.307402 
-16.808117 27.109930 6.423674 
-17.269941 3.441977 8.370978 
22.860487 -6.493074 7.752728 
16.973145 2.662279 -7.184052 
-21.300669 7.494519 2.899644 
-4.942774 28.977163 -8.182816 
-7.910199 31.578888 6.403828 
20.229965 8.510459 4.360916 
-22.684149 9.990987 -0.231159 
-4.594073 25.882204 -1.131688 
18.958046 18.209635 2.286971 
0.970437 27.151733 1.520254 
10.083866 26.476309 4.715602 
14.567486 25.722538 -10.054004 
16.078667 25.365881 4.567314 
-4.854019 31.531717 4.448460 
-18.395105 14.291568 6.858141 
17.439718 12.634253 -0.549285 
20.585985 9.789698 1.411129 
22.310333 7.422490 10.682628 
22.943865 13.203166 -5.189687 
15.921499 22.526361 2.519947 
26.367035 -0.503818 -1.906447 
28.338108 -13.979654 -3.308584 
-10.738807 27.622395 -4.049208 
21.590612 16.934124 9.065886 
16.659813 20.999989 -5.976051 
-22.630089 7.188801 -3.419112 
-19.822643 -8.736725 11.625514 
22.473616 -14.022554 0.178526 
-22.839491 4.663825 2.745157 
-9.908277 27.625248 2.385841 
16.000717 16.017090 -7.562015 
19.717302 20.152977 -1.771224 
18.300802 -1.332092 0.823116 
4.576149 25.257582 -4.575780 
-25.045631 10.553160 3.262116 
30.223404 -9.590646 -3.964038 
2.096417 27.319885 -1.981444 
-18.913019 14.375811 6.272761 
-31.053650 -10.178360 7.165129 
-22.952761 0.060621 2.617456 
-1.711034 21.129337 11.960812 
16.878073 1.412187 -3.994170 
21.911554 9.854185 -6.175291 
16.256222 14.349283 0.513077 
28.968660 0.264414 -2.823579 
0.787868 26.798321 -0.962821 
-29.146519 -3.806467 4.521887 
-13.506756 16.453686 -6.122057 
-22.627548 6.991453 3.225468 
0.083498 31.674831 11.260611 
25.494884 -12.262801 9.778147 
21.871187 -14.032542 9.743094 
-15.126526 8.066050 -6.485622 
-19.333366 15.185803 -1.898872 
-21.466135 13.367784 5.194044 
14.349683 17.117903 -2.026808 
-4.369144 29.800093 7.690110 
-19.362505 4.372790 5.520853 
27.064590 -0.707207 -4.027341 
-2.326905 30.631058 12.933113 
-15.211964 29.365675 4.402586 
-14.181099 27.384251 9.152337 
-16.694956 3.833077 12.238338 
14.832323 24.500639 -11.685153 
-20.461512 5.836993 2.435713 
-17.411272 2.227443 14.046012 
5.630267 23.271585 6.397867 
27.190174 -6.139437 6.200022 
-22.997498 3.276672 -1.397610 
27.392466 -10.047688 -4.843840 
-12.181981 25.582283 -11.097959 
-17.837351 18.396034 0.802450 
-16.371166 3.411528 -6.596294 
-21.409859 -11.360491 7.602736 
24.473970 11.872918 2.637744 
-2.119223 24.872389 5.982252 
31.731731 -13.476409 10.348605 
-21.721600 12.189753 6.604537 
-21.719170 10.170599 -5.391985 
20.793728 -9.328589 12.050072 
-27.534191 -9.173104 11.965826 
-14.928019 22.948633 8.492540 
-30.657290 -6.602762 8.510483 
23.529800 9.491698 1.192141 
20.108538 20.027575 -7.678126 
20.565844 21.310390 8.109388 
-19.445370 19.495447 -8.353694 
4.390687 28.986507 -1.662932 
-24.418341 -6.347255 10.949896 
24.770386 -3.853328 -1.623156 
-19.831533 -3.637671 3.345773 
-15.776114 12.174306 0.935535 
17.886127 22.630430 7.344673 
3.487770 29.358221 7.456848 
-14.332563 20.747490 -4.011256 
25.840054 8.991332 8.132454 
-18.415804 23.051722 11.084577 
18.311201 15.864722 5.243685 
-8.807719 28.191914 -0.392987 
-0.606120 31.824369 4.382248 
-17.472309 -0.322211 6.907552 
27.519430 -4.245706 -2.567632 
22.564129 22.009544 1.447865 
-4.838795 26.929153 -5.311625 
24.092226 -15.671376 -3.878873 
-30.841848 -10.809105 14.278295 
30.835718 -6.588614 3.134754 
27.102673 10.074810 13.526253 
-4.616200 25.805944 -4.988765 
-20.633247 6.086066 -1.078492 
-17.372278 10.392721 -2.516083 
4.303480 33.781799 4.632610 
27.619888 -13.910909 9.598468 
26.307880 10.782820 6.122094 
22.305222 15.254387 -4.480610 
18.221640 18.219652 7.970271 
-8.086641 18.018661 13.837065 
-25.486664 8.807640 10.585837 
-21.131229 -4.572382 3.344428 
-1.251366 23.250387 -2.184521 
-20.902878 2.593091 1.716341 
21.560192 -1.663159 2.120898 
19.719753 17.317205 2.092456 
17.500839 10.635194 2.099790 
25.362848 14.739732 4.914396 
22.946489 -2.875915 -3.909991 
26.049942 6.528873 9.632114 
-8.931957 23.578011 -1.050887 
-19.912432 12.364246 8.027624 
28.973650 4.984836 12.362767 
14.088382 19.648922 5.031052 
-13.332495 29.863510 4.925095 
-13.243153 27.698637 9.726916 
-15.315943 20.555471 6.505985 
-19.788649 16.890646 9.243992 
-17.137556 9.364535 7.393151 
18.546909 11.704253 3.411135 
29.589287 -10.884765 3.480920 
-14.739342 20.121935 -2.350391 
26.824734 3.256402 8.922141 
14.119658 12.295726 -6.643553 
9.923439 27.782467 8.987252 
-3.497988 28.842194 4.231349 
28.827095 -2.964685 -2.555504 
-11.594165 24.133200 10.308056 
2.255866 26.244535 0.984572 
19.988869 -5.512967 8.498460 
1.182978 34.171295 5.568984 
-8.653589 22.595461 -2.829236 
12.348395 18.586676 -3.262362 
16.271669 19.560848 3.373737 
13.582010 30.237413 2.334437 
-10.598116 20.495518 -1.614160 
12.341964 14.290894 -10.262321 
-21.848354 10.763908 8.788424 
18.159004 -3.331762 -5.160155 
-16.000210 6.206463 9.799320 
-21.225700 18.409044 13.971335 
20.684753 -4.968299 13.699592 
-22.999908 0.220138 10.439936 
20.661732 -5.854809 0.143780 
-23.661169 -11.187299 -2.827443 
-28.332096 -12.271387 9.348657 
-1.137980 30.551430 1.929434 
-30.016537 -7.945867 2.618041 
19.955738 6.419593 8.593045 
20.513819 14.192501 9.354413 
8.757879 19.919130 -4.824775 
29.558996 -5.862294 4.828584 
-24.726749 -14.252772 -5.470026 
-5.473853 26.467613 -5.572667 
23.389965 -16.456495 8.006924 
30.233551 -7.002183 1.000963 
27.960859 -14.802822 9.247958 
-21.218855 14.416453 1.666298 
18.604467 6.214004 11.070740 
20.579330 0.526534 -4.604538 
-18.142914 -4.738091 -4.034198 
27.780043 -1.675913 1.151181 
-24.190289 -13.856865 14.230480 
2.146470 28.694939 -3.553518 
-29.555792 -5.800147 10.825474 
-10.634916 16.343554 11.900517 
-12.077609 28.178356 10.352811 
8.433993 25.160753 -2.396502 
18.711971 21.420197 -2.820537 
16.687256 14.352820 -3.114470 
-21.149668 -10.575495 6.798722 
5.067361 26.851063 10.189361 
-2.642391 30.607409 10.116439 
17.055531 27.272217 9.950337 
30.096338 -6.074301 8.324407 
18.813084 26.056805 6.236796 
19.637545 4.915440 3.462678 
26.095947 2.636086 -4.675518 
25.863344 -15.334695 5.359031 
-20.096739 19.151690 -5.457471 
28.111177 -1.226066 -0.688710 
-21.559002 -7.877706 -0.030109 
-28.809736 0.252821 5.022195 
-26.565359 -14.676793 9.535516 
-8.019369 26.050583 -4.006985 
3.897042 29.677816 -6.147931 
-30.388025 -9.318189 5.988723 
-0.634900 27.839064 10.688821 
-13.465142 17.381107 -0.692252 
-15.991080 14.731155 -3.210544 
-22.827108 -5.848292 5.788670 
17.895643 -0.142722 -8.496329 
-13.996683 25.691021 3.476791 
24.323034 8.683695 10.890965 
-27.523407 -2.364005 3.757939 
-16.580624 12.748940 1.704596 
4.616038 22.010654 -4.103915 
10.116245 28.353180 -4.751826 
-22.166235 -11.369830 5.834164 
28.442184 6.812427 11.489339 
1.910613 30.048445 -0.282006 
-21.512308 -2.996964 -1.180824 
-25.629065 -8.960099 -3.353293 
28.138199 5.004108 -3.551173 
25.139772 15.995111 12.615591 
-18.481266 17.314295 6.892857 
16.011839 24.924715 1.704473 
9.780336 29.973640 3.339274 
30.267569 -13.987069 2.770324 
31.218307 -8.437432 2.211998 
20.816851 -11.500649 7.831382 
-30.240934 -11.878922 14.279593 
-13.028981 18.075706 -3.386427 
-8.213705 27.184326 2.703669 
5.843697 33.048573 2.827667 
-5.941628 27.697424 4.481856 
24.213024 2.784676 -4.977542 
7.052278 29.984722 2.328103 
-18.799328 4.494769 2.665206 
6.350034 26.430902 3.959830 
-25.373100 -4.912939 4.421086 
27.954233 7.715533 1.733236 
-27.602802 2.996912 3.350702 
17.638565 14.083733 3.561169 
-19.633572 18.049965 -0.741061 
-24.126190 12.641764 10.750462 
11.994108 18.217279 8.900726 
-18.076126 1.710039 3.542911 
14.928046 22.371737 -3.688323 
12.927552 25.964273 -5.093998 
5.136758 29.775160 6.684829 
-18.901615 6.175920 4.962053 
19.279007 19.186094 9.215343 
15.754834 18.084295 -7.896626 
-8.618250 18.269817 -8.969750 
-0.705777 29.557589 -2.034358 
15.816073 14.358582 -0.398082 
0.128813 26.742653 -3.412820 
-23.020573 -6.707943 4.346354 
-18.665115 20.407850 -1.239791 
-14.282299 28.179718 7.755198 
23.220261 16.648256 7.299858 
15.384108 26.041639 0.920238 
-12.674505 15.571470 6.682733 
-23.092316 -9.447826 -3.228616 
22.013586 -6.074823 7.721570 
-13.596518 14.036840 6.026579 
19.293964 2.229198 -4.407225 
28.363615 -8.626328 2.920221 
-13.759600 26.537395 2.042338 
17.882473 21.113033 -5.541208 
20.666409 5.333076 5.365357 
-22.471315 -11.949883 6.310361 
-3.800777 21.316605 -7.011578 
-3.795387 23.092747 -2.455542 
8.835593 26.616329 2.630716 
29.750544 -5.676414 -1.581689 
17.456467 7.546371 -1.057732 
23.768696 13.692402 1.681413 
-28.194836 -0.488003 2.601752 
-17.947023 17.940559 9.309195 
11.224129 24.003233 7.386627 
14.110985 25.000118 -11.731952 
-13.359572 26.325687 2.847277 
21.387213 -10.267599 2.433265 
18.537090 7.896257 -1.579355 
25.227949 7.016962 -3.311351 
29.631721 -3.908664 5.557628 
-10.762476 25.203333 3.206355 
-14.415433 25.104950 -2.812305 
1.104122 33.689362 6.357886 
20.900896 11.431807 -2.751657 
20.525518 16.176155 0.526281 
-29.232840 -7.778740 5.880485 
-29.502291 -1.491009 12.115905 
12.432400 28.821507 8.235143 
-5.691508 29.683367 -3.709467 
9.980523 24.406532 -5.028305 
-27.895035 -5.008348 11.103946 
-19.049196 -5.655467 11.193879 
26.018124 -11.747657 2.055410 
-11.914876 23.379057 3.619007 
6.042294 27.519964 2.070295 
13.294689 30.088978 7.106746 
1.136377 35.006798 4.108349 
-10.418063 27.212267 0.217940 
0.952250 21.420374 -9.011298 
-21.634750 7.713196 6.059929 
7.494888 33.659805 4.165605 
-8.972145 28.239983 -7.404634 
24.868118 9.769826 -10.000956 
11.527801 29.228127 3.605988 
-15.909003 17.277346 -7.127307 
22.910595 -5.119838 8.585280 
21.276546 -3.659834 -0.990094 
-12.926829 16.200420 -5.606886 
15.051792 25.966194 6.778457 
2.259431 30.101425 -2.746049 
1.534045 26.408281 -1.541738 
-17.811262 -0.185356 7.764409 
-13.657495 15.721090 -5.878713 
-11.459789 27.071836 1.796533 
30.677687 -0.710562 11.029814 
6.986628 25.583513 9.693096 
30.643909 -12.026903 -7.263433 
-23.206675 8.339320 7.312419 
-28.077631 2.952864 13.206820 
-14.120567 15.205828 -3.071316 
-16.106661 20.483852 1.287099 
-2.802567 29.998482 -5.299399 
31.031179 -10.726317 -5.664412 
-7.808822 20.779097 -4.098837 
17.652216 -2.144856 -3.394260 
16.638302 4.970918 -4.396025 
30.451557 -6.826133 6.893226 
-22.278513 6.459366 -1.346882 
-24.234556 -9.623982 -3.304875 
16.835144 3.527097 -3.516433 
26.675585 -6.163772 4.343112 
-17.807491 21.680893 2.416811 
-24.447842 8.195473 4.821391 
-30.272810 -4.680007 6.956325 
-26.536127 0.045205 3.109718 
15.763617 21.731894 0.452056 
31.708677 -7.029534 12.441860 
-28.626108 1.441330 10.245678 
25.892763 -7.236007 -4.935590 
31.706635 -9.083066 3.413194 
19.871162 25.208710 1.336363 
-1.658935 28.784529 -4.019486 
-18.550167 7.725018 5.614759 
20.278151 7.142496 -0.710367 
-7.924042 24.495665 -2.416141 
-24.963688 9.828629 -6.506519 
-25.041479 10.273972 11.914721 
-1.705284 28.979544 -8.984506 
-11.601214 27.239803 -4.145985 
-24.984390 -9.358739 11.524625 
-12.092207 14.960907 9.572692 
12.295707 29.905378 7.017116 
1.949444 32.734814 3.591814 
-17.266470 10.380603 6.484382 
19.568098 -0.564689 5.148269 
4.337756 29.531410 8.705111 
-30.912598 -7.848444 -2.951341 
-28.496830 -5.068655 4.733811 
-20.230000 18.163435 0.875491 
-28.051224 2.184777 -7.562368 
-18.960560 12.403173 3.540239 
-16.995363 -1.219134 -2.188304 
21.981833 9.961528 7.880715 
17.231552 2.471687 -8.825458 
-11.884997 27.202105 -7.130251 
-17.219458 22.794207 -6.077081 
25.055641 -14.902600 8.878506 
4.662014 27.834562 4.025693 
-21.129734 13.135380 -3.773650 
-20.988161 -12.137245 0.888972 
16.809828 26.246698 2.549269 
19.131582 27.078344 1.858061 
-20.297304 -11.915840 -0.095657 
31.088409 -9.237126 -5.319682 
-17.094221 1.853320 8.269769 
21.301134 11.372325 5.111969 
31.222252 -14.350367 12.156669 
-4.757596 26.297812 6.247523 
1.277947 27.507317 -3.781140 
-21.640394 -11.185178 6.544765 
1.349791 21.740875 -6.291844 
25.900858 6.997762 1.646320 
18.857027 18.258945 -7.644842 
-28.153002 -12.335249 3.785005 
19.371496 0.657029 10.737843 
16.196766 22.151033 -0.905149 
5.020747 24.759586 5.157898 
-20.671843 9.487737 2.410099 
-30.643976 -10.503074 10.769035 
-17.620163 -0.363723 11.733823 
-29.653435 -3.736552 5.746141 
-15.799655 17.489746 0.698479 
21.748924 -11.265182 13.733033 
20.381845 -8.400300 9.137586 
-18.424246 -1.257071 14.081222 
-27.644144 1.104475 -0.136492 
25.698891 14.973941 3.220205 
15.579097 25.879295 -0.110883 
22.212221 -6.681810 4.730968 
-19.750700 15.066166 7.514056 
-16.987715 9.318100 3.422942 
6.243001 19.704842 -10.816095 
-4.735054 27.306221 8.777596 
5.383661 25.936489 0.106009 
25.971134 -15.444835 -6.683254 
-17.541861 25.864607 4.114018 
-4.476077 28.574383 -0.033573 
19.925312 4.896835 6.091645 
-21.524572 20.073372 3.844566 
-30.739195 -6.606809 -3.617594 
17.918194 4.909993 1.416665 
-8.501719 26.150318 9.232253 
9.677126 22.541130 -2.315818 
-22.419573 5.969126 3.681498 
23.752760 19.065741 11.221040 
-23.222153 8.697429 0.304709 
27.244926 7.981472 9.521232 
13.476097 32.310406 3.711560 
-26.921814 -11.988705 6.529819 
1.605165 27.442459 2.122611 
28.811373 -14.344158 9.355510 
15.129443 22.338726 2.695556 
-14.013622 23.175341 -5.170983 
-12.301826 27.607546 7.990505 
13.086593 18.036440 7.389632 
19.715448 -4.246691 9.845364 
-22.657904 -8.548108 7.291604 
16.001614 7.324408 -5.161192 
-15.896981 7.040590 8.107862 
-24.069378 11.831762 5.705322 
-17.687641 10.959356 3.281698 
-5.010317 29.044115 7.770126 
20.584463 -5.721583 1.011011 
-18.723408 1.634431 9.126643 
28.685965 3.419826 -0.896331 
-3.027535 24.706615 -2.686055 
21.459143 22.789968 8.586157 
25.312790 16.272709 5.945776 
22.897682 -13.273365 8.596696 
-18.559937 3.137041 3.693705 
-20.139082 16.037346 -2.689451 
25.027609 -15.934296 5.488257 
21.944235 24.727375 3.052587 
-30.753384 -11.164553 12.299932 
-27.386118 -10.816530 -2.537134 
23.702023 17.083944 8.496723 
-18.946468 20.307774 -8.314237 
-17.131706 27.029522 4.983596 
-16.248293 3.025096 -1.828434 
-25.419176 2.356807 -3.838011 
26.296299 11.061385 7.650286 
20.851339 18.245371 -8.502253 
-13.074217 15.853908 -2.687318 
29.073830 -14.105442 -1.164103 
19.743647 8.850986 1.940415 
17.794996 14.900157 3.433420 
-26.639866 3.748044 9.839351 
14.160792 18.598230 -7.151334 
-15.893167 20.210405 -3.308510 
5.730398 27.748257 10.925048 
22.101845 15.777246 -5.374045 
-29.427067 -8.558274 6.172859 
-10.064738 27.415581 6.542572 
-26.632944 5.150847 -2.494899 
31.587660 -10.263279 7.413346 
-18.248219 -2.426416 -0.168437 
-9.069794 28.942738 12.405881 
0.256211 28.371861 1.609351 
23.626497 18.553377 7.587567 
-9.003750 18.168314 -7.623095 
-28.970865 -3.537697 7.735097 
-4.552685 29.644979 6.070169 
27.748806 6.070694 -0.608760 
-17.355368 6.982597 6.114804 
-30.035297 -3.618189 13.290284 
21.101843 17.353252 -9.478951 
-2.783055 27.876200 5.176398 
30.365328 -13.270011 8.825702 
9.539704 17.264473 13.658568 
31.400692 -11.889135 7.210349 
-9.949202 27.052055 -0.977716 
18.140690 14.343925 0.447194 
-10.186238 18.079136 -4.986612 
16.062658 24.971710 -0.961667 
-6.367077 28.971453 -3.081315 
-5.084229 26.235003 8.171066 
12.892632 27.764654 -5.193714 
-13.367779 20.246838 5.257589 
-24.172110 11.706026 -5.810115 
17.963686 2.226718 2.011501 
-21.322090 0.068943 -4.000647 
9.688151 18.123775 -6.959334 
-24.252926 11.836519 9.511058 
-11.745503 27.514217 -5.790679 
-23.526373 4.405075 3.563529 
-1.091269 25.948597 0.370971 
-14.168847 14.927872 -5.622866 
6.892625 21.515457 -3.885569 
-28.690336 0.758159 14.174036 
9.360993 25.145048 -1.301366 
32.154217 -10.549491 10.427251 
5.297707 21.322123 -4.979108 
-3.950551 20.755388 -10.679810 
25.423918 -0.520425 2.485739 
20.973215 -3.819519 0.149494 
-17.902344 21.693125 6.030987 
26.392611 7.354194 -8.240177 
-21.549669 -12.815464 1.518901 
-25.056139 1.075195 -3.829595 
-16.648300 4.076962 -0.067358 
24.385805 10.700796 -10.111505 
-18.917732 -4.524745 12.506765 
25.584011 15.385884 11.653324 
-19.048811 8.290561 -4.110734 
21.080019 -12.678801 -5.687273 
-21.477133 0.049240 10.168349 
-30.719160 -9.566275 -5.930105 
8.120886 25.819729 0.871346 
-17.879089 2.475373 8.534042 
-16.028498 13.917064 4.237353 
22.535707 -4.530458 -1.322575 
27.853077 -8.460294 -4.781891 
-25.209129 8.566175 -4.107245 
17.937943 22.234484 -3.724382 
-8.794011 24.872118 -4.335137 
4.385645 33.363277 5.362050 
-30.313850 -6.737361 5.084699 
-24.062086 1.178822 2.441386 
16.750099 29.248520 5.274582 
24.266691 -11.897056 9.464824 
24.068977 5.518627 10.011270 
-31.006964 -8.236189 7.810791 
26.661066 -15.863044 -2.286097 
20.611179 -4.515084 7.114712 
14.634768 26.232363 3.089689 
19.705198 13.468276 9.036305 
16.941896 22.728674 -11.506973 
9.502019 28.214840 3.896090 
28.612038 1.074961 1.844523 
10.708471 32.758110 3.442437 
0.900791 31.261969 12.144590 
22.066093 -13.623334 5.797676 
10.671013 30.223288 2.809472 
10.513311 26.039606 -2.052600 
10.528571 27.932539 -3.549901 
26.019896 -4.724294 2.638500 
23.125843 13.682900 0.918368 
-18.911045 4.392731 -3.725394 
-21.103683 13.406981 2.190367 
21.833355 12.927502 -3.096921 
-24.259951 -13.230209 5.868306 
-12.669456 18.853666 6.182355 
-24.186205 -14.843764 -0.142184 
27.618225 2.793862 3.021731 
-17.762329 22.275713 -5.635750 
-16.439030 24.802485 12.815366 
-11.124141 15.776431 -8.252729 
24.091299 -8.385470 2.317748 
0.043577 29.352415 -8.023549 
-16.836788 22.160839 -3.386662 
-28.262629 -13.817286 -1.199524 
27.991766 8.664166 11.127845 
23.954107 -2.675322 6.719137 
17.384815 18.392582 3.844471 
-13.194118 26.485899 -5.829484 
-26.456396 -2.722753 2.199681 
-25.553192 4.040507 2.309127 
16.992218 27.124470 10.720289 
-26.841551 6.175285 11.804140 
-20.491835 8.482713 -0.900579 
18.960327 13.813231 8.849445 
19.871552 20.597551 -4.226810 
28.681055 2.962679 -6.384181 
-6.612519 24.408083 -4.738093 
-15.186243 8.619304 11.104315 
27.286573 -1.438460 -2.562045 
-16.786654 23.930082 2.078298 
19.840982 17.852518 3.987688 
18.365690 7.475368 13.635760 
21.105234 -5.351808 6.947438 
23.067205 3.378355 6.006640 
27.511147 -14.341266 2.564981 
15.978817 14.714417 1.159781 
-18.310188 9.092463 -5.546022 
-15.921731 12.800884 0.118555 
4.378654 30.504150 6.214522 
14.008173 22.077469 6.109508 
-21.115166 11.312464 8.687790 
-1.116488 23.937624 -1.745515 
-18.585819 4.306146 6.222407 
-19.404234 18.800936 -0.626175 
9.648922 29.312885 13.572206 
-19.985682 -0.912908 9.509543 
24.474743 -16.450224 4.473942 
25.884706 -15.950281 6.234735 
-19.519062 14.743761 6.751616 
29.428226 -5.878137 2.029059 
-20.353580 6.932312 -3.016039 
-21.296824 -13.306885 -0.030038 
22.576525 6.925844 -3.762177 
-14.048407 11.419910 -6.317054 
-24.051838 12.029551 1.705699 
24.630463 -11.218170 1.723150 
-25.832834 -3.507205 5.753753 
-11.784106 24.090620 3.921658 
21.343191 -6.159395 -2.880044 
7.681827 33.979137 3.262509 
14.711513 10.163218 -9.778425 
19.956354 7.941036 9.725419 
14.046170 22.273529 1.984851 
8.347512 31.192932 3.380942 
-17.739435 21.557922 -9.205311 
15.132329 30.861683 5.031806 
20.477352 6.815308 -2.107031 
15.339160 21.603148 -4.726344 
4.628242 26.134548 4.808578 
23.050283 -8.260384 -4.822727 
25.322079 8.858655 -9.892268 
28.637491 3.427776 -3.539151 
9.688231 24.417894 -1.322735 
-19.538610 19.990870 -5.451587 
-10.608099 27.002638 5.240545 
-20.646027 11.792934 6.181474 
24.902365 -6.484737 5.670320 
22.820158 20.387060 12.365009 
-3.874386 29.114376 -8.151411 
14.276503 15.483859 -6.018248 
-18.658838 -0.652004 2.657979 
23.203930 12.694718 -2.948749 
8.243997 30.470306 3.785577 
-21.638760 19.798988 0.962672 
-22.155731 17.675198 8.331737 
14.748137 27.796824 12.742722 
-23.083527 12.412531 -2.174324 
20.644377 -10.461555 9.528165 
27.318108 -13.315686 -4.075253 
-25.010029 -4.082308 4.838220 
15.576274 30.870512 4.232903 
24.189768 3.638156 3.379383 
23.622425 1.901884 2.975448 
18.495840 24.561466 1.477240 
31.141478 -10.355747 -0.003731 
-15.493140 19.978039 1.330744 
21.650555 16.395704 -4.518706 
27.235460 3.476582 2.931949 
6.394740 23.880911 -0.855630 
-26.076714 -9.698222 -3.164957 
-23.370914 1.383259 2.052668 
13.937613 16.894197 7.301586 
28.174574 -5.708665 4.498087 
10.965553 27.115355 2.036172 
-20.865683 1.726916 1.676999 
22.318617 17.716908 7.731954 
-20.126881 7.420454 -1.149111 
-2.646453 24.630001 -3.945625 
22.422434 2.671317 7.680434 
-26.896709 -6.448364 4.943551 
-1.195795 20.480389 13.747786 
-27.825338 3.830187 -5.149490 
-7.975830 19.836161 -5.305656 
14.244917 14.192060 11.586779 
29.291935 -5.060242 -1.321415 
-18.764376 20.074306 -5.619645 
-15.281021 18.082140 0.954622 
17.081755 9.475261 -2.336888 
0.061228 26.355663 8.976892 
-13.234346 28.850401 6.850744 
26.703598 8.266766 10.594405 
25.487368 11.743946 7.631329 
20.557138 -4.191998 8.007415 
14.469595 27.085541 9.905016 
-18.283709 -5.727729 -2.794459 
-15.474231 12.258707 -2.971527 
30.634094 -15.088615 8.230349 
11.326934 27.094927 -1.095318 
-20.782091 4.497075 2.621233 
-21.514748 -12.210163 11.014513 
15.516864 8.954008 -5.885064 
21.477236 -2.444229 2.348811 
15.629688 23.494961 9.210574 
12.764930 23.066776 -6.949921 
-24.299498 -11.535620 10.703374 
-23.317728 6.704377 -3.558819 
22.835606 16.154919 9.584733 
23.560070 -3.856259 0.814071 
20.435871 0.470973 8.155771 
-9.514421 28.211008 -6.125220 
7.473989 29.584538 -0.197180 
24.602459 -8.911109 1.884139 
-24.024868 -3.400430 -2.221620 
16.669050 24.921761 -6.310771 
0.989012 22.864016 -2.942200 
-6.779757 22.412107 7.520063 
-16.281540 25.966732 9.930501 
17.667824 14.799652 -4.422039 
-25.734798 -13.630808 -0.102680 
20.169044 -8.232344 -0.192024 
-21.852612 -1.773124 9.863644 
30.151493 -6.342680 -0.863288 
16.585209 26.320814 13.521029 
21.583836 -13.992846 6.516832 
-28.391392 0.997954 9.051303 
19.491955 -1.001959 11.206011 
24.779867 17.717875 2.978955 
-12.769217 26.503656 8.812926 
21.206818 9.506557 7.846741 
-18.120226 8.799433 5.603550 
25.779922 -6.576978 5.953880 
-11.271229 20.439358 -4.993452 
21.911840 10.795676 1.971673 
-17.631836 24.650562 7.759199 
-18.745201 4.127521 -0.860227 
16.154484 13.265775 6.981834 
-26.942045 2.859878 9.936479 
-16.642221 22.228855 4.183460 
23.339045 19.782625 10.208617 
22.379305 24.261461 1.301323 
-27.605587 -12.305770 -1.850811 
-27.154123 -14.512900 -0.962157 
-22.814896 5.348700 9.600262 
15.496692 12.014713 -3.312330 
22.712282 5.114642 5.663055 
-20.699615 4.557389 -1.120985 
26.620581 -2.460916 9.869531 
-18.663710 -3.474523 12.585308 
2.182654 21.732756 -5.913869 
-2.704257 23.605120 7.727180 
-8.995019 22.935686 -5.265634 
-21.751362 13.677163 1.829879 
0.217841 22.366964 -4.383881 
25.330072 14.174476 4.251342 
-18.637852 21.091190 6.188558 
-28.489498 -12.525937 -0.303445 
23.017485 11.453012 2.104880 
20.497955 -8.912243 -3.360250 
17.527100 15.420873 1.070089 
31.562790 -8.862953 7.110975 
-9.510649 22.556610 -0.444251 
-28.478601 -9.551796 0.228452 
17.214237 23.168879 -10.085328 
30.989346 -8.794971 -0.528728 
-19.800165 -8.921468 -2.237010 
31.792648 -12.980764 13.640419 
27.427773 -6.130258 -4.530376 
25.078369 9.000331 10.821407 
26.501308 3.067722 2.692081 
-6.534500 28.827932 -7.795222 
-26.167873 -3.132995 6.393823 
23.411821 18.205826 6.729676 
-6.168822 26.107737 4.828745 
-3.929411 25.150570 6.131797 
-22.257090 8.908812 8.660074 
1.784510 28.708309 3.893307 
28.398880 6.774146 12.461649 
-10.525894 21.697008 5.204057 
-17.064779 2.021420 -2.090931 
-23.757441 13.263870 14.034132 
18.263607 13.857140 1.048843 
7.874003 25.322775 9.298314 
-7.359211 26.592579 -5.490764 
-15.863199 23.502203 -9.393594 
26.958267 -12.812661 -1.492347 
15.066477 24.235270 -5.180175 
-25.170200 6.765225 8.188625 
25.482138 -8.603200 -5.073457 
19.117565 -5.761764 -7.783391 
-18.389141 -2.425284 12.664474 
-7.062058 29.409426 1.478489 
0.053516 30.450659 13.664232 
-18.332172 21.991682 6.928415 
20.790268 15.296567 0.652645 
0.153157 21.485067 -8.849580 
16.141146 29.879824 5.234251 
-20.495985 20.494139 7.864950 
-26.174416 4.927326 1.684432 
8.851919 28.862629 -4.449463 
22.313116 -7.040025 -4.517427 
26.808689 -15.789884 -3.097976 
-0.217274 21.710066 -7.097586 
19.179449 24.719664 12.531675 
20.310543 18.148876 -6.414972 
13.637058 12.315534 -10.035105 
23.534941 11.807141 -3.131846 
6.633132 31.433012 9.306103 
-22.161980 13.651572 3.500268 
-17.296377 10.387791 4.699640 
-10.793450 15.936503 -9.854930 
16.824965 10.826742 -3.605886 
-11.201940 27.532686 13.802260 
20.741976 -5.601360 1.975808 
-14.863888 15.322062 7.963179 
-27.517681 5.011923 4.295808 
21.343157 25.047840 4.063958 
-28.438902 -9.673413 4.966585 
17.996246 23.883883 1.676614 
-13.722474 27.071098 2.724288 
13.396266 27.583954 -3.005646 
7.826353 18.373947 13.668590 
4.017787 24.832787 -1.910903 
-26.127117 6.787811 -8.225527 
25.971245 -14.916337 -0.982997 
-14.768368 24.655748 10.428736 
21.808929 14.939153 -0.702202 
-26.512146 -2.175624 8.488272 
-15.699148 7.058486 10.010458 
-23.579561 11.828313 6.312234 
22.833088 9.888329 -2.364287 
-20.589453 20.590448 5.080898 
2.271240 29.998726 -5.343067 
-28.030947 -14.036982 0.552623 
-23.689096 8.420411 1.646048 
-14.525102 25.875893 -1.382212 
-8.873014 25.685036 -0.844185 
-19.842720 -0.430263 2.589702 
19.523439 2.226507 2.814245 
7.088989 20.895903 10.123485 
-0.385099 20.544762 13.738874 
-3.024998 35.102669 2.904551 
-28.963190 -12.338246 0.418818 
25.762300 -4.106678 -3.128393 
14.813231 31.888134 3.012614 
4.560114 23.770771 -1.826797 
-11.104877 29.638895 5.256092 
15.945088 7.149420 -6.384069 
-1.966699 33.711182 6.066542 
-21.249977 1.155974 -0.894050 
6.704845 23.878998 -2.872023 
-1.374834 21.752779 10.621957 
-15.926728 23.722246 9.835960 
30.197163 -5.424474 -5.903809 
-24.956663 10.179338 10.153931 
23.101774 5.617322 -1.980974 
8.684517 20.607012 9.585740 
-21.194733 5.112681 3.008953 
18.261637 -0.909167 -2.090070 
1.644403 25.872620 5.692672 
15.395539 8.643379 -8.224421 
17.966679 3.831194 -2.859052 
-15.990859 12.012678 6.290275 
0.878628 30.892292 12.869271 
-7.447684 28.788359 4.129108 
-19.738340 -7.755264 -2.309560 
2.725631 34.986717 3.077908 
-30.065178 -6.276764 10.013762 
-9.245112 18.799400 -4.894574 
31.997391 -11.801563 12.535190 
-29.448790 -12.155611 6.839531 
17.495441 3.339732 -0.421109 
13.334314 20.703169 -2.634630 
19.585766 -4.121615 -0.830121 
13.384163 26.965502 -8.605786 
2.595926 30.631207 1.990037 
-10.270078 20.633408 -4.861163 
22.292862 3.054990 2.313807 
16.526163 17.922762 5.829757 
21.657085 -8.722260 2.760600 
9.529404 22.203289 -5.058877 
-13.600147 20.664377 4.625711 
-13.241715 26.654814 -2.002938 
-15.721669 23.189537 -0.993451 
29.178005 2.634535 7.093926 
-24.134737 -13.811255 1.062470 
22.879028 7.752906 -1.274087 
5.988823 29.041981 7.103971 
-6.631774 33.280399 3.375375 
-22.258972 17.095167 12.842070 
20.053255 -5.216949 10.728189 
18.877323 -1.631310 -2.803932 
-29.349834 -2.786640 -2.737922 
-28.297226 -13.514773 14.270893 
24.712414 -17.110622 8.762523 
23.244154 19.683685 12.339262 
15.506682 22.279579 4.896493 
20.929317 23.097847 12.128955 
-21.475134 15.544520 -9.513926 
24.538239 12.943804 3.284128 
0.092612 30.077795 -2.539844 
-21.481117 -2.524905 -2.922242 
28.109274 7.919471 3.202967 
-27.898178 -10.621018 6.118338 
-24.311523 4.866754 3.349182 
30.554766 -1.487266 4.116521 
18.939068 19.055441 -7.525479 
-14.614744 11.343367 -4.618205 
20.675234 17.970312 5.907531 
8.162356 21.289364 9.023993 
-19.075296 -4.797953 9.133063 
-24.740919 6.720909 6.111463 
-18.161442 14.861336 5.409511 
31.253143 -3.859709 12.360566 
17.400953 26.226072 12.426888 
25.173653 -14.713124 1.925598 
-23.015223 -13.057760 14.212573 
-24.003382 -12.211864 10.251561 
20.778646 9.978985 -6.410129 
-23.557655 11.916409 -8.975916 
-27.515945 0.724192 9.872914 
-18.943045 17.171204 0.652446 
21.506859 17.098652 -4.911954 
24.476414 6.626596 10.617092 
-15.657585 15.085241 0.308574 
-28.634329 -12.107140 10.295030 
-21.509926 -11.546545 8.673182 
-19.619732 21.677145 10.831240 
19.463470 7.563190 -0.973110 
21.695957 -10.981033 4.883431 
25.041239 17.230785 3.578976 
-13.766589 21.613916 3.486210 
10.225667 24.281389 5.423330 
-16.803787 17.288469 0.417077 
21.044729 -11.908038 -2.854750 
3.478765 32.237137 9.092662 
-11.198416 27.315268 -3.475514 
26.019999 8.519855 -7.047859 
21.329025 -12.677710 1.747780 
-13.162009 26.726810 9.699236 
-26.766893 0.626376 1.698146 
31.503323 -9.562666 8.180916 
10.708937 22.647331 -6.247812 
-24.636789 7.389662 -2.694799 
29.494541 -7.198631 -4.149041 
-7.126044 30.570604 3.153329 
5.803201 30.093302 13.606796 
10.000609 25.069685 -0.769185 
-21.040112 -10.624390 13.068776 
-28.197540 -13.804920 12.788960 
-30.538509 -10.611913 -5.796171 
22.966763 13.653603 1.960672 
15.069107 14.988256 -0.102154 
