-25.407593 7.404737 15.151517 
-14.193518 21.456678 11.275445 
-24.721827 -12.724807 3.735094 
0.108819 29.775169 0.699350 
-18.820974 -7.786002 -1.065278 
29.370399 3.147883 8.796809 
-21.065968 11.943602 3.031781 
-21.086197 12.837936 2.835507 
-3.425924 29.797476 3.458513 
17.100494 6.436634 -4.696678 
9.806267 18.193922 -4.634231 
-20.971609 -11.279204 5.145264 
32.884518 -11.853199 2.522914 
31.177084 -3.816128 1.511791 
16.727390 24.084723 11.071949 
-19.262583 16.342752 1.926449 
-33.592815 -10.586800 -0.541935 
-23.668852 11.881003 14.395680 
26.730125 15.351233 13.146199 
-22.272272 -12.635076 2.218441 
12.202418 26.748928 8.551393 
-19.952339 4.410965 -3.610605 
-22.806244 12.883505 -0.913273 
-4.746887 25.902840 11.249842 
-12.071250 25.981213 5.979333 
27.135784 12.210868 7.241921 
-20.909895 -8.523046 4.832977 
6.662324 24.626291 -2.467277 
-28.275160 -8.105686 7.698879 
-14.609386 22.412941 4.460037 
-21.796080 5.170898 2.800663 
18.921734 6.304463 9.280793 
20.336288 -2.672884 3.132953 
11.473619 23.920717 -2.091452 
8.502083 25.180561 3.097102 
-16.866995 23.877468 7.618604 
32.745998 -9.145035 14.265202 
-14.812771 23.246719 0.912432 
31.343374 -2.812719 14.633286 
-16.266428 11.460296 0.753694 
22.081707 -3.107575 10.285275 
13.672247 20.895672 9.377428 
18.216898 21.190428 -6.090095 
22.417109 -4.436400 -0.662752 
31.727362 -1.818554 -0.148626 
-12.282219 20.811674 9.057936 
-21.022570 15.291816 -7.001144 
23.136793 -10.932220 6.573477 
6.671835 28.610270 12.914234 
20.518270 5.556175 0.706021 
20.017599 13.686975 2.850849 
-4.984620 26.085426 0.443488 
24.873634 -9.990840 5.719139 
23.871481 -2.722701 10.893613 
19.622559 -0.879490 -1.750627 
9.736773 24.814211 -2.081979 
0.389248 23.557817 -0.931557 
14.449778 23.859085 10.410882 
20.156197 12.012793 5.674439 
-12.577741 28.812981 7.912643 
24.967300 -4.177401 4.497824 
-15.540375 19.620640 11.921371 
-4.534233 28.993158 0.148175 
19.869322 13.926545 -1.138363 
4.751471 26.785797 0.950693 
21.095263 -7.417811 -3.030808 
-20.270546 -12.458006 0.922867 
24.552961 10.387241 10.159643 
12.089823 24.351322 4.783943 
21.091421 22.566488 3.253773 
-12.600045 27.762348 11.216707 
17.526518 27.329422 6.731104 
19.307600 17.537508 8.653248 
20.033192 1.784639 3.365508 
-8.687683 24.642733 0.534004 
26.260466 -16.299536 10.553800 
23.903072 7.260604 -0.107505 
-13.612533 18.256613 -1.788683 
21.398277 23.979017 7.671303 
-18.574921 -5.849705 -2.270817 
-5.794183 28.570953 4.078956 
-9.331224 21.911673 0.399882 
24.264725 -0.282023 11.313083 
29.314180 -1.095076 0.821312 
-7.582218 28.247053 -3.450360 
-31.838753 -6.779522 2.663651 
21.913670 16.570419 8.380222 
8.235775 22.593424 14.370307 
-9.141647 28.386713 10.773264 
23.003452 -9.157815 3.375565 
27.637905 10.442906 4.887477 
30.272697 -10.600606 12.483276 
-29.952240 -1.707356 0.125813 
9.776228 25.100128 0.148913 
21.079725 -8.241886 8.675671 
28.970144 -1.552245 10.656504 
-15.676232 19.808760 5.770675 
-3.344715 28.673498 11.447097 
-10.214760 29.795685 8.425013 
-16.268364 25.704699 8.069613 
25.278770 8.988627 -0.924240 
20.149374 15.179569 -2.962231 
21.663330 19.220898 6.802337 
27.702084 -9.780632 6.951621 
12.398066 19.134109 15.889447 
-12.650535 20.483742 9.708600 
-24.145401 1.064726 -3.768556 
19.251417 -0.042387 1.281686 
-22.644722 12.406184 -6.708764 
-1.824791 22.273619 -3.200922 
23.287188 7.125532 10.206438 
-5.241117 29.009600 12.537934 
1.964307 31.334318 6.149193 
-15.506271 13.928864 8.284135 
28.428463 4.628613 4.602245 
-8.341949 28.068542 -2.523627 
22.451439 -6.273131 7.763109 
-25.017107 -2.516200 3.909573 
4.026681 30.791105 5.520800 
-12.245888 13.984801 15.554311 
11.430267 24.050529 0.109324 
-14.944112 16.688749 8.117971 
8.178046 28.605371 -2.526982 
-5.843802 24.653124 9.532681 
21.003168 15.434289 5.535419 
19.430744 8.159483 6.788485 
-14.454898 20.250385 9.764978 
-13.996648 20.151457 0.590129 
19.475195 -10.486629 14.168370 
-19.199247 14.071581 -0.846871 
19.307913 1.749535 3.126230 
14.933495 16.177614 0.488100 
27.787958 -12.900576 10.474339 
0.402310 27.521669 4.227523 
5.694262 25.932896 9.263961 
14.760087 23.414318 9.783030 
-7.140545 27.362974 -3.017377 
30.082468 -15.438290 -1.133572 
25.190235 -5.133004 2.864853 
-22.207781 -9.098834 4.805444 
-19.629223 15.837656 10.043183 
24.298054 7.831847 3.060405 
2.990042 28.756359 11.136964 
-4.969984 29.652159 11.070728 
-17.820097 19.753267 -2.815703 
3.933282 24.296978 13.117680 
-16.091734 13.632333 1.788639 
-16.848579 8.119320 -0.675725 
-14.936324 19.409529 -2.112052 
17.395018 18.923712 4.241122 
-25.140385 -8.121305 -0.685376 
6.510212 22.581715 -0.938636 
-21.473135 -6.785414 4.847908 
26.680912 9.782541 9.911409 
-11.915297 25.470589 -0.987387 
-0.650915 26.854511 -2.346146 
9.465189 29.810984 16.509283 
21.777023 5.647203 5.551329 
14.234446 23.264374 8.316973 
29.553185 -15.361421 11.644614 
22.686707 18.508575 4.072374 
2.989781 29.999706 -1.030274 
-16.099064 21.011944 8.608799 
-20.580538 15.998971 -7.072466 
-7.422581 31.831112 7.834771 
22.451323 -12.457459 2.162141 
24.214144 -4.737670 -0.212473 
-22.644966 -1.553667 -3.515072 
20.383663 3.477975 -1.659517 
-1.290333 27.644661 12.670284 
2.259397 29.180159 13.171646 
-24.737791 -13.126320 2.702356 
19.068115 -8.292284 14.296033 
-14.694104 20.649239 7.483083 
22.129526 12.618909 6.951035 
-13.269399 16.561314 6.349742 
-20.629360 19.915010 4.815455 
14.193404 25.351969 0.400690 
-10.008101 25.823696 4.252790 
-19.253611 -9.656380 0.455558 
-4.276660 24.721449 -0.003401 
-17.688803 14.886048 -0.177834 
-6.246626 21.382349 -1.679966 
-18.784122 -1.274322 9.164695 
28.713125 -1.914916 1.738562 
2.715689 25.798225 2.113746 
22.602940 12.849222 0.775613 
-24.423954 7.886430 3.904205 
16.987967 20.002398 6.896475 
-21.077291 6.962780 10.401452 
-2.413215 29.733812 -3.144222 
20.207113 17.763922 7.226272 
22.206646 15.806339 -3.687840 
27.059803 -14.864485 3.631283 
-30.511349 -11.152815 5.492094 
-22.565977 4.003640 -4.025044 
26.193382 -15.788723 0.615404 
-28.033566 -7.446852 7.422563 
-9.932477 25.594906 5.130292 
-20.744762 -2.235775 7.933853 
-7.963879 30.081814 12.770534 
-26.396170 -0.853795 3.193777 
-4.045483 25.279449 1.491932 
-34.099396 -8.793793 -4.557295 
11.882122 28.929056 16.461103 
-27.240170 2.757814 6.984354 
24.913589 -9.868526 3.843706 
-2.511005 29.405128 6.822723 
-2.003048 27.893106 5.181934 
-5.074429 21.466188 -2.419647 
-19.207949 3.903488 10.567270 
31.250223 -3.748707 11.677165 
-26.339212 5.852748 4.906254 
25.124884 -9.751925 0.213160 
26.589249 -9.225712 5.272266 
-17.516302 14.046695 -0.827637 
1.394014 28.342777 9.194068 
2.845958 30.688400 12.006580 
-8.515685 23.077749 0.976201 
-19.939562 4.057878 2.061643 
26.286947 -7.651156 3.132330 
-17.918793 0.097593 1.607976 
11.391562 32.384830 3.338225 
28.248419 -8.631436 4.398295 
-11.926390 26.953711 16.312601 
30.516504 -6.137504 11.316248 
11.921976 20.388306 1.034372 
-13.685871 19.447773 6.713864 
-24.619442 6.746828 0.706308 
20.387085 18.803385 6.880505 
20.952293 7.911100 3.269526 
-27.173717 -12.353100 6.911723 
19.918810 14.684985 3.607244 
-9.514638 28.889647 5.764679 
-12.672395 15.692238 8.535377 
-10.395153 29.983374 6.306758 
27.184340 -12.861470 9.476373 
-14.733203 15.201502 7.050259 
24.405994 -4.589163 4.175960 
1.988230 24.213955 13.566216 
10.471062 24.238285 1.564451 
19.189970 19.560619 0.512940 
28.663647 3.170991 1.115883 
-5.370156 26.438349 6.052727 
-28.707476 -11.281275 4.856649 
8.198214 28.712502 2.892665 
23.413792 1.001061 2.713861 
-2.015868 26.623293 0.107205 
23.278915 3.107573 3.210392 
0.334221 26.583897 0.512446 
4.310094 32.787296 11.056911 
15.418036 17.154810 10.478420 
-2.051547 23.348768 14.555066 
20.226091 -7.568933 9.719809 
-16.534561 2.474120 8.789493 
27.979872 11.574878 8.180634 
22.500875 -6.001271 1.310337 
-26.857157 6.206706 -3.096673 
-12.108308 25.292704 3.491882 
-5.816624 31.165308 11.919796 
10.239458 27.158676 11.715308 
-17.986286 1.073697 4.959688 
23.324221 12.510324 1.218194 
-22.148262 -4.637306 3.229967 
10.700175 27.279581 -3.544613 
17.443857 10.899405 0.171233 
20.739277 5.867835 6.252157 
-15.955149 20.855663 11.557440 
-21.643505 -3.519051 2.794491 
-4.050111 28.243587 -6.584841 
-2.843459 33.731358 8.329745 
18.893427 -2.492643 13.552248 
9.073375 31.690567 4.351878 
32.001476 -13.206815 1.762339 
-24.943226 -0.686549 7.989680 
11.975321 31.167236 4.835872 
-15.707461 3.608767 13.444752 
-23.407574 -3.795160 -1.004708 
30.736643 -5.778694 7.748307 
5.107178 32.623314 11.834367 
6.182018 26.274103 0.134814 
9.624416 29.890486 13.239367 
21.949156 12.088826 5.614608 
-18.258791 20.652311 -3.868670 
20.461189 -2.372509 6.668287 
-21.660706 8.572037 4.659111 
-26.892393 3.258624 1.404402 
-16.957893 19.440742 2.118298 
27.776651 0.048871 -2.365195 
27.870514 10.742639 15.420578 
-2.165873 29.181444 -1.854428 
18.485891 12.445995 5.865534 
18.980293 6.768521 3.413323 
-12.655633 23.065876 12.395755 
14.405294 23.814753 -3.237509 
-2.350088 32.281792 12.774807 
15.756953 13.397254 -0.981037 
-23.236670 12.089899 9.324955 
22.973286 -12.615470 7.649227 
-19.952557 17.986031 5.053405 
-11.694347 14.979947 15.613228 
25.109034 -7.202937 6.686046 
-18.913731 -1.818133 -2.010032 
19.439444 -0.797861 1.088003 
23.424133 12.028111 4.364546 
-23.022860 1.236621 -4.115850 
12.262503 24.694939 -1.353851 
16.484638 19.641211 7.561019 
15.957379 25.128765 5.091273 
21.238710 23.385605 16.150167 
-6.232033 29.339827 12.911606 
19.990086 11.767829 6.368748 
-10.870026 19.572269 -0.991480 
-16.720188 17.410284 -4.341649 
-14.760962 19.816744 0.182326 
1.366183 27.123163 0.947269 
32.072681 -2.807315 0.116123 
-22.934185 -15.245175 -0.050271 
1.090001 33.051910 10.718774 
13.783783 19.508631 10.863271 
22.415674 12.783940 -0.296488 
32.466354 -0.485933 -3.611675 
-25.229334 -5.513763 3.152642 
-8.171152 27.856968 3.481778 
-5.749265 21.682484 14.636010 
-15.167464 12.176213 -0.559946 
-14.930783 22.384691 2.609835 
-2.581067 24.892448 -0.004941 
24.929155 9.891789 -0.903963 
33.894802 -6.148562 -0.168467 
0.999249 25.486687 1.495981 
-16.061352 14.786126 9.934604 
23.110123 -13.992923 2.167630 
-26.433680 4.517739 1.589939 
-5.234254 28.797947 -3.820230 
-11.133164 23.076298 11.871670 
-3.906912 21.390379 -3.967439 
-20.016363 -2.009667 8.173270 
23.108845 -8.506919 1.662397 
-5.565313 25.550304 11.613876 
8.774231 28.133615 -3.808945 
-28.604362 -11.682267 2.890745 
16.986660 8.626813 -0.289996 
-19.220585 8.236959 2.171196 
4.529406 25.525139 -1.333827 
18.609657 13.139386 -1.833406 
-7.569710 24.429838 2.245954 
-23.243399 10.151162 1.355366 
-5.454663 31.557924 7.575158 
16.862795 27.859821 11.515438 
19.611727 15.221272 4.329166 
-9.751307 23.717857 0.188500 
14.592898 22.910467 6.410968 
20.488333 2.292714 8.985885 
20.762291 13.689250 10.823946 
31.286489 -9.421288 8.622139 
19.782682 -2.618349 -1.279455 
27.381779 13.416203 9.996871 
-6.095939 25.155146 -2.881492 
-18.179005 5.781530 4.490180 
-29.285337 -1.874483 0.964372 
15.813300 23.360943 -1.935217 
-6.804595 26.884726 6.989824 
-3.654392 29.534048 -0.572492 
-33.070160 -6.701869 -1.748726 
24.568232 18.669508 15.879203 
-7.306662 19.931467 -3.134629 
-23.451363 -8.749421 -0.890490 
15.135221 21.354130 9.006286 
20.284241 18.327049 2.893245 
23.129852 4.810371 -2.384323 
-21.440403 -11.932194 2.856301 
-19.816092 -7.897453 3.739103 
12.594192 30.038818 5.745585 
-20.449429 -6.922075 1.641070 
20.239447 15.024595 -0.384537 
10.737794 19.766619 -1.564027 
26.799858 14.599073 8.884068 
-18.337248 21.107933 5.017417 
-24.096813 8.541715 4.151485 
15.863674 20.283318 0.289929 
-14.537745 22.044836 -3.187832 
27.897615 -2.532653 10.793137 
11.082621 27.127392 8.541215 
-24.315310 -4.319438 10.548961 
11.413167 33.108463 5.920230 
34.436291 -6.481491 -2.690208 
22.583565 -10.426425 2.899821 
-20.875820 14.140360 -0.159349 
-28.417803 -8.979499 1.113030 
-3.276919 28.456608 6.894787 
-18.304895 -3.873507 -4.959445 
-8.057729 31.097635 9.239182 
-18.892653 2.551568 2.121371 
-23.935486 -9.842467 5.892236 
-13.435452 20.522747 10.032647 
23.055834 -7.754874 1.740759 
-1.815474 28.264006 8.275837 
25.663271 14.924116 8.764953 
-28.004328 -15.313850 0.947826 
-18.282562 15.677909 6.129203 
19.042660 25.025391 3.406484 
-22.335434 4.478785 8.679125 
-28.987556 -10.956886 5.503180 
10.691428 26.721045 10.973023 
-12.675168 19.929821 -2.832938 
18.035814 16.577215 7.837474 
-20.960129 7.495624 0.340447 
-24.055559 11.008192 14.255505 
-6.848959 28.762733 -1.828189 
27.119736 9.057010 3.084637 
16.531698 17.252554 8.483849 
-12.555778 25.032515 4.160139 
25.471989 -4.313409 2.000230 
31.525721 -10.965852 11.222110 
-25.746647 3.063599 3.078493 
-22.546719 15.012765 13.403713 
-17.650833 1.757127 -1.569991 
29.455421 3.922908 -1.755110 
-11.553447 15.773222 12.160682 
27.725468 -1.438281 1.057637 
-19.180685 -9.988124 -1.038579 
-14.595968 21.669487 -2.240671 
-20.003147 1.164340 3.156484 
-22.989702 13.096886 -3.776482 
26.038567 6.018532 5.169744 
12.986407 29.824953 6.730729 
20.009277 12.384223 2.434679 
-13.094799 23.523508 -4.401176 
-18.908491 12.873652 2.389168 
12.619218 21.650988 9.771472 
23.642551 12.769840 4.049863 
27.250158 1.683198 -0.011763 
31.879633 -10.169739 4.210028 
11.845872 24.441526 -0.666115 
-26.136347 -0.448760 3.814949 
-21.856607 12.945554 1.730058 
-25.417755 2.825232 -3.189252 
-13.009261 19.817253 3.137274 
20.703606 -12.399875 11.921356 
-4.471850 27.215067 2.016207 
-20.126259 17.572878 -1.979233 
29.825951 4.423882 9.356732 
-24.937172 7.312514 -0.941166 
-26.398642 4.556329 5.749970 
20.116579 1.129569 6.152557 
-18.319977 2.916595 3.703158 
6.897722 27.926367 12.646120 
24.745901 8.167322 2.360268 
-1.842018 27.624418 4.412401 
-13.032850 25.412170 -1.232072 
24.838619 -1.672987 4.230112 
15.417576 20.860786 -2.071618 
-10.621061 28.414135 9.195179 
-24.555504 4.956307 3.461329 
-12.937506 19.594316 2.336746 
-10.081353 26.785742 -5.323256 
7.607699 26.289406 -0.067608 
7.829928 23.575182 1.466376 
-23.849236 2.604973 3.650838 
-6.165254 22.866913 -1.501342 
9.167116 32.956264 7.945925 
25.254528 14.333695 9.076660 
-27.312679 3.453054 0.674300 
-25.692251 5.890208 -1.035971 
30.581421 -9.158027 1.578348 
8.747466 28.738857 5.229280 
-15.579544 2.998169 9.520654 
-8.072964 26.139740 12.682577 
32.706657 -10.286757 12.608906 
-25.232697 6.325731 0.937631 
21.223431 9.819460 6.786505 
9.796112 33.561550 4.674537 
17.457298 11.296112 10.301097 
21.355152 -3.523633 9.839091 
-13.614830 17.197239 -3.845691 
19.653351 9.516454 5.578343 
-23.197004 12.446853 -1.905867 
-6.941116 24.025192 9.531051 
-8.119280 27.091080 -6.907170 
-21.814585 17.493586 5.768082 
15.154255 16.263092 12.496952 
-2.418282 31.507835 6.182117 
14.342963 29.563007 3.362084 
-14.394026 20.006805 1.743157 
16.823580 12.871380 -2.143755 
-0.122067 25.835218 1.615665 
27.567659 -5.731634 0.165263 
-7.354785 32.074657 6.883723 
-25.459711 2.400869 3.948885 
23.687016 -4.403271 -1.724182 
-31.854763 -2.443576 -3.418645 
17.363253 25.080578 4.263237 
26.437218 -6.206328 6.661427 
23.870275 11.517832 8.371682 
-17.165466 2.401732 0.695520 
13.779428 16.716049 -0.235998 
24.786154 3.695356 10.686650 
14.101691 27.255230 11.796210 
21.507113 -9.074445 -4.116303 
14.449705 24.310184 -6.697266 
-15.340850 25.978249 10.853189 
19.238153 19.103878 1.965246 
21.924894 22.684530 9.800473 
6.233846 30.755751 12.307595 
0.417468 29.238598 -5.139861 
-21.300898 -7.588658 4.878754 
-28.098909 -8.892883 6.129807 
-25.698664 0.058494 5.026916 
-27.036654 5.734519 -1.508953 
-25.510578 7.914221 11.745263 
11.343226 23.896996 -0.958564 
-18.875690 11.002853 2.223181 
25.271055 6.036575 4.542331 
-18.930935 3.038730 3.056068 
-25.968779 5.421907 10.897078 
-15.318738 16.063454 5.183914 
-20.778847 15.748735 7.426471 
9.300439 26.115335 5.208298 
26.370716 3.716604 -2.352727 
-21.849987 5.927602 -0.084842 
25.457970 -11.769566 1.266429 
20.133171 11.166038 -3.014960 
-12.787479 25.469002 1.138654 
-18.903923 9.185470 -4.537467 
17.893431 16.947220 6.241791 
-3.424165 21.034893 -6.027978 
18.259403 3.693182 -5.487083 
-15.677415 9.558847 -1.414960 
33.863693 -10.503733 0.671557 
11.407928 19.651667 -2.017071 
27.642496 12.205873 8.454440 
13.796876 12.819182 -6.482725 
19.681595 9.534061 4.812231 
-23.442896 0.289553 3.962729 
26.172760 -17.264914 12.468449 
25.106768 10.981403 -3.373528 
15.497439 23.165066 -7.561447 
24.772900 -6.018043 11.027861 
-16.351978 13.303934 1.075951 
-18.704592 -4.288076 9.742587 
-22.982019 -5.632977 4.496521 
-15.963722 8.773504 -1.736271 
-32.738010 -8.433540 1.579764 
25.781445 7.498793 -0.630362 
13.735079 25.201899 5.161069 
-27.244780 -5.404387 0.640212 
18.459286 25.135822 10.515916 
7.438920 33.299633 7.298596 
9.883984 23.620802 10.016354 
30.113386 -10.941535 10.849670 
-17.990797 14.679536 -1.473963 
20.377192 14.625358 11.006684 
27.413324 -12.361793 8.614041 
-17.724697 4.044479 -0.845621 
34.127228 -10.646085 -0.667242 
-19.430759 14.172510 1.334749 
-21.802385 0.231505 2.452508 
28.564041 -5.673048 6.159087 
18.910854 22.013861 4.688228 
-25.309532 8.373079 -5.127804 
-25.099085 0.621100 -3.295823 
4.079921 21.839422 -4.106077 
-26.969564 -0.004294 9.573212 
25.305437 9.644781 -6.062740 
20.132444 3.948140 -0.051386 
-25.227238 -14.082053 4.820993 
21.574345 23.016367 4.797677 
-14.457674 13.741948 1.390666 
-20.912956 14.469955 9.027010 
-9.592700 26.016676 5.958854 
-23.139185 13.662571 12.813871 
-17.085947 14.986135 10.980718 
27.790586 2.030931 3.971434 
-4.202202 32.072716 4.944648 
-10.971397 23.550631 7.388040 
18.573492 5.318047 0.075242 
-0.876977 27.936413 8.398583 
20.289663 20.958305 4.332055 
-23.142639 -12.137392 6.245161 
-1.022694 26.284767 9.688912 
-15.361004 22.411333 11.169981 
-21.554474 3.339492 2.129719 
-28.787443 -9.101849 7.582353 
-8.708565 25.620636 8.864600 
22.909126 5.871151 1.441710 
-13.750954 28.244076 8.143558 
29.601152 -13.235098 10.630922 
25.025261 10.138643 1.372608 
20.234978 3.387748 3.376654 
-30.015179 1.431670 -4.363077 
21.526890 6.523996 0.767846 
-13.984336 24.161560 3.091666 
-9.683724 25.416996 9.224556 
23.100916 4.634561 5.355951 
-7.300816 21.086821 -1.242145 
21.886824 -11.659227 -1.334401 
27.781504 4.731553 0.386688 
23.109516 -6.096998 9.763286 
0.040738 25.995327 -0.509483 
22.761063 -5.241007 5.264965 
7.619644 22.917549 0.692058 
-18.804401 -2.665181 0.417226 
22.866087 -5.564314 6.697121 
21.831732 3.395675 -2.856695 
19.699511 -0.719769 -4.199950 
17.192106 22.579212 -4.363344 
18.277004 17.145658 7.019669 
-7.309106 26.087793 9.155033 
28.708988 -6.689812 6.323609 
30.650434 -15.761440 -3.343304 
-3.851220 25.936066 9.412046 
2.401884 25.751797 -1.565410 
29.845263 -5.425225 1.455536 
-24.313818 7.925514 9.380278 
2.420744 22.303782 -3.637492 
10.114491 24.624870 -0.576413 
23.240557 6.435656 9.857317 
-17.650894 5.725769 5.421324 
26.148798 -2.093669 -2.681882 
-10.537807 29.170992 8.817924 
23.313988 -14.933727 9.741135 
18.886492 0.023530 10.302169 
3.493153 23.711491 0.026447 
-15.169786 21.939766 7.360212 
23.309870 0.266769 2.838468 
25.092838 5.566247 3.521664 
-11.666144 15.906470 11.224111 
-13.832101 13.380500 -0.744106 
17.749311 26.085262 7.093695 
15.207812 15.415663 15.676059 
7.243368 32.929546 8.846616 
-17.476051 13.356223 -0.372904 
17.595575 8.016124 0.321411 
26.509094 -5.813987 -0.046413 
-8.631274 25.562885 5.431751 
16.094656 13.264852 0.342452 
-6.349523 27.663881 -6.790532 
-8.074175 28.876345 6.578949 
17.208351 20.567766 -0.414017 
-3.373142 28.624008 -0.293655 
25.419968 -2.324637 4.186560 
-24.874413 -0.111361 5.114075 
-13.772107 23.364134 5.531830 
-10.451222 27.715109 16.359142 
25.174061 5.633719 -0.421583 
22.293219 6.600190 -2.125054 
23.607723 -9.765532 4.035423 
-18.921307 13.725736 2.287951 
-21.478529 18.884922 5.545588 
-18.778095 -3.958468 9.002982 
13.344649 23.747911 5.962650 
-20.493137 -1.418625 9.832175 
-11.774979 27.935051 5.877584 
29.273048 -2.685972 1.731646 
-24.074648 -8.062122 5.067833 
24.543224 -1.845898 11.182649 
10.040377 32.218639 2.826212 
29.455502 2.823858 9.706056 
5.788231 26.545815 8.693783 
-21.693609 7.601345 -1.385077 
-25.782440 -3.884844 6.062953 
14.653833 24.760674 -5.039990 
23.107130 -7.067238 3.802449 
-11.493821 20.617916 -0.354540 
-27.357908 1.493181 1.903443 
1.237779 34.109604 7.424098 
21.915461 16.447376 11.129084 
20.846935 15.805516 -1.452481 
6.256845 23.247379 14.800731 
7.725058 27.014875 6.042672 
-27.883492 0.603330 14.750631 
12.562874 19.065840 -1.354339 
-22.342218 6.018917 3.408321 
15.609566 20.822929 10.207318 
-11.460381 21.549490 2.566526 
-9.300436 27.779202 11.540595 
10.744822 30.227909 4.199678 
-2.002533 25.146929 1.384039 
19.293116 1.991314 -0.785337 
-0.191795 30.471363 14.095963 
17.830666 27.060120 9.313769 
13.613672 26.636486 11.754745 
-27.959982 -11.495976 4.789130 
20.810772 2.572551 6.727138 
-27.003704 -7.213120 7.369775 
25.410187 10.643460 9.996449 
-1.838112 23.215902 -0.903038 
17.189337 16.252716 3.719861 
7.025549 27.314007 6.271906 
22.548576 15.115473 -3.394061 
24.397150 -11.821429 5.172942 
-18.324057 14.696757 -0.776862 
6.722527 19.930159 -7.285141 
-15.903663 7.986364 9.080692 
10.909374 33.133518 3.223877 
-27.611012 -0.896223 13.381762 
30.126894 -7.263050 12.098816 
24.790121 8.703664 -0.396093 
21.314213 -4.139326 6.424081 
-12.018702 17.951254 -0.001247 
28.168991 -12.495625 8.326136 
18.615561 2.808497 -5.391130 
-12.409811 22.427353 8.458901 
23.673355 13.183842 -2.677202 
-14.018193 24.596575 12.796372 
13.097557 26.719034 6.459652 
-8.727900 21.544567 -3.288941 
-5.762884 26.221136 5.125799 
23.737806 12.908406 9.830639 
-16.180019 1.678464 14.829716 
23.591251 4.993332 6.894391 
-12.599193 13.684937 -2.472024 
10.649700 24.744217 4.164805 
-10.238787 26.123953 8.035982 
-11.957690 19.521341 -1.472875 
-24.834110 -9.943098 6.769928 
-21.514347 6.667787 4.006332 
-20.684793 14.088081 -1.162576 
-17.759172 22.869249 14.927169 
-10.822617 24.279282 7.061285 
-20.214733 5.797589 2.141448 
23.422989 5.059032 3.961032 
-27.607140 -6.540896 0.527618 
20.469597 1.856952 6.423900 
30.681892 -5.439474 9.293812 
-10.270215 24.373587 3.029243 
5.269889 32.160900 13.496618 
12.366767 18.539097 -0.230693 
27.362438 -13.410052 3.080307 
21.179867 17.074333 -5.916708 
-19.942501 -1.607639 4.299341 
-19.592236 6.116777 -0.154441 
-21.797371 6.547519 3.031379 
23.672436 -9.462584 6.259468 
24.075710 -11.295745 11.531736 
20.310984 12.245209 -0.496472 
-21.497459 -10.118229 5.316099 
-18.112024 -0.824978 9.000282 
8.029479 31.748783 13.514379 
-9.881074 28.434259 15.427156 
-0.092072 31.241930 11.969841 
-6.325973 28.507690 1.316469 
10.055620 26.244282 10.806086 
27.536068 -4.152205 4.408978 
22.408400 4.264585 5.766359 
24.018675 -10.877920 1.254433 
23.231852 5.719642 9.311345 
-13.179201 26.133059 11.293127 
-21.033857 -5.729096 4.379389 
-6.694878 23.036350 -0.641733 
2.640875 30.162451 5.111476 
16.076176 15.174618 10.363110 
11.935340 23.375809 -2.955287 
21.183893 24.230185 6.662855 
23.002110 4.663691 7.253726 
3.053465 29.952545 -2.458131 
-12.646156 26.541819 16.287531 
30.532999 -11.708817 3.220720 
29.263315 6.124864 15.152671 
1.525831 23.805471 14.891223 
31.251446 -12.069831 11.205422 
-26.545135 4.937127 -1.970527 
-15.015224 22.125454 1.892311 
-23.831223 9.343819 -1.147077 
3.054822 25.339329 -1.511610 
19.735815 21.166594 9.351274 
-6.834441 18.935719 -7.280541 
6.402170 33.863033 3.448525 
-14.177360 17.788946 4.496625 
-12.430472 19.939978 8.612038 
21.476902 23.650383 8.701991 
-22.067858 2.028509 3.668449 
-20.052914 4.069733 2.807717 
-18.640110 15.361157 3.278953 
-4.904982 25.041916 -2.389433 
-28.982727 -2.720393 1.815645 
-25.720150 5.368660 -2.379851 
-19.222723 -1.830596 7.048922 
32.532806 -4.746575 1.283245 
-20.620546 15.391584 8.304412 
2.977354 24.370207 13.148545 
-23.491602 6.442692 4.252079 
-8.591640 17.832853 -6.034017 
22.775202 9.932372 10.161465 
30.190632 2.813033 -2.367876 
18.512978 10.669779 -0.466015 
-22.525543 13.546118 -4.975626 
16.861465 23.715305 7.947602 
22.656740 0.621350 3.510633 
-23.917469 -0.134643 5.106793 
24.363758 4.904133 6.415896 
-24.269636 3.980371 3.575649 
30.558283 -13.468569 9.969892 
26.215433 6.657173 6.784173 
-22.530273 15.068824 12.490927 
20.495768 12.060543 -1.496981 
-6.613400 28.117466 -1.461761 
-8.520968 25.292225 4.713950 
7.264298 27.948622 6.687426 
30.574194 2.761508 -5.297701 
-24.762587 -5.552547 14.395245 
-19.602627 18.426542 -5.484901 
31.335077 -13.554914 11.210650 
13.413001 29.850645 10.302456 
23.895864 2.815731 7.349480 
24.675318 17.858055 9.301471 
-6.183330 26.667629 6.616551 
-14.926688 13.154497 -0.219913 
-22.774448 -2.178274 5.689541 
16.644896 20.087706 0.265300 
-21.815319 17.940800 11.972402 
-19.282490 5.859562 0.862592 
-27.431194 -0.451948 11.398754 
23.916849 12.290996 0.604433 
27.727915 4.441528 3.465194 
-25.645849 -12.151645 4.602875 
-23.582987 -1.953493 4.849422 
22.657753 10.232967 6.776024 
-9.246841 26.951244 6.049529 
23.518244 -9.260515 11.516925 
9.142939 21.374062 -0.208899 
-12.763947 13.080204 13.825202 
-11.083110 25.080408 2.136862 
6.181528 28.692219 7.312995 
19.694553 18.727734 6.427399 
21.851929 5.284468 8.199958 
-29.281090 -8.975642 2.038052 
22.467167 3.396169 3.254441 
-21.354895 -3.841876 2.015685 
-25.212049 -9.102397 -0.575437 
14.045662 27.893744 4.040489 
20.116079 24.015205 11.563154 
-19.279118 -10.260030 -3.058091 
20.472507 18.904522 -0.042899 
26.548174 -9.829393 4.477522 
-30.232323 -10.621207 4.698653 
16.806608 16.363350 8.448459 
-26.812967 2.155739 8.504589 
-15.830057 17.177574 12.166393 
20.742048 18.602106 8.113783 
25.048082 -12.576740 4.314772 
31.345888 -6.723489 11.097285 
19.109606 1.551254 11.187963 
-29.330931 -9.356892 7.027129 
-1.332049 27.695127 -0.459570 
12.859868 25.910023 -1.218168 
5.091052 27.734688 9.323525 
-4.232664 31.082134 5.768229 
-20.064232 7.786036 -0.240016 
25.073107 11.329472 3.902854 
17.988783 8.796167 12.346133 
9.613966 19.216444 -2.463910 
-26.231171 -5.399354 0.120422 
-0.592937 28.669937 -2.455746 
22.007435 11.992355 9.759022 
21.288061 6.064344 2.874701 
-25.694206 -3.268813 10.755654 
4.459860 33.173649 7.259024 
7.791217 26.544172 11.725310 
-27.010557 4.545678 -0.330543 
30.142118 -12.434167 3.702983 
-26.921421 -8.342710 8.366776 
-18.673151 -0.372811 9.553966 
-26.551863 5.442650 -0.132201 
19.930313 3.684046 8.991317 
-10.085359 27.028330 -3.042332 
5.890152 32.920879 9.325904 
-16.107119 5.696134 -4.052050 
21.137833 8.911866 7.302176 
29.718105 -15.815250 12.649039 
22.417118 5.622160 0.676150 
2.645947 27.747644 11.936384 
32.605251 -11.577897 12.286937 
11.613065 24.165272 2.030982 
-1.900308 28.150698 6.034306 
-21.809006 8.500253 -0.128390 
-26.233252 -4.181400 1.635390 
25.279274 -16.228350 -3.333789 
-16.863907 24.219837 14.126003 
-26.674519 -6.565694 7.134281 
22.836685 16.267498 3.194079 
-29.691162 -0.853666 -0.148156 
26.116915 5.320075 8.200374 
-18.349276 15.631696 11.609687 
29.441406 -11.285838 8.201971 
-18.501045 14.073681 1.246830 
-14.093548 21.714191 8.111345 
12.951996 23.563122 7.988462 
6.301945 28.654341 3.666799 
13.017406 24.389538 -2.895797 
27.981127 10.264450 5.994277 
-9.005424 18.998983 14.491765 
-2.504491 29.904867 -1.064522 
21.810051 18.412975 9.238280 
22.346218 -9.426260 2.124333 
20.996866 18.098200 9.557486 
-25.525852 -2.976410 9.929872 
22.860231 5.740791 6.767558 
28.374537 4.231256 9.222859 
-12.469371 23.789532 9.348977 
-24.271275 5.705510 4.230738 
19.717066 -1.474904 9.450360 
-20.715996 -5.542622 3.092106 
11.197804 25.036757 2.271412 
19.022799 12.591489 4.815213 
-28.256502 -11.905190 3.556095 
20.328999 24.702602 4.175097 
-17.678768 21.166967 -3.581196 
-23.280273 -13.350568 2.072823 
19.835823 13.058932 10.451031 
-14.830734 19.827450 5.619744 
0.850725 31.318153 15.807189 
-6.050950 21.027582 -2.490143 
4.966653 29.381622 -3.490449 
21.072025 11.626462 7.284916 
16.217659 20.402691 7.182416 
-11.155616 23.795906 12.171608 
19.458702 4.840910 9.287616 
-9.714230 28.031155 10.056651 
-21.350216 2.278767 11.266431 
12.368027 25.947561 11.267896 
22.051437 -9.572810 1.169278 
21.516003 17.441248 7.908710 
15.688166 23.275764 6.748713 
-8.824187 27.488033 4.088027 
-13.479149 28.465298 6.755173 
22.896564 -4.118133 -2.316144 
16.313850 18.436724 -2.607609 
-16.294090 4.725685 -4.786875 
-3.951837 28.248718 10.355178 
29.389418 5.255527 8.996469 
27.629255 11.469678 15.462729 
10.926968 24.994890 5.217079 
21.857330 20.492191 9.387808 
-16.212940 25.037216 10.259092 
-15.034091 12.895279 8.707652 
24.536766 12.047917 -1.755123 
-3.783143 22.662609 14.728534 
-19.887154 21.673141 8.696773 
20.703224 17.763073 -6.070885 
30.985422 -7.527975 11.877353 
7.185457 27.383755 -1.229034 
-15.538033 4.622139 13.395418 
32.031757 -14.946634 -3.419031 
-4.861717 23.793623 0.356144 
9.197286 30.524794 13.417865 
-18.141762 17.974901 9.587830 
-5.590398 28.677418 7.583401 
-4.598561 27.050083 5.701914 
2.196139 29.909885 2.657365 
20.697952 24.606716 8.994366 
19.675642 16.655088 -3.418101 
-6.833146 29.635033 15.684072 
-28.506695 -6.684790 6.439584 
12.310233 24.492531 0.348217 
26.798262 -5.264399 0.480672 
14.860632 16.108015 -0.271503 
-22.496181 7.947776 7.579502 
-5.776667 30.783030 10.248449 
30.920376 -0.737457 14.753968 
18.718914 25.511990 4.098766 
-19.897755 17.637062 12.084166 
26.727303 -12.967905 6.921054 
26.043991 -4.866048 8.860340 
-0.978513 27.275730 8.774659 
-19.702763 12.276391 9.059409 
11.622413 21.993717 10.476687 
4.940229 30.537003 10.594976 
12.366489 24.980768 1.969003 
-25.475750 -5.500699 -0.194670 
-19.690559 14.268273 0.593520 
-24.738071 9.545238 11.829140 
-11.799685 14.756706 -2.950231 
-15.378594 27.212973 7.028931 
-23.290920 12.711910 14.530479 
-5.509211 26.712507 -2.838007 
-4.497792 32.852684 5.942216 
7.529857 31.803730 11.670037 
-20.680792 15.501205 -1.461160 
14.708460 25.086269 2.189932 
28.788322 -13.245661 8.460921 
14.231978 20.160904 2.381119 
30.412083 -11.200699 2.501396 
-18.788115 16.349333 3.253466 
6.766237 28.112162 7.539159 
21.971880 -7.855594 7.951573 
20.345465 11.710034 8.863998 
20.508333 14.878341 -1.246899 
17.579063 10.726829 10.987090 
-19.388481 7.350159 5.854677 
-20.350752 8.228251 -4.069835 
19.737860 0.745558 7.438095 
-16.428297 5.435637 7.997037 
0.270269 27.867514 6.200315 
30.619692 -11.051150 6.811694 
20.238565 10.285092 0.193950 
-27.925398 -6.132572 6.515494 
26.132206 -3.062047 10.925328 
-16.055416 2.551978 14.880934 
-2.863674 29.033024 13.016838 
-11.868208 26.038950 -2.809235 
3.198717 29.813658 -0.082184 
25.323975 0.960107 -0.168622 
-5.204483 31.065548 6.015743 
-24.536379 9.020522 9.395173 
18.998693 0.862583 10.602101 
22.084570 -9.521544 10.128885 
18.176935 4.040292 -2.196356 
18.537090 18.925600 10.473928 
22.296268 -9.082239 7.929748 
11.281762 29.649837 9.117013 
25.575527 2.655984 4.596470 
19.156067 4.012504 -0.072996 
-16.279129 15.792798 5.770693 
21.110781 12.862984 0.738083 
-29.333864 -5.930235 2.257909 
22.090490 22.647135 6.377154 
-19.762953 20.886520 5.453271 
29.319933 -10.889974 12.660521 
-5.929468 31.893753 5.574464 
-13.157778 25.670967 -2.735759 
7.437326 27.483994 0.510014 
-18.110636 13.088584 2.202398 
13.873674 14.250017 -1.653536 
20.149912 22.645826 10.343712 
-25.175636 2.968462 4.396729 
-13.827724 10.545365 13.098521 
-6.350569 30.499067 14.121796 
28.973476 -11.897078 1.879881 
-22.552986 13.993215 15.540483 
-9.355016 23.916639 9.648589 
23.075920 13.165521 -0.880877 
16.940943 16.852608 -0.137732 
-18.360655 -0.597538 5.793020 
16.481094 24.941982 6.771932 
-8.627728 30.104147 5.010895 
21.132328 0.442470 3.660128 
14.105593 24.740900 11.187077 
-27.379450 4.315900 13.281178 
34.228333 -5.188196 -2.798715 
22.215061 -10.920228 8.000014 
16.553082 22.930378 2.567939 
17.609371 11.802500 8.692082 
17.083481 6.498856 -3.727519 
-25.786617 -7.818361 6.662179 
-23.974609 -2.855228 4.403833 
-16.067217 2.269390 7.597744 
-16.407688 4.883543 -3.851368 
-26.917810 5.189897 14.048635 
-12.894502 28.541016 5.858877 
11.609077 23.408562 0.728653 
-21.511454 -3.861800 -0.404325 
21.353415 9.703024 -3.584907 
-16.984581 24.353180 13.243605 
-15.685920 26.825665 5.362811 
-5.669539 28.440771 13.169973 
-17.825478 8.000735 2.439106 
-19.534473 1.897055 10.650549 
-21.418024 19.833090 10.329049 
18.327892 19.341070 1.981073 
21.016636 5.572882 6.896357 
1.755774 25.674530 0.773911 
-15.252946 26.205873 4.497920 
-8.277519 25.924723 -1.959652 
30.206085 -3.877049 9.717910 
-26.452345 -4.665994 0.730261 
26.545326 5.355564 4.440088 
-26.796700 -16.328894 -1.274672 
-26.586050 -8.855505 -0.126861 
22.157364 10.084943 4.290607 
17.435005 26.693327 5.902036 
-13.667377 11.918469 -3.154553 
18.085594 10.320189 9.868514 
-15.438100 7.364000 -4.461276 
-1.740264 31.468912 14.994331 
22.864262 17.896147 8.179354 
-21.716974 10.567082 -4.159473 
22.356318 12.007361 8.865415 
21.319668 -4.182974 1.134426 
26.578386 -7.341608 12.489285 
1.054446 28.066593 5.867020 
-11.927763 22.979031 -4.547195 
9.948379 31.512295 11.127865 
-22.422943 2.645190 4.076685 
4.717675 24.292690 0.912473 
22.332386 7.857883 3.093631 
27.056221 5.350376 7.206872 
-4.423588 28.557268 1.305640 
9.094409 25.685190 8.493202 
-17.652700 -2.100799 8.194420 
-19.800917 18.448215 -2.125094 
-21.937157 15.397797 15.623417 
17.467340 27.577042 5.930126 
-18.779493 20.108345 -2.989119 
-25.378546 6.131543 10.831501 
6.536981 31.445194 11.855559 
-19.413486 -6.131202 0.548574 
32.166344 -7.004249 14.389495 
17.165495 26.623665 9.272296 
-21.272524 17.715322 14.657088 
24.694887 13.615325 9.009988 
-21.648039 14.162766 9.449195 
-14.673553 24.062284 -2.165346 
13.568099 23.065838 5.535795 
-17.694080 -0.593635 -5.300892 
18.554037 11.059050 8.280885 
-16.679510 22.193567 -5.329247 
-16.866432 21.241625 -7.597993 
-30.530647 -9.235543 4.246794 
-23.172670 4.567315 -3.753452 
-13.371364 17.479794 5.343402 
6.414528 25.665615 9.209607 
21.259375 -6.432352 8.522594 
6.449657 30.215996 6.459029 
-23.208616 4.798731 4.950494 
5.694081 27.071161 1.804916 
-21.323870 15.085339 -2.172753 
9.342571 27.930784 0.658505 
-19.108656 -9.395667 -4.382905 
16.604303 22.066874 11.312048 
26.553898 12.756150 6.898342 
20.034626 19.077780 1.032810 
-22.354561 13.012028 -2.999332 
15.925536 19.791801 2.790491 
-31.464615 -2.438796 -1.908762 
-18.908901 15.182870 9.122331 
15.549039 24.175076 -0.373816 
-10.169314 22.931015 -4.075100 
-17.618217 0.780204 -0.051993 
18.814589 1.946913 1.856985 
30.913992 -12.656593 9.181990 
-10.391831 29.595598 5.619581 
15.981270 8.936873 -6.057052 
18.517139 16.562147 -0.768041 
16.662521 15.492204 -3.598393 
-8.859901 26.126598 6.245472 
11.414684 18.558729 -0.896869 
24.802814 3.985276 -2.647688 
-16.256357 4.607048 -5.838834 
12.953699 21.596109 -0.743658 
-4.435363 31.377831 8.706300 
8.704529 30.809834 5.824016 
24.370975 7.773716 10.371819 
-4.634240 28.531303 12.288333 
13.410484 21.072330 -3.350859 
-23.759535 5.325111 4.631924 
22.486429 21.486032 6.427746 
20.384592 6.010978 7.329574 
-18.226192 -3.793960 -2.910173 
-19.890903 4.365740 10.803982 
-25.919569 -12.495872 3.550792 
-34.423241 -11.011975 -4.325714 
0.249077 26.818884 -0.433841 
-18.368193 1.864154 -3.496817 
22.842064 -3.572479 10.385568 
-17.686691 2.928668 9.718733 
-11.419506 19.866909 9.320110 
-23.179146 6.099012 -2.204389 
-18.868929 16.944067 6.091289 
10.241101 26.605099 8.771760 
-11.012520 17.813694 11.370492 
3.416734 25.360373 1.821809 
31.416245 -11.856181 10.460969 
-13.023014 17.268639 10.268944 
-1.726051 29.904514 5.578562 
23.198847 21.709009 11.765101 
-20.059666 -8.763504 3.271307 
6.510402 28.478792 -5.061691 
26.142769 -1.859121 11.205705 
-9.753682 23.422291 8.589000 
-24.137707 -5.978007 5.890376 
-2.886925 26.093340 2.279780 
13.364166 24.356678 6.523172 
2.387959 23.868132 0.042895 
-27.730175 2.631142 13.861480 
-7.543643 26.522179 7.001694 
23.355455 -5.838488 1.805541 
-26.621075 -10.692686 0.464851 
-4.857368 27.902349 2.538318 
-21.484364 18.773226 10.258160 
-8.048642 23.902582 0.216840 
24.233150 12.448716 -3.657411 
16.327740 13.350350 1.663436 
20.032684 -0.483332 2.460975 
18.443081 26.750952 10.284425 
26.973154 -3.374372 4.635509 
-17.860237 20.069090 -7.481664 
-8.651817 27.522684 5.053210 
21.285410 3.272886 7.172895 
26.356747 -15.785755 9.883497 
8.994492 25.412804 -0.357841 
-27.089071 -0.124437 2.622228 
3.059093 33.473358 8.784290 
9.384722 27.910328 -3.407606 
-15.110681 23.356144 12.296934 
5.750248 29.649540 9.112531 
16.039904 9.995026 -2.368469 
15.300029 23.949490 -2.644877 
-29.541304 2.356257 -5.699702 
25.885832 -4.482063 2.787656 
23.367647 -10.059721 2.432252 
-15.861072 2.592143 13.498634 
-10.844466 22.021854 2.225211 
-28.877251 3.344749 -4.050998 
-25.510771 -13.254139 1.881284 
11.219396 27.871046 8.544177 
21.519079 17.150444 0.306251 
20.966003 14.158606 1.784110 
-27.072254 -3.828640 3.057155 
-27.409145 2.332423 1.206553 
-6.622204 27.841934 -2.257337 
-23.406664 -1.980651 -3.140157 
-10.473080 23.864040 11.756130 
14.005003 21.739573 -3.466485 
10.382167 27.787085 3.886411 
-17.831823 5.955828 7.185420 
11.762877 15.889531 -5.227166 
22.068304 15.223931 4.500713 
-23.746119 10.245483 -1.409662 
-13.521156 20.550827 -3.085170 
21.441525 16.200327 -6.782817 
-18.763359 18.817360 -7.356310 
17.229504 27.106554 14.101243 
16.149080 28.522978 8.201992 
-18.024542 2.573276 -2.411407 
1.441651 28.692953 -6.594960 
22.106409 -3.841861 -2.394256 
29.060617 -1.227053 1.727256 
28.959070 4.188450 6.043106 
-22.945000 -12.720359 4.887064 
5.651832 28.170717 7.682703 
22.270159 -1.532769 -3.218760 
19.009216 2.630509 0.718565 
21.748762 -8.871006 9.657549 
-4.985017 26.777018 6.603382 
-20.375359 13.318797 -0.917705 
4.297951 26.090189 -1.819875 
4.915671 27.537813 0.682980 
-18.726221 20.360683 5.022672 
-22.803055 12.621737 -5.853110 
0.431083 26.877260 8.944009 
22.244637 23.006414 12.125492 
-20.802443 1.463697 2.907094 
-9.252814 21.431747 9.963055 
12.622857 25.867683 6.900129 
24.298054 -6.820926 0.605296 
2.470380 32.454060 11.222007 
-15.713364 23.102047 11.051878 
28.113516 -3.959823 6.793276 
19.274252 9.365660 2.980518 
28.882305 -4.545698 8.475389 
-17.828505 21.588213 10.752656 
-20.729187 -10.101710 1.991460 
19.475876 -0.637257 -3.480218 
20.591751 6.636136 9.337744 
14.466134 19.543638 -0.915154 
-16.839853 4.296397 -2.964054 
28.252966 -1.842418 -1.772527 
30.523672 -12.502193 4.486403 
-17.737020 7.534167 7.969817 
21.382748 -4.861006 0.064010 
-17.055416 21.573563 10.084320 
20.338940 9.046765 2.691568 
29.047056 7.881843 13.825989 
-9.481038 27.560568 6.524081 
27.919075 -15.805264 10.687845 
-5.763024 25.492241 3.055429 
-21.036228 -11.442544 3.287984 
-18.838526 15.087338 7.440954 
-25.990889 5.108411 1.731327 
-26.800083 3.647321 8.468481 
24.977198 -15.120989 9.193307 
-26.418575 -0.131929 -2.311859 
16.541029 21.399616 8.139309 
19.729416 -0.282557 -2.769596 
15.077802 24.489326 -2.090824 
6.599185 29.006792 -2.532531 
-8.642313 24.634241 2.935270 
20.424339 22.320370 11.696518 
25.863104 -8.790912 7.039662 
-11.215239 25.068506 1.006009 
-4.936459 21.216148 -3.160280 
3.270994 22.776930 -1.789753 
-10.573288 16.263367 -4.177901 
22.115166 -1.094281 3.276209 
-12.287470 14.487653 -2.057577 
16.640717 12.448430 11.028557 
-2.296393 25.829887 9.966757 
-30.097841 -6.758439 5.013138 
-1.495925 30.636490 16.542297 
23.642305 -8.127957 4.766436 
20.497339 8.693969 9.644899 
1.503035 25.162397 11.159965 
-10.320455 21.651075 8.718077 
-14.183108 24.757101 -1.892692 
-22.813700 0.723332 3.480477 
16.571878 17.763226 0.111427 
6.191669 21.908962 -1.123724 
-17.711630 20.559763 12.130515 
5.449080 29.651100 4.412152 
24.603167 -6.928335 7.680882 
-5.069082 25.832451 3.390978 
17.653164 21.941708 -3.143773 
-5.207613 28.010323 -6.572442 
-0.427581 33.141125 3.984522 
24.498800 8.024032 0.226777 
-22.666229 12.058869 -3.393919 
22.159185 2.466608 7.408074 
-3.972148 30.498453 10.222513 
-16.614918 11.060078 1.637990 
-4.389681 30.244343 7.422050 
26.805813 -12.917459 6.053778 
-1.693324 29.855331 -2.854051 
30.002937 4.290945 10.217453 
13.436768 25.769144 9.020015 
-13.108315 17.683031 -0.738475 
-26.353437 -12.862875 2.337328 
-22.461679 8.413081 -1.720445 
18.571974 11.289826 1.692153 
-30.691921 -9.680313 6.162684 
-14.813767 26.853855 4.156436 
27.836555 12.165910 9.260884 
-7.809921 23.326101 0.874689 
-19.032164 16.013515 -1.361507 
-26.725267 -12.466681 3.108308 
21.699593 5.435326 6.293805 
-3.803174 29.728811 9.313314 
22.913830 -0.757707 -3.409061 
-5.319200 28.300930 1.497539 
-20.907408 18.385530 14.805662 
-19.767056 -10.918229 0.698624 
31.415657 -11.714106 5.103916 
-24.133921 11.124218 13.264861 
-24.409010 2.819160 4.610483 
-13.277975 23.170450 9.083755 
-5.126199 29.010090 -0.725741 
-24.166786 0.771362 11.120667 
-12.949430 12.994552 -2.871196 
9.295347 23.448357 -1.147278 
-7.963912 27.810884 -0.494921 
7.278533 32.671124 2.796991 
26.761410 7.617911 -2.722863 
19.041365 19.522755 11.009191 
20.194056 25.354763 11.087388 
23.740164 12.845299 -5.318678 
19.724213 24.704268 10.871381 
14.829051 24.933880 5.249848 
-17.442884 4.125109 -1.636575 
20.490164 19.045485 -2.715652 
-14.159944 19.714027 2.493951 
-1.031585 30.090040 -1.822082 
20.240818 -3.308593 -2.996230 
8.312755 30.136791 13.483813 
7.145819 26.755188 0.694481 
28.436411 4.811440 5.421472 
24.261017 -8.032142 7.870013 
6.936636 30.031628 10.248238 
-14.311345 18.802691 5.013164 
24.409735 9.370737 -2.236212 
-14.246377 11.592461 -2.309799 
1.660735 26.977411 1.732580 
-26.930391 -3.102664 2.843187 
-25.063932 -0.414400 -3.078084 
-29.170952 -0.129250 0.002058 
-32.327168 -11.971107 1.753505 
-5.736296 27.596592 8.477278 
-17.529470 0.349967 6.603337 
19.509180 8.853535 4.495405 
22.509090 11.494333 7.605505 
19.091469 -0.997883 9.294013 
-15.741370 17.369188 4.190541 
19.896715 19.383036 -5.133021 
-13.466270 11.640840 12.740007 
25.168509 14.603019 9.931693 
13.010088 25.385780 1.621741 
22.038151 -4.521189 1.377051 
-27.863276 -2.275343 2.148264 
11.636975 23.948389 9.124461 
-13.960688 23.445499 6.868826 
12.238347 24.346861 7.597597 
12.474273 23.454086 9.161113 
-6.818856 31.066483 10.274850 
-20.147045 -8.379073 1.995685 
18.419857 10.044614 -1.439546 
9.884830 23.750076 1.639899 
24.000593 5.079585 7.895866 
-25.082661 5.394844 11.085277 
-2.908683 29.079088 9.571392 
0.807406 32.509586 13.475879 
12.917544 21.982056 9.063274 
-20.144897 -6.188222 3.241302 
26.002432 16.454416 7.016605 
28.738714 -12.428752 7.050797 
25.401310 2.709692 -2.966150 
-21.144869 20.592880 10.115137 
3.191159 29.378590 -1.561678 
-13.424451 20.834539 8.730223 
28.772142 -9.655804 12.907264 
-21.837639 17.181860 13.419833 
-13.488939 22.813408 -4.389662 
14.798882 24.841257 3.180622 
-17.144421 14.746696 8.342221 
27.406727 7.598569 4.009442 
21.930880 3.919518 5.233399 
18.703735 25.992619 8.418795 
14.485702 11.858611 -5.058525 
-8.863725 27.878517 12.338348 
13.462576 29.700476 12.357761 
26.849300 -12.849469 8.366425 
-16.264536 10.345631 1.359175 
-19.638748 3.315615 2.539966 
19.825989 3.742645 2.681723 
-20.818140 20.384556 6.136981 
-0.315907 28.701544 -1.659153 
7.844558 31.807755 4.430692 
-17.153852 0.447238 7.423278 
-29.157598 2.228415 -2.065560 
31.129347 -7.226752 7.038443 
3.577033 28.796459 -6.030107 
22.986328 14.404065 -4.293646 
16.280664 18.796698 -0.740261 
25.337004 10.105408 -1.710880 
11.337822 28.680674 6.737091 
-14.209716 19.409826 5.556232 
-18.360781 3.145223 2.412561 
-1.711638 21.918098 -4.440874 
4.703382 31.155090 9.870620 
15.325743 24.858353 11.060858 
10.987735 23.178316 1.083974 
19.083761 1.123028 -4.160804 
10.847958 28.856289 8.874368 
23.489796 8.147817 -0.225126 
19.337444 13.387948 -0.989115 
-13.756334 27.737867 4.721106 
28.226061 -13.039769 9.748383 
-7.421841 23.810131 -2.069293 
18.876297 4.453907 12.270266 
25.022388 10.771713 -4.626286 
-27.137777 -11.496644 5.315207 
27.018755 -5.513630 6.770974 
-0.660404 28.572317 -6.832516 
20.851824 17.287689 5.182316 
-23.828199 1.625343 -0.390817 
-17.185528 4.125869 1.154676 
-26.688042 -3.685768 3.738573 
12.606976 25.114059 1.050945 
-3.149901 30.849722 15.542624 
-12.935704 17.795109 8.318780 
-25.865103 6.578833 15.102618 
20.861225 4.811837 1.018973 
16.712362 24.827570 5.118369 
-19.903006 17.599159 -6.190760 
-31.559214 -8.341849 4.470855 
-13.311693 24.577766 10.230332 
2.208314 32.852970 4.027258 
-14.567948 23.546495 2.571262 
16.577335 28.312914 7.000122 
-16.900801 14.370104 -0.171478 
-24.643669 -6.351022 6.418088 
26.984104 -5.608343 5.264147 
-7.815032 27.919294 5.194663 
-26.574263 0.413673 7.571181 
-15.184432 23.892008 -4.283978 
16.635017 21.519733 0.741208 
24.427288 11.870432 4.214659 
0.463257 29.861271 -2.609710 
-16.240959 15.182864 11.416690 
15.737084 13.963427 1.443902 
14.315088 12.646276 -3.179636 
5.419626 25.379919 1.906740 
21.853933 8.007054 3.654377 
18.154175 15.662850 -3.751869 
21.704950 4.881485 2.649780 
-14.041873 25.640810 16.232943 
-15.103989 16.265697 11.708429 
-21.361149 8.135190 7.627722 
26.155806 16.831930 12.818160 
-15.162211 22.804302 -7.750219 
19.040827 1.926892 13.400549 
-7.240770 30.765659 10.931304 
-28.420341 -10.809071 6.243549 
-12.010335 15.155063 -1.646765 
13.481997 25.095068 -1.933970 
29.474234 -1.872798 4.203965 
-20.867777 7.205192 -1.785054 
-15.978787 19.632523 2.739434 
-13.903647 15.453954 8.396974 
-19.867323 1.805318 2.734522 
10.695286 24.833839 0.966302 
30.417204 2.825078 -3.689614 
6.883817 32.415295 12.173347 
-12.697521 19.556961 1.555634 
-15.864700 21.955242 8.418742 
27.189947 1.966753 11.034503 
-7.200112 28.027145 10.958456 
-17.704384 19.025560 9.772834 
19.400631 16.330757 10.702085 
9.788665 32.941479 2.417706 
16.674328 15.409164 7.983940 
27.183409 13.413642 8.990747 
15.599109 24.196604 6.494146 
21.418486 16.218676 0.104411 
20.679636 -6.528893 9.087305 
-11.059511 25.315100 9.416114 
17.879795 15.647437 8.990570 
25.612532 -4.292755 -1.073770 
-27.689150 2.476976 14.860390 
18.933462 19.160238 7.288365 
25.632568 3.165771 7.275182 
24.699389 -12.152102 6.775619 
31.709316 -10.921477 4.606383 
-18.742809 13.189069 -0.174386 
32.470905 -8.036680 14.329587 
3.619951 30.087002 2.254105 
-14.490368 15.094847 9.130545 
-19.335161 -2.699671 7.346929 
10.561889 26.009745 -0.238750 
19.265253 13.729162 3.929749 
-23.305531 10.722280 -0.034304 
10.364746 33.070484 7.164048 
-27.433855 -6.754272 6.830538 
6.670588 29.359949 13.157640 
14.678185 22.300743 -3.392919 
-15.342567 7.261567 -5.235937 
22.242161 -4.614723 0.603070 
-0.894884 24.749521 0.494079 
15.952606 28.702723 7.358809 
16.622219 22.378134 1.021279 
28.245808 9.513427 6.298668 
11.958079 19.680779 0.456222 
-13.023564 24.092377 12.744215 
19.388083 0.212695 -4.188700 
29.544882 -11.061906 7.419694 
-21.769857 3.992641 -4.140497 
22.996824 8.452294 7.664474 
29.474243 5.328453 15.106424 
-8.029186 26.642179 -8.102274 
33.739952 -2.872078 -4.680040 
-18.945620 9.761752 8.719712 
-20.992369 1.810157 -4.369804 
10.697454 29.925758 10.209435 
16.317728 23.256418 1.355486 
-0.819821 31.239935 6.902204 
18.853565 11.952339 8.496989 
-18.435848 16.893347 3.669060 
-7.235766 27.668036 6.711485 
9.030993 20.111406 -1.823871 
31.036663 -10.127507 8.882673 
1.765464 29.456039 2.190323 
5.393388 21.872149 -2.366911 
11.224422 26.835382 -4.196594 
-26.850498 -12.129248 3.887211 
-18.864216 5.334788 10.127079 
-19.282349 -2.779116 -0.723598 
-4.548864 27.093691 0.791374 
-23.787186 11.392216 -2.638986 
15.089911 10.624827 -6.241694 
24.527161 -7.984681 2.638173 
-26.332872 -7.935734 7.834638 
3.188423 29.900171 0.767494 
-19.431414 9.383362 -1.209041 
24.534836 0.485398 4.856664 
27.815540 3.563637 -1.768196 
14.300379 25.389334 11.512606 
17.195641 15.413890 4.668548 
27.643379 9.719526 4.180814 
-23.093002 -3.063468 -2.639487 
0.050732 30.015766 -0.406294 
