-4.144741 24.603254 3.554357 
-26.630453 0.187632 13.898120 
26.200323 -8.219365 11.566183 
14.910869 20.046618 6.296170 
-13.380260 12.067070 13.544339 
-20.036011 22.480652 16.234777 
19.422478 -3.875807 5.390588 
24.817348 9.492340 -1.101186 
-20.179043 16.809391 6.707975 
5.611833 33.135685 18.028959 
16.554003 1.877150 0.152897 
-6.441138 25.938232 2.692498 
-8.588040 32.265644 8.199890 
16.391151 15.311802 15.091041 
-18.807951 17.772953 -3.400162 
-28.999559 3.771821 -0.699378 
-12.920811 18.700741 3.058995 
-14.705164 21.716644 9.392084 
21.918985 5.545774 6.819408 
19.468294 16.384403 2.264262 
-9.386250 26.681183 -4.462823 
-1.678665 33.672672 17.867203 
-11.714054 31.657431 13.631125 
24.305046 2.449208 11.955268 
16.973951 18.918039 4.163703 
13.535384 9.039011 -2.866663 
22.016327 11.320647 14.744449 
11.523460 22.815971 11.990570 
-29.960318 -5.467703 15.085308 
-1.963566 28.342182 13.153565 
1.264076 30.179232 0.933723 
-20.618311 21.235291 16.580374 
23.112881 0.588479 15.848191 
26.653496 -8.766368 14.465291 
12.977348 15.985020 0.989085 
-15.019419 20.893429 6.665362 
16.249693 4.490124 17.704454 
-21.004423 -0.884683 15.386039 
0.754717 28.797903 8.398665 
18.685034 12.204907 8.886853 
24.829790 10.925467 7.994184 
-16.832119 10.086238 -0.844613 
11.325332 20.000444 -0.182269 
18.797022 16.513311 6.483241 
14.264948 21.878283 -0.621661 
-16.717903 8.301700 14.389725 
28.397121 -8.318799 3.351693 
-5.652896 28.133844 6.868519 
31.403971 -1.536323 18.047840 
25.132601 5.474528 7.643878 
16.044327 3.674020 2.378319 
-30.185415 -2.967898 6.764520 
-22.479002 1.774355 10.658163 
7.363310 29.090174 2.912770 
-5.301329 26.900175 5.234469 
10.377983 20.799940 4.789097 
25.998255 10.067124 12.789542 
8.470783 30.743473 9.296940 
-31.019405 -4.010973 16.341501 
8.522967 21.079750 2.871547 
14.302830 12.841409 8.732723 
3.002348 21.598146 -1.546216 
17.722099 7.299338 15.809847 
21.707464 10.151775 6.778759 
-20.870470 -5.501456 6.173183 
-5.192447 24.677450 18.604034 
-27.877071 5.268515 14.526215 
21.365702 13.716370 1.187150 
-3.758583 20.689373 -4.676638 
-13.176995 25.599020 -0.608050 
-19.517698 -3.771261 3.000557 
-20.451984 3.474936 7.184741 
-22.721235 -7.267438 7.369382 
-8.260205 23.860554 4.255415 
16.999638 0.949622 0.447216 
26.598490 -7.764780 4.974497 
-22.661669 -1.036397 16.270403 
-19.686287 15.670957 12.340082 
-24.763813 10.233136 3.212521 
-2.155106 28.789331 1.546233 
-11.868514 21.238941 12.969523 
-20.998657 -0.708292 8.734033 
4.255735 28.324648 13.645135 
-9.424277 24.230642 13.124317 
-7.695634 32.884781 12.799946 
24.243790 8.634871 16.481466 
21.133392 19.370308 14.473188 
2.333504 34.996136 14.326893 
-10.619746 29.208763 6.376268 
26.079613 9.895661 17.819712 
17.710058 0.298537 15.730172 
-28.944569 2.920382 16.204636 
-22.473085 0.853475 9.372489 
-15.489616 25.177053 7.505980 
-26.248663 5.114258 2.081759 
18.441233 21.694960 7.493476 
-1.088972 22.172991 0.406090 
-5.668917 28.782467 8.130650 
10.717278 22.016199 13.526296 
24.730547 9.774022 -0.308292 
-10.081193 25.890999 2.969414 
-22.563250 16.159210 14.163373 
6.013839 24.307274 18.675081 
8.644271 31.674753 10.254462 
17.477087 26.832518 7.558479 
-11.997772 14.016617 6.376380 
20.799059 12.225395 10.893703 
30.121964 -3.376760 2.749854 
19.799295 6.987741 5.863883 
14.985972 17.577105 9.386719 
-26.358143 0.793830 17.095383 
15.144129 23.951094 4.179948 
2.987487 30.479435 15.726993 
16.752794 11.348467 9.679970 
21.534084 -7.146938 2.385900 
-16.134838 18.259953 12.472785 
24.954912 11.356374 12.411734 
17.508083 7.772716 7.272770 
26.544264 0.098349 16.987217 
11.164458 27.002985 -0.841894 
-16.516069 20.697113 10.813306 
-22.576284 17.142921 16.661150 
16.973524 3.830916 10.837344 
-16.169397 21.178040 -4.851359 
16.627798 7.887015 13.637152 
10.953566 23.097616 6.065133 
15.175611 20.121088 4.379581 
-19.968586 11.207999 8.547088 
15.262780 25.897556 14.620831 
-9.642157 15.086668 -1.320755 
-7.502668 27.357283 7.982408 
19.665710 18.361444 12.594260 
-15.257068 25.214020 16.385458 
-21.463228 16.493330 11.434520 
17.113934 9.189821 9.293283 
-5.979098 35.091480 12.802208 
0.183087 28.514257 3.740947 
-22.338760 12.773691 -2.670825 
-18.599382 13.299162 4.416534 
-23.182007 6.440175 -1.152655 
0.153282 35.718224 6.404739 
21.614594 13.999919 7.847351 
-24.326052 2.867984 9.994858 
-24.596428 12.581238 8.371178 
20.136787 -5.815179 0.850188 
31.341772 -3.791687 19.302767 
8.302691 32.297092 14.119556 
-26.620249 -2.482618 -0.319126 
-27.055847 -0.498785 9.116815 
19.664274 22.099564 13.071422 
-7.328918 28.887510 -0.603529 
24.657198 5.420699 16.208693 
18.744070 17.890087 8.045652 
7.343809 30.045410 11.000983 
-19.214241 17.114138 -3.372062 
28.664278 0.335370 2.664998 
20.377199 0.391319 4.478992 
-18.978027 3.607933 7.849009 
15.252756 28.459002 12.827539 
9.909620 32.422203 7.672770 
-4.015876 36.544685 7.425870 
-6.504425 28.347771 0.818704 
21.637936 11.402243 0.633048 
-17.341490 24.625467 6.247046 
-19.640385 11.904444 -0.106664 
22.906748 3.179618 7.627584 
-4.975907 35.305779 12.476419 
-24.050320 13.676690 14.394022 
-10.987586 25.583420 12.331345 
-10.259383 25.319088 2.224802 
-13.279030 23.637861 0.281545 
-25.011419 -4.412957 3.744458 
-23.884396 12.390605 7.681086 
-11.903316 21.247789 6.402962 
14.379638 25.363129 15.347715 
10.101763 23.096989 -0.070809 
-10.254842 23.637716 12.711167 
-13.918535 18.196873 1.534685 
13.544951 25.101894 11.243133 
24.002501 14.528090 17.875376 
23.638420 -5.533203 9.679532 
11.551744 25.227888 7.739159 
18.922876 1.726137 12.651756 
13.453218 25.103584 8.158389 
-28.952747 -3.844698 14.414800 
16.449509 9.163201 0.460045 
15.994392 5.825590 10.817694 
-20.807495 2.470984 0.616739 
-23.283813 6.105142 16.086315 
-21.595226 12.651416 1.732130 
-19.080839 11.340021 13.821803 
-19.096123 22.319754 7.234958 
8.845559 28.118692 -0.856564 
-27.181402 -5.152020 4.042008 
-12.257921 10.258027 2.005479 
-7.866312 21.668131 2.884287 
25.600296 5.561817 5.910597 
13.232408 24.938597 1.788980 
-12.609673 25.292471 2.605968 
22.184422 12.178391 3.595817 
-9.839787 20.461292 18.649441 
-18.742226 9.320485 15.850794 
-28.705912 2.832530 1.406355 
-13.014773 16.404322 9.137456 
12.502654 24.914185 1.947125 
29.208117 -4.729234 16.375425 
19.539612 -3.263230 3.803990 
20.505045 -2.467955 13.082084 
-23.501266 5.771831 7.991165 
-21.505119 -2.696339 10.041055 
-8.601329 17.420912 -0.750554 
27.334202 -2.949974 0.830313 
10.119474 32.570068 14.767894 
20.223137 -4.236754 17.789549 
-28.687714 3.960215 14.239889 
-15.237261 4.404072 2.616576 
13.436783 16.634033 1.122762 
11.004587 18.533657 2.893590 
-19.705732 9.201952 1.526772 
-23.866440 0.300563 7.141186 
10.770966 21.695477 5.267487 
-30.214746 -5.443644 18.975651 
8.582167 32.971951 13.602705 
4.172970 33.987850 16.334534 
11.371549 12.748759 -0.546188 
-6.184631 27.777620 0.353375 
31.324188 -0.163733 11.234000 
15.446641 4.645260 -1.235950 
-21.841629 1.435293 3.020192 
19.425955 12.531240 4.160940 
-21.182367 0.600531 15.279242 
-21.322840 -4.931095 0.709573 
-13.420979 29.335041 17.813541 
-20.007698 18.252632 6.341394 
-25.536646 3.314409 5.318936 
-3.353646 22.515425 1.737588 
-10.103751 26.727070 14.661744 
17.231928 17.513908 13.492969 
-24.206631 4.315650 15.312251 
-29.382542 -5.332481 7.715557 
19.348665 15.583688 6.158877 
-10.296859 13.311872 5.663226 
-6.709343 27.536572 -0.922825 
14.196977 31.332605 11.303196 
-1.883962 29.921364 8.271602 
25.675886 1.039689 2.772632 
-5.264218 28.872362 14.118217 
2.561697 22.442327 0.940507 
-27.977985 6.390952 16.995506 
-18.519464 19.702999 7.402263 
-25.951246 7.496544 15.743568 
20.933636 15.312711 7.048976 
6.568693 28.873722 9.302661 
-20.626492 11.458470 -1.139722 
-26.676422 6.664741 -0.546197 
26.680958 -1.023771 0.707414 
3.461137 28.603382 1.832171 
-7.642744 24.244310 15.393805 
-13.427876 19.186552 -0.666002 
19.197506 11.928525 13.475457 
-21.050827 0.392905 10.718807 
13.036518 16.464874 13.110079 
-17.615818 3.130809 0.749055 
-3.759105 30.892233 10.228116 
0.470168 35.097652 9.943568 
2.505123 26.719130 15.344227 
-6.912661 32.922173 17.095137 
-19.519121 5.480647 -1.494411 
-22.403105 10.938519 6.088797 
15.281257 8.502316 18.999390 
-15.764363 21.351810 3.363654 
-28.007038 4.731405 0.014321 
21.099131 19.056799 8.393467 
25.015961 0.663400 1.609976 
-17.851044 -0.226558 1.666764 
22.029222 0.217179 11.176010 
-4.459792 33.416904 17.615051 
20.485331 -5.668766 2.697836 
-27.124542 8.200019 14.828146 
-3.328018 26.112103 16.124008 
-17.220791 23.282452 16.722033 
-19.247015 5.976889 6.873439 
-20.100163 15.659930 -2.141827 
-4.535534 27.646433 3.206448 
13.747276 22.777811 15.665924 
-0.646807 26.166679 1.568745 
26.116087 7.518258 14.314730 
17.635382 11.796988 1.502249 
23.493628 11.511624 2.980537 
-3.917919 26.112560 6.149100 
-3.679914 23.323484 3.177690 
1.192805 32.164711 13.753939 
17.543837 15.814027 0.375615 
20.264282 -5.813236 5.597173 
9.062498 26.236954 12.385900 
-1.050187 25.523928 3.817631 
-22.991400 11.634881 14.840179 
24.397785 3.543401 8.303845 
2.945311 25.116980 0.276173 
-22.429274 -3.750746 3.849300 
-15.173179 18.719765 10.681893 
8.054461 35.919132 12.079334 
-12.604241 17.630268 2.837769 
10.849332 31.983469 15.764076 
-15.968493 3.104785 -0.253798 
14.797197 24.558695 3.964018 
21.363001 10.119673 8.245608 
-7.618085 29.590443 7.603727 
12.972096 29.543701 9.373406 
24.897181 9.449065 1.409288 
-24.139166 2.395109 3.130966 
-20.789059 0.376142 14.053535 
7.531332 23.311569 4.243589 
26.210329 -8.149955 1.870238 
21.657717 11.069625 15.405317 
-26.977751 -8.077180 3.342752 
7.226190 32.315422 18.544872 
28.350027 -4.095791 9.316782 
18.670574 25.642242 16.896038 
-25.298353 8.855472 -1.381340 
15.427835 5.536583 1.311880 
-26.884462 8.410772 10.116361 
-14.594213 24.890388 3.506214 
-7.680584 26.520334 -1.045986 
0.570107 35.252739 9.211895 
-16.510344 8.432552 12.916529 
-24.224434 -7.448105 2.428283 
-26.356699 6.163923 12.549527 
-6.002317 27.124256 -0.522816 
5.851960 35.727108 12.609171 
13.444045 27.411476 9.703116 
-4.357875 24.972689 4.372305 
14.712304 15.761515 13.314195 
17.518543 4.814019 -1.122332 
-16.016335 10.557439 6.033129 
-3.222878 25.768948 3.133579 
-25.605417 -6.603180 10.431939 
0.912265 25.088461 2.153362 
16.082678 22.317619 7.702693 
2.742766 27.828320 -0.919713 
-21.811563 4.656028 11.612383 
-7.441359 29.233374 3.098742 
16.966702 19.908924 13.474168 
6.822051 29.593096 9.068526 
27.923113 2.186291 1.483795 
19.832640 -4.769883 4.656982 
-24.749229 6.106705 -0.474930 
27.132425 8.006275 19.076317 
-29.226591 -6.268977 15.549286 
9.562375 28.859518 6.444383 
-10.158745 13.859992 -1.670090 
6.607523 30.408978 15.825158 
15.064621 16.972492 6.526953 
-17.944775 6.803014 15.576407 
-18.713535 12.289571 13.266069 
-16.823637 23.731249 6.783862 
9.339797 32.657848 10.907698 
18.537041 -1.606688 15.784854 
-23.687986 2.627933 8.701067 
22.097342 -4.715412 4.106483 
17.961294 11.401112 13.538701 
-8.680904 22.969498 15.761772 
27.699869 1.161344 6.657790 
16.310572 11.692533 7.005903 
26.731976 8.522486 10.420110 
6.188530 28.617416 3.705421 
7.902269 30.559914 13.975719 
-14.408586 24.822485 5.403638 
-21.729864 -5.016713 11.800790 
-18.350483 6.558224 6.138757 
25.905334 4.292579 10.957931 
-23.558258 3.639370 15.014236 
14.244367 12.895938 7.000665 
20.121870 1.745712 6.999536 
-9.942973 32.324020 14.875739 
15.687757 15.725513 14.876368 
6.354920 19.438072 -2.736597 
-0.760281 33.771915 17.809561 
-28.357960 0.420788 9.355167 
14.899373 8.348577 15.751811 
-22.109755 -0.486125 -0.156880 
19.932629 10.906327 14.737272 
5.881154 28.914455 -1.485837 
-20.916407 19.073875 13.185044 
18.734867 21.178370 14.898478 
21.953796 12.958821 9.923952 
-22.192867 17.906923 18.621881 
12.272868 22.730598 1.647780 
21.371374 7.906053 6.296463 
-20.031717 13.576560 12.916334 
-18.606279 5.196394 7.616643 
-14.106771 20.370333 10.659762 
7.018737 25.087919 2.211675 
2.841929 29.034019 7.357384 
-20.442911 9.210299 -1.803409 
24.747923 4.037219 14.700644 
22.588858 2.203988 7.417901 
15.948188 8.880915 7.021909 
0.359100 32.338455 8.983867 
-13.973968 11.615043 0.217236 
1.002966 33.679756 13.144979 
-16.267677 6.405313 10.583818 
20.954729 10.678610 16.156052 
-15.472484 4.981317 5.006668 
2.802806 32.619179 8.673929 
14.492319 28.714703 18.648518 
5.336910 26.128632 3.619481 
-17.198812 25.924145 16.129183 
31.331890 -2.174327 12.752657 
-3.887807 29.303650 4.145362 
-19.798346 22.493544 10.233435 
0.164900 33.618763 12.107141 
20.067480 14.055060 7.403172 
21.425905 11.829685 13.164883 
-14.649101 16.397358 -0.638224 
-4.854463 27.684704 4.059280 
10.806705 30.052034 15.850618 
19.059252 17.513235 3.451620 
20.727808 -0.493187 4.957294 
-23.073910 1.187934 1.290522 
-21.212311 -4.022130 -0.120078 
4.153510 35.005466 14.804283 
-22.759176 -5.465041 13.890482 
27.084396 -8.596814 3.777424 
-10.604453 19.586761 17.452921 
-21.072968 2.225836 2.746382 
29.320677 -5.944989 14.498001 
-25.502594 4.787569 12.668326 
-21.995501 16.750437 13.425759 
-1.322473 36.886570 9.644441 
22.026909 5.113388 16.364012 
22.956247 0.746556 10.584237 
13.474510 13.230117 17.667179 
-14.165744 28.812756 17.770344 
-21.523767 0.288365 8.099079 
16.266148 6.931946 10.006731 
-17.915787 26.420393 14.951193 
2.464946 28.884619 12.857983 
-4.367803 25.641148 1.465979 
-19.887234 3.290012 -0.681192 
15.505927 23.474215 2.820618 
1.549835 34.272114 12.943680 
-23.848892 -3.952841 8.297278 
-11.369806 26.863569 1.732480 
13.514386 18.301596 5.300499 
-22.684044 0.542286 16.080206 
-15.157938 28.602171 8.622946 
3.799035 30.119780 15.703936 
-11.165761 26.421885 14.704086 
-27.702452 1.014896 9.190066 
10.171036 16.736912 1.863501 
20.328976 11.026497 11.498529 
13.749887 9.962324 3.230225 
21.396212 1.109273 6.833924 
-17.091497 13.903338 6.299657 
7.314176 29.257238 11.201331 
7.110722 23.518368 2.611508 
15.631797 18.707890 3.006802 
18.769306 18.554049 -4.181220 
13.531005 18.885473 0.813637 
16.683512 27.480186 9.247578 
19.332760 9.555235 5.569723 
-19.114391 -0.208627 6.003325 
-14.301452 13.707870 -0.602217 
-17.485067 16.768225 4.738134 
16.785671 5.104911 8.568564 
-3.496954 30.642920 13.052582 
-17.173590 20.505045 14.584953 
-23.266792 -3.691882 16.309671 
28.831553 -6.172105 8.556403 
-13.636833 25.803383 13.643280 
-17.446054 10.496935 -1.017162 
-9.192383 21.827002 3.535065 
20.728022 12.678657 4.458053 
-4.338413 30.543987 15.708726 
-22.982330 -0.315500 -0.497884 
-8.832955 26.497871 11.771694 
-14.580022 19.530817 1.668370 
16.074532 4.391790 16.454922 
16.832563 15.151348 12.631141 
0.887185 36.288658 8.802234 
-23.598289 4.089235 0.608868 
-29.882198 -5.010215 11.063244 
9.142452 21.406878 3.343896 
-12.179163 10.055151 -1.016584 
-9.416503 17.056547 1.457589 
-22.157665 12.875087 -1.712794 
-13.450609 30.299419 7.415816 
-22.400536 7.415051 7.129514 
-22.961470 14.274325 12.576374 
23.251612 8.828036 -1.321442 
-18.586637 9.116545 -1.765106 
24.065489 -4.104207 3.790996 
-1.458499 31.790686 8.544873 
-4.539202 28.139719 4.756979 
-6.072000 29.135620 -0.094251 
23.723940 -1.186343 0.289782 
19.053715 23.221809 8.377749 
5.880846 32.007214 16.824173 
-21.642828 -0.503176 9.217043 
26.688177 -6.666918 9.796885 
13.996509 16.615990 0.425856 
-13.643106 26.636810 9.734842 
25.081280 -5.765234 0.775887 
-28.291451 2.175096 5.407073 
-29.142439 -6.834793 3.546485 
11.920827 16.824566 4.197479 
-6.493604 35.875244 10.474595 
-15.320635 20.566370 0.094518 
20.848803 0.971721 8.990341 
-9.925189 14.425543 4.477368 
17.000557 1.828262 -1.807621 
7.002641 28.857645 -0.818533 
22.976324 1.506394 12.289897 
-21.883204 13.397918 -3.788618 
-12.708372 26.856411 15.048985 
7.405475 27.190592 7.644378 
18.748495 19.121384 11.113139 
-0.648426 34.921474 6.199337 
-7.788712 29.451954 11.750199 
-26.908817 6.625597 13.339469 
-6.217071 26.358864 -0.566487 
8.151298 28.432579 -1.049438 
-24.927387 -6.683204 11.198081 
16.911654 8.765992 -0.823065 
-13.844198 13.583409 6.925201 
-13.979560 23.260618 -5.130250 
16.430384 7.193430 9.268452 
29.139400 2.583893 13.672411 
-23.376097 -2.897655 11.683486 
-22.010777 14.645342 11.449572 
-17.638119 3.124504 16.086924 
-17.560631 5.880032 15.291479 
26.030193 6.104052 4.858221 
-17.756201 16.607260 3.787925 
-12.817924 9.175592 -1.833278 
-26.509369 -6.856940 0.850426 
18.919361 5.546307 -1.504435 
22.097054 14.130663 9.041522 
-14.686473 6.481274 5.072094 
30.861185 1.172469 14.397839 
21.912584 -7.266780 9.117487 
21.767076 5.009970 7.324674 
-25.781536 4.795283 8.573192 
19.856808 9.020864 8.099133 
25.048515 -8.054579 11.147407 
-17.448866 11.389965 10.988802 
17.104008 8.162139 15.269906 
-17.716030 13.686915 3.474296 
19.563562 3.000699 7.824810 
-16.892553 12.152080 4.391279 
17.035135 26.118841 14.646005 
-17.966049 25.174812 6.268678 
17.919060 18.396263 5.832712 
12.926764 13.883542 14.314570 
-18.018448 7.413320 11.250012 
-16.430841 7.442679 14.172525 
23.653513 -0.943067 16.397457 
-14.329510 7.973026 6.130231 
6.458219 24.131567 2.748952 
17.471483 10.852601 1.770757 
13.469910 23.039282 11.926987 
-16.288942 8.464785 9.923725 
26.793774 -3.164664 9.082161 
-13.038484 11.773930 0.068392 
13.047241 14.928863 12.819831 
-14.887767 9.719420 15.688624 
0.990303 35.154713 14.335952 
6.788809 24.735147 -0.658884 
-25.359285 -6.417295 8.852009 
-13.692884 24.417215 -3.510272 
-9.881777 15.871884 2.089815 
11.297043 28.340208 8.115709 
17.936392 17.431458 13.960598 
-16.778666 9.494633 11.907391 
14.610769 24.220901 0.697284 
-18.395123 2.401960 6.911641 
12.448681 26.073584 -1.436685 
-2.637565 32.255413 13.932699 
14.313582 15.326972 0.156564 
13.084089 25.346457 -2.592648 
-21.282696 14.211784 -2.780642 
-8.579450 32.812614 15.154315 
-30.290453 -0.041718 -1.940434 
-6.911827 20.390659 0.731178 
28.721504 -6.484571 10.968996 
17.816057 1.062858 12.680091 
16.163149 19.639193 12.022372 
13.757134 25.148306 3.487322 
-17.661228 10.535833 12.893543 
18.201401 15.356762 2.541427 
15.564092 10.148794 4.778072 
-12.251497 27.706264 6.901549 
3.297078 35.922050 12.807774 
12.364115 14.703696 1.209358 
-26.917690 -3.699791 3.365880 
15.799843 10.358680 3.759402 
-15.406007 11.295087 1.395652 
22.554079 -6.405155 14.819109 
-12.237159 30.656769 7.579472 
-19.864395 -1.167489 17.360210 
20.613625 18.474703 7.065820 
26.580770 6.111705 0.604825 
-19.009901 -2.427334 3.676731 
6.361225 32.575954 18.535414 
13.101037 12.033891 5.444816 
26.618931 8.914661 17.730974 
13.357035 28.004890 15.646145 
20.727835 15.405095 1.180817 
-15.315406 20.619797 4.701684 
21.762259 18.775511 15.565884 
16.995296 1.049791 2.117303 
-30.005514 1.630423 0.005455 
-11.413363 20.933794 5.945127 
22.404274 12.841127 10.609961 
-19.240631 24.228291 8.081172 
14.724805 29.136168 17.214857 
6.772055 30.548271 10.767296 
-25.929596 10.836234 11.196727 
22.434654 1.948920 14.312046 
16.691998 18.124920 12.085732 
25.806538 5.399773 5.106398 
-1.279163 28.057327 1.293645 
-25.172453 1.368369 8.171546 
17.327034 27.122707 11.401868 
13.478339 15.663493 9.506084 
29.335867 -6.261810 2.267155 
21.060003 -0.903700 8.510025 
16.097530 26.201437 14.227072 
-18.698814 12.082309 11.087246 
-12.177450 25.927649 2.978155 
0.888715 35.322426 13.197927 
-16.319572 8.094473 9.133256 
16.602888 4.986598 9.696191 
-20.123278 -2.070186 11.998812 
-15.559530 10.021235 2.139088 
-11.242979 18.486977 17.225292 
-14.455812 7.584997 4.164966 
-28.297426 5.267203 18.803202 
19.541384 17.935926 -0.283187 
13.289162 15.938497 12.348376 
16.193802 27.079430 7.601462 
-27.801252 -4.585824 16.679466 
25.114565 1.043553 16.435947 
15.342365 19.717690 13.215665 
18.469824 9.198063 5.693779 
-8.994295 25.776625 5.516606 
14.347786 7.732530 2.978760 
-16.486900 9.953175 6.048924 
29.494543 -5.022334 2.008093 
-12.391332 27.868784 9.699248 
-15.656018 23.059420 2.164458 
-11.948576 32.395760 10.504062 
-21.299896 1.641742 11.439129 
29.751005 -1.383582 5.828311 
26.663044 -6.883526 15.435991 
12.789324 13.255785 0.824419 
-9.922541 21.971638 14.860293 
-8.160975 27.276217 -1.129117 
-25.533049 10.201944 8.292772 
29.504143 0.167778 9.348737 
17.255102 20.978418 -0.022585 
-10.466074 14.312310 5.145981 
-22.161615 -5.089474 16.507151 
-19.253233 8.859817 7.815914 
-17.261494 15.547141 8.512656 
20.091547 -4.350685 15.328873 
6.662982 33.227989 17.424606 
19.687342 12.471853 10.696183 
-18.433096 1.289346 15.736150 
6.956362 26.587229 2.068651 
11.893539 18.501198 1.685843 
4.089252 27.728819 3.026885 
30.612162 -0.574078 16.545959 
-27.071060 -3.928468 17.140945 
24.797646 3.494809 13.356694 
-9.559166 19.421066 2.278517 
18.874220 17.447306 2.525533 
-17.973583 3.981308 8.030692 
0.396735 29.290535 3.507008 
8.646349 35.462063 11.985255 
-1.936259 36.625248 8.239140 
20.596848 -5.419354 1.685008 
21.739723 3.782371 11.528535 
-6.021211 19.241171 -4.488956 
-30.067793 3.646919 11.850083 
21.164461 -7.131095 4.382880 
-24.501463 -6.624810 10.513447 
28.256903 -6.032198 4.392657 
-11.201716 26.132851 3.967787 
-22.808363 3.429435 0.429725 
-25.993092 8.458500 15.776957 
-12.343468 16.230717 17.225740 
-8.631273 21.141872 1.965747 
4.010264 30.960714 16.313231 
-31.184179 -1.286557 15.293379 
-31.209028 1.981028 14.413980 
13.172853 20.946964 14.763758 
28.739370 0.013412 9.337051 
-16.333328 15.655979 11.846828 
25.366329 -8.224102 -0.301342 
7.377664 18.231794 -4.231520 
-1.647488 24.843534 0.298541 
-17.115585 20.658878 15.312409 
-8.220347 32.712086 11.200692 
-5.926087 26.618530 4.345843 
-22.523880 12.308259 -1.121625 
1.614774 28.901379 -3.196309 
-26.902796 -7.639919 5.874570 
21.428459 0.047474 13.073798 
14.535116 24.724606 5.023571 
-30.698931 -2.769010 1.633889 
-26.861160 2.585893 4.220878 
20.809580 -2.815401 15.020022 
-20.253235 11.262016 6.935017 
14.593075 21.818823 1.135948 
0.676567 28.108261 1.200428 
-20.961843 -1.465875 10.773158 
30.066528 2.266159 12.804337 
-5.621677 29.025776 9.070421 
24.580996 -5.577492 4.058620 
20.740631 7.104685 16.514729 
1.876429 31.093836 7.751406 
16.231361 3.538413 0.076675 
13.784124 22.465141 9.921575 
23.484297 -2.044051 16.427071 
-12.489434 15.862057 14.068199 
15.508852 16.982523 11.302397 
-23.906124 10.949626 1.145135 
-16.516956 12.061777 11.011957 
24.860699 0.256910 16.579813 
28.688295 -0.532856 7.392192 
14.910702 30.983721 11.218624 
-3.096418 29.309385 1.959282 
-9.350340 28.362669 1.306417 
22.756199 1.069909 11.353782 
-19.716160 16.394972 -3.224030 
-19.645557 2.259209 6.908316 
-3.084028 36.513977 6.668351 
25.276350 6.080614 16.026121 
-24.241714 6.929919 7.546193 
28.391926 -7.533191 7.555224 
-1.447358 34.655117 14.351782 
-15.837472 10.962209 3.648206 
-22.645174 4.201015 7.760552 
12.107280 21.986797 7.825507 
-22.645658 5.576852 -1.105485 
6.791281 28.298094 11.834239 
-11.291980 11.849337 4.556849 
-18.725298 2.136348 4.517798 
20.787775 1.680857 6.708049 
21.638531 12.805511 8.407966 
-9.683295 32.084976 7.351079 
-8.526852 30.159552 14.185045 
-16.562609 13.177241 0.335257 
-16.045959 24.352659 7.460280 
-25.543720 6.503570 2.382751 
-16.738686 7.816235 6.797737 
21.951485 -1.146278 0.384912 
26.833799 -6.002970 10.132913 
-4.430523 25.821392 4.426371 
12.816767 15.343053 0.590555 
-16.478611 6.420505 9.149983 
-10.287319 26.784679 -3.293566 
22.607851 7.512494 8.556108 
18.354782 22.227234 14.482359 
-13.342083 24.138166 11.391450 
2.319160 31.841696 9.038740 
18.836493 20.510723 11.804293 
-30.451822 -2.429437 5.502110 
-20.577827 -1.549131 13.138052 
14.070234 25.065725 5.692825 
-15.933109 8.351550 3.212257 
-23.947601 -5.981012 0.128938 
-5.573930 28.068617 8.925635 
18.240936 19.791819 -0.726827 
-23.208836 2.158939 10.574463 
-8.989923 28.171368 11.705877 
-29.172142 3.192512 18.833700 
-21.629755 18.477070 14.498832 
20.612780 14.033675 12.735765 
0.639345 34.230408 11.934472 
10.068862 28.465786 5.346129 
24.127621 2.533827 3.983107 
22.660934 11.928023 2.954625 
-25.649988 -5.271135 9.359985 
12.621621 18.762589 6.271879 
26.823278 3.878601 1.884106 
-20.044044 1.904308 9.337938 
24.514477 -6.802001 8.741085 
-22.886892 6.957423 12.905969 
15.534208 11.222127 12.102875 
5.513353 25.135895 17.128794 
28.267143 -1.499510 17.362091 
23.929127 3.387937 3.766735 
27.096254 -8.635525 15.848359 
-25.642292 -7.669289 6.756104 
3.044076 31.741411 9.424630 
11.546796 29.180624 10.050632 
0.210574 32.088688 10.770685 
24.787798 2.171948 6.333878 
-6.296449 32.752487 7.857248 
0.681901 27.107851 -0.028746 
-1.691222 33.281605 18.476828 
-16.226501 7.814699 11.565705 
5.692274 27.576395 8.144897 
-7.824312 18.145712 -2.134119 
10.034699 15.181325 -2.260046 
30.151217 -4.541965 9.700538 
-21.383642 -0.252402 15.547695 
27.054291 6.414043 9.468651 
0.860119 29.978647 0.254190 
6.449897 19.758694 -1.341732 
-18.632534 17.046925 -0.462862 
18.269640 -1.769743 0.960446 
5.114022 34.228184 9.128081 
-30.124973 -4.561688 2.151661 
17.714273 16.348040 2.517000 
-29.111910 0.233374 7.370125 
15.317321 6.400964 14.926071 
-11.606605 28.141045 8.235840 
7.428283 18.808407 -1.503904 
17.964457 25.838768 18.717842 
14.585583 6.457939 -1.282445 
-12.763344 14.295113 9.839596 
-20.172529 21.657526 14.064299 
12.794199 14.763392 14.729632 
-6.405129 19.347342 -2.807159 
-28.362230 -0.736643 0.317272 
28.439264 -6.023511 14.151163 
22.685684 -2.586229 8.006394 
12.624540 30.825329 7.524086 
-22.910393 -1.693530 11.458151 
-6.322254 29.451090 2.782347 
-15.186526 12.356918 7.603910 
15.531672 5.365779 14.123170 
-24.213617 10.815221 3.351803 
6.849504 22.577354 3.467390 
12.604202 15.025110 7.003892 
4.064723 28.019808 12.987286 
-23.783699 8.464355 7.933856 
1.917446 26.229813 17.301279 
-5.058589 28.355305 9.445417 
4.264950 32.679424 17.046995 
1.323445 24.636801 2.616756 
-11.242127 26.872566 -0.957970 
19.778669 14.585312 4.422192 
-19.039116 -2.179452 -0.380708 
0.709052 33.010170 11.638442 
13.394703 22.134729 15.360298 
1.999488 34.391815 16.671392 
14.715492 19.772070 12.745304 
-17.704668 10.217328 13.809148 
20.928804 6.763809 -1.699686 
17.214582 19.366861 8.644287 
2.350293 30.532816 9.195244 
-16.671997 20.637234 -4.778378 
28.294329 6.017788 18.239616 
17.116388 4.159341 -0.840522 
-20.534006 10.978127 15.953455 
-26.747894 6.096966 10.049101 
20.893322 2.329382 -0.391003 
23.974876 2.298516 13.155007 
-9.977566 20.580942 17.449169 
-20.290298 2.694301 14.861780 
2.052704 29.624979 12.440643 
-14.158991 13.556289 5.825388 
14.270703 8.829268 3.297373 
8.038035 29.539124 7.320504 
-14.797180 18.500135 8.469662 
5.496971 37.337444 7.572423 
-23.268023 -6.715753 -0.927961 
-13.882133 27.986378 13.906721 
0.016966 35.964672 10.544655 
29.315546 -1.399033 0.104105 
17.157070 16.417685 8.430921 
6.667421 30.764994 12.617537 
1.536289 30.892548 14.894044 
14.164285 23.502905 -4.926887 
25.860418 1.573767 4.430839 
-19.520935 16.720177 12.460018 
2.881020 30.616669 4.932200 
9.482160 27.436476 10.816914 
-12.077952 24.719398 -5.322494 
29.628822 0.943141 9.160770 
-13.709723 16.642586 7.421970 
-2.034311 21.415447 -2.327378 
10.896975 28.449455 7.199391 
-4.438831 29.403128 11.964971 
5.520752 37.171467 8.568137 
15.651420 27.802336 10.629674 
-22.812140 8.496255 7.457334 
-21.690788 1.535151 9.581807 
8.411749 27.435295 11.548821 
28.357418 -6.286867 9.306947 
12.740619 12.691762 5.850851 
-11.330252 26.561417 3.002516 
14.060589 24.864153 2.310972 
-23.715656 14.969978 16.267061 
5.209894 24.765554 2.111388 
13.605605 11.915224 15.287551 
1.462287 31.016743 6.949003 
19.968882 12.100224 8.453798 
-25.387789 -0.385623 8.658627 
-27.164101 4.518059 1.584362 
-9.855782 31.757683 16.983311 
-0.699684 29.888205 0.928859 
-23.396090 -5.847949 13.787065 
-20.871151 0.366070 4.854346 
25.747261 -1.852047 9.066822 
-20.300625 -1.488426 2.242711 
-19.406738 1.950952 4.721007 
-21.178642 -0.693460 10.158676 
-14.385525 24.800449 12.206490 
-14.995208 5.931632 5.542787 
26.242895 -4.662754 0.725197 
-18.416334 18.393602 -3.419826 
-17.527168 19.049093 7.782888 
26.974800 -4.727170 17.071486 
-7.576250 31.547178 8.779296 
-19.620689 25.228777 12.283114 
-28.883204 1.624274 5.307638 
11.534947 15.810374 4.242048 
-10.528147 27.281380 -1.321657 
-29.507860 -4.230755 1.113986 
1.156481 32.989517 13.672696 
26.192192 2.332830 12.725691 
6.092724 20.881010 0.914857 
-20.631611 -0.673874 12.999084 
10.527310 24.400341 6.225933 
-25.299372 12.085528 16.910189 
-19.697971 -2.174831 3.782978 
14.876369 24.512354 0.011216 
-23.545668 -7.052922 12.611579 
-23.877701 2.047240 16.145281 
-11.899209 25.911427 11.292262 
19.773783 -3.288604 7.729273 
-13.446664 19.105824 10.954611 
15.235026 28.195454 18.661703 
4.125323 27.207781 0.598391 
22.541264 15.409501 11.764214 
-22.783945 -7.353111 5.750262 
-18.126848 11.770952 12.367552 
-13.275611 16.355352 10.092105 
15.067430 8.589100 13.397446 
-13.628347 21.247965 10.302802 
24.993664 -7.613408 9.819781 
-27.082666 -8.226102 4.422183 
-18.761190 1.065365 12.649099 
-14.393741 22.200134 8.631806 
-2.169215 29.841896 9.143586 
-14.380254 26.268389 13.798465 
0.097868 36.571415 8.614864 
19.063944 -2.514163 14.752794 
10.065793 32.257446 16.199144 
-23.674820 -5.570278 15.357564 
-1.014420 32.046528 15.686611 
3.630263 24.428514 1.269174 
-24.406990 3.444583 14.920183 
21.975653 7.388574 13.456113 
9.080038 16.803276 -1.510116 
-4.817272 26.449245 6.817174 
-19.846552 -3.040909 -1.423824 
-24.886141 5.682885 0.918067 
13.719723 24.821547 -2.752102 
-15.856853 5.570537 6.670702 
-11.627937 24.320789 7.727200 
18.877501 18.688807 8.056861 
-19.230145 10.296110 6.177350 
2.708243 32.047710 16.475189 
24.004543 14.597528 18.945324 
-19.442955 9.911770 8.340790 
22.463434 -8.040428 0.749847 
-15.515084 20.401943 2.363816 
-26.879192 2.715332 3.284506 
16.340057 5.145267 10.491035 
14.986417 24.293951 -0.983483 
5.649168 27.072332 7.561232 
-8.724956 22.069063 2.547672 
-26.055347 1.111979 3.302062 
12.652414 20.185230 7.929358 
-25.585196 6.333657 15.692293 
-21.702202 -2.731180 15.741499 
21.714577 8.277158 16.586691 
-14.852268 24.447636 1.003734 
9.423282 32.814201 10.008183 
6.805584 27.949593 8.806076 
-18.105879 22.819050 14.833911 
-10.916346 27.809046 3.469317 
16.621609 11.620320 3.834914 
-17.771635 9.444489 5.703423 
19.916523 1.185740 11.013485 
-18.697985 17.813372 -2.510108 
-7.329812 33.410812 15.080598 
-25.602642 -6.695608 11.855712 
-29.122828 -1.219098 0.633100 
23.866426 3.034323 0.377222 
14.946168 18.786612 3.734286 
-24.580343 -0.716554 16.943445 
29.466019 -5.619122 10.212971 
24.102827 1.717875 9.309819 
-30.483679 3.466382 11.177739 
21.999449 0.877619 8.607888 
13.420612 31.375788 12.135789 
-24.983990 4.120383 12.557118 
5.510577 30.144129 8.777246 
-12.072287 24.583773 8.473243 
9.319618 26.235924 -5.358142 
13.720059 24.425852 9.409312 
28.842470 -6.959469 12.492148 
-21.071987 15.459319 12.525535 
11.211078 28.064484 5.788403 
-14.955807 13.736681 11.729114 
22.496948 16.863245 9.473097 
28.219385 0.424852 14.986831 
-15.386959 28.257362 10.838604 
17.067369 2.504726 4.476725 
19.392725 4.539055 6.865822 
9.966722 31.377726 12.801945 
8.550364 32.957333 16.278196 
20.366137 7.080559 7.493403 
-17.878023 4.381360 18.878542 
0.863724 34.456936 12.596490 
-2.784163 34.208496 7.866971 
-20.524191 11.762809 14.272758 
-10.174911 15.943580 4.542964 
-17.519415 8.144006 -1.647000 
-16.147940 21.253958 15.953560 
-8.175014 34.337151 10.533731 
15.991676 23.723356 7.640543 
-13.835001 26.183653 8.611548 
20.355169 -3.811591 1.457462 
16.519268 9.788945 5.944628 
27.301781 -6.613935 10.302266 
22.239046 -4.774287 9.817039 
-0.410276 26.271795 3.165953 
-31.090075 -2.644809 12.855155 
4.559371 35.822533 12.443551 
8.302440 29.167196 5.634369 
11.563152 25.081467 3.528768 
-8.620125 21.360434 0.170376 
19.378206 -3.801837 0.000710 
20.564314 7.533064 5.983946 
11.879618 23.256935 14.589557 
-16.655209 17.111612 0.075286 
8.845637 20.094980 0.852106 
-10.026070 24.401875 4.965057 
19.634539 7.728831 7.580184 
-29.470369 -5.956131 5.470716 
-20.546154 20.439344 13.784431 
-2.085594 24.213194 0.600047 
27.619888 -4.784281 1.136440 
13.682139 18.799831 3.228775 
11.761191 22.529915 13.414942 
30.115416 -5.669817 3.261708 
10.703559 31.297094 17.826035 
20.160172 1.124745 9.462987 
-30.145178 1.729572 16.873920 
28.580584 -6.911324 13.721790 
24.239325 -1.835798 7.852145 
-16.056955 26.844866 18.504169 
-8.376838 33.427277 9.742843 
29.215364 -0.575857 4.052794 
16.683691 8.363800 10.156166 
11.430064 12.665639 -1.398940 
11.646630 19.260632 3.081805 
-18.823385 24.324366 6.794151 
10.459619 27.323771 -1.303795 
-24.993971 5.347198 3.621464 
19.616478 25.183157 12.180635 
17.581783 1.601574 19.130911 
-2.097436 31.193907 9.561435 
-18.478811 2.831088 11.572957 
9.582243 27.371639 -2.510194 
-1.447536 29.944675 7.629527 
21.130339 0.548559 7.372809 
-27.419571 -6.514446 0.966416 
-2.799268 28.257942 0.598277 
7.703117 18.165035 -2.850506 
17.843109 -0.054449 -1.531634 
18.856649 12.971904 5.656774 
22.522486 8.650987 16.584606 
18.044607 16.590374 0.656076 
19.392853 9.919466 -1.533408 
-2.202711 36.538555 6.530400 
0.127701 30.193630 8.778130 
17.851967 8.401693 10.941279 
24.302923 2.571864 8.258796 
17.751314 3.000573 10.430959 
-27.070242 -5.982666 9.396337 
-11.933094 20.832047 13.957514 
28.032984 -4.881230 9.662984 
18.040215 26.355909 16.535275 
-14.912016 27.702703 11.626382 
21.341175 8.772628 13.102989 
28.567291 2.970626 9.739147 
23.285063 15.858656 16.339430 
-7.676328 32.704689 16.901655 
20.003456 0.425005 6.947461 
-16.303970 6.995477 17.372395 
24.460567 10.093430 0.457320 
25.150648 7.889608 -0.255069 
-0.010437 35.543659 11.222505 
3.361519 27.537737 2.251923 
7.089511 36.099850 6.889241 
1.589819 33.545010 12.165876 
-11.243792 18.739155 2.718257 
12.823853 14.784925 16.563360 
15.884904 6.557779 19.036194 
-5.048756 28.507626 -2.578697 
22.166716 18.135803 15.877749 
-13.338701 25.671425 7.033041 
26.456329 -3.378412 0.611389 
9.907436 28.170898 3.202689 
23.278831 2.063591 10.878116 
-7.317613 18.789730 -1.790269 
8.832718 22.341539 17.165247 
24.318331 2.776928 6.010934 
10.968459 19.871069 15.415094 
-3.675745 29.523090 1.300487 
31.487722 -2.739942 18.499899 
7.099730 37.068878 9.417497 
14.461213 15.277218 6.675381 
-26.504883 9.739522 12.331511 
-0.887814 27.802866 1.961345 
18.966169 2.580866 7.792202 
-26.499191 3.449486 16.221546 
29.431570 -1.348562 9.803071 
24.188046 4.742517 7.607162 
21.897303 8.157505 8.696668 
19.967089 12.368187 12.844742 
19.947968 -4.163616 2.885089 
-20.676182 7.183207 6.658235 
-18.373003 12.293022 9.146850 
-7.243822 23.142292 18.618494 
-2.105059 22.934052 2.775235 
23.416260 3.342882 -0.370911 
-21.418499 5.300726 7.874507 
13.832074 25.294655 1.557627 
-31.536951 1.209325 14.209636 
26.674629 -0.592907 9.040409 
-11.313436 20.016356 13.785522 
-17.142834 7.190814 6.818753 
17.306856 11.754436 13.870576 
-13.944090 17.573458 7.179132 
-25.845747 -6.567782 0.561397 
8.332382 31.652325 13.736363 
16.974350 6.102169 7.331185 
22.564840 4.615846 8.055453 
0.692892 34.986050 11.659831 
11.112358 14.002461 2.232439 
18.197546 18.394327 8.072250 
-13.882212 25.157080 -0.651159 
15.925128 7.913882 0.092765 
-23.009317 -4.638747 15.967721 
-7.434051 27.577772 -1.122086 
9.574217 35.024590 9.290956 
20.918756 -2.075382 11.426046 
-21.230675 19.912127 16.551651 
-11.912542 25.597841 3.721471 
27.649630 -8.538961 5.290173 
-15.625035 27.306641 8.190825 
17.426100 17.259518 0.637613 
18.310890 3.597175 15.416720 
12.022703 28.729002 10.364001 
-20.754805 8.333951 8.412718 
-18.011686 19.025322 -3.448370 
-28.545166 1.390676 3.094573 
-3.058971 29.975580 15.314189 
-0.456852 26.819738 7.494668 
-16.354820 21.526546 -2.160644 
8.775087 24.145721 5.006412 
25.389702 8.562787 -0.474521 
-26.422321 -2.988595 8.942798 
-21.581909 1.398315 13.057925 
16.383377 16.527487 0.252867 
-1.330547 23.762541 2.055044 
16.653446 8.145873 12.829204 
-27.330986 -5.062445 16.133436 
-14.489620 7.097348 5.561199 
-21.542799 0.067435 9.913702 
-2.802616 29.572842 9.366858 
-25.689138 0.363419 -0.283313 
-23.030233 0.381437 8.074496 
22.491522 15.601721 8.695681 
13.717632 8.982255 2.293296 
-26.220333 6.456795 13.555840 
19.759842 7.162177 -1.745687 
15.643934 20.849810 1.518342 
-25.459038 5.478611 14.554166 
13.273188 14.644038 6.733524 
-20.921774 14.412401 9.837144 
-26.786747 -1.233086 10.172460 
13.451950 28.158573 9.744721 
-15.849669 21.531694 1.229693 
22.986067 10.749743 15.870508 
-26.905003 -2.794306 17.318108 
-0.865758 32.894272 14.930475 
-15.809489 27.987757 16.162224 
-29.654844 -5.678652 4.771745 
-19.514423 -3.561607 3.721497 
-20.581385 10.807494 8.689672 
18.366497 14.065801 7.410419 
-10.633249 24.175957 3.639914 
-15.099593 26.472223 14.263947 
-24.087114 -3.172544 16.694853 
-9.112884 20.522081 3.043952 
-8.229684 24.760128 13.840815 
24.799351 8.202477 6.544324 
-13.929497 29.028929 14.302221 
0.412505 32.848480 8.228406 
9.790594 26.043982 2.328088 
24.239906 1.220102 7.640286 
0.137657 29.078119 4.638885 
14.794975 10.956587 11.877924 
-25.426708 1.224464 8.842390 
-3.889667 26.166626 3.871274 
-13.937055 17.508690 0.401970 
27.928085 -0.440482 8.661744 
-18.637531 24.010557 16.821182 
9.665001 23.970423 3.697372 
28.843784 0.029557 4.687853 
-11.037072 14.683296 0.311853 
-20.018072 4.004542 15.398950 
11.162126 22.390888 5.981819 
1.159092 25.380764 4.033064 
2.940328 20.982996 -4.661928 
-15.132812 11.505114 9.751197 
13.902955 19.245998 3.771518 
-23.211901 -2.947218 16.416058 
10.529403 24.051489 1.802943 
-29.701185 -3.777060 8.087552 
-10.579300 26.442404 2.544641 
2.121108 29.033714 13.721356 
24.197313 3.070788 1.289528 
-24.599121 11.337589 14.258117 
-14.721803 9.395411 6.364548 
-23.572601 2.274571 7.256687 
-23.219185 11.611179 -1.437761 
27.731943 3.750709 13.481827 
19.030556 19.768990 9.609585 
-10.366637 12.768661 0.434756 
-11.443624 12.043880 5.696777 
-26.860136 6.526276 9.356581 
17.494928 27.263887 9.132376 
14.800705 21.941467 8.789921 
7.313111 35.536865 7.325224 
-16.466793 19.911142 12.170739 
-10.224322 22.079311 4.676531 
16.923819 8.581490 13.418061 
8.473680 25.668179 12.879732 
-9.773104 32.473969 12.345861 
16.630640 16.899790 8.309170 
26.892906 6.054667 10.734531 
-19.074812 11.872262 12.488626 
-22.445536 1.032167 1.614199 
-21.565987 8.722887 6.909111 
11.350089 25.510138 13.255803 
-15.596296 21.424210 4.593630 
-12.076017 11.243363 1.752074 
15.431408 4.986066 2.864220 
18.458248 17.228062 6.465401 
28.216440 1.187335 16.870018 
-5.527929 27.434946 6.550287 
0.587161 34.704079 7.260797 
12.134294 26.234138 14.611300 
28.081608 -5.764622 10.699924 
-10.739270 24.400780 6.512942 
23.628262 2.149058 7.828345 
-13.605097 27.278179 13.597504 
-18.111889 5.702968 7.298025 
-15.610237 27.918398 12.013484 
-25.129572 -1.325577 17.110876 
15.893948 6.404758 -0.955741 
-23.069822 -7.203537 8.055881 
-10.591478 15.122534 4.731242 
15.942097 23.071375 8.001727 
20.488068 -1.536541 14.142915 
-29.716515 -1.227864 6.852077 
17.028418 21.506325 -1.374967 
23.370237 -7.992709 8.666783 
5.199274 28.525570 4.109054 
2.806756 29.573938 -1.350514 
-8.423038 33.367085 8.960988 
9.168966 32.912430 8.949323 
-15.437806 17.850058 6.465916 
-25.236303 12.192618 16.126400 
21.686808 17.747162 12.581198 
-13.611019 19.903610 13.251330 
14.762444 19.749840 11.871082 
28.991726 -1.953838 17.382732 
14.640167 23.173866 7.325209 
24.060843 2.262070 14.936933 
-4.296811 24.886675 2.729378 
17.968666 11.456751 3.725732 
-30.611940 3.054090 9.472411 
15.694278 6.671817 6.723769 
22.082712 12.991310 0.501949 
-14.064025 11.953160 12.924314 
-23.838165 -6.398609 8.647252 
-23.920086 10.589580 -2.730203 
8.852419 30.262753 8.643044 
16.326860 5.460462 15.110615 
-5.987044 31.662096 8.860428 
-24.123718 0.727729 -0.341250 
15.925225 2.994219 2.798937 
-11.791941 23.923828 -1.351330 
21.600780 2.470658 15.515044 
-11.494628 22.987291 6.430645 
-1.157369 27.604839 13.219682 
-19.182341 8.863772 5.860408 
-9.157082 30.562202 8.243073 
15.268047 8.273399 2.190580 
19.663324 14.831550 2.037810 
-26.612600 3.532673 9.616945 
17.965313 20.039499 -3.067255 
25.315187 -6.339925 9.066509 
-7.220541 24.975983 -0.522087 
-21.245548 19.901775 17.540453 
-23.249434 -5.906434 10.787786 
-20.003115 -1.673983 2.893481 
3.693355 30.611002 4.422317 
15.888965 15.323348 6.760582 
18.111965 11.937627 4.539126 
-14.487275 19.556517 4.848897 
27.387054 0.895052 8.219599 
-16.869223 19.713223 0.178124 
-22.433405 10.864747 -1.318795 
-15.527325 6.311334 -0.385206 
-15.780516 8.647107 11.260761 
-16.279150 4.643072 -0.276574 
21.928358 -6.124357 11.464053 
-15.349306 22.362375 5.657220 
-24.044865 9.682670 -0.691250 
-17.402159 11.408731 12.102139 
3.162002 33.395947 16.456844 
17.272120 12.372898 7.751078 
-9.857646 15.756044 3.846963 
-23.356783 2.984464 7.790859 
25.682302 7.210077 1.040416 
15.384816 30.402916 11.746188 
-13.855667 24.873816 -1.972095 
16.334402 10.425196 2.679955 
15.929205 20.403793 8.418303 
-22.815561 1.799371 9.866051 
-17.780273 26.770906 8.182557 
-29.179464 -2.196990 9.287146 
-10.579178 27.964624 15.604785 
20.899326 5.480072 7.295353 
21.730015 14.606933 14.066671 
-23.003309 16.421244 17.536051 
29.490732 -0.695803 5.639220 
11.560998 28.119442 7.325308 
-21.012304 9.749965 16.217936 
-14.392438 26.656610 12.318117 
-7.437973 35.767170 7.144902 
1.006785 29.822922 2.484754 
17.218637 11.886281 8.572488 
-20.556480 13.878969 10.560175 
25.056421 -0.249296 0.497452 
-23.242384 3.627049 1.099819 
27.626148 6.749535 16.699848 
-15.364825 6.201834 0.499940 
-27.426167 4.420566 10.967040 
-23.579762 11.156629 -0.466092 
-10.739429 20.469000 14.842282 
-28.897223 -5.781628 8.108112 
18.951765 10.272760 14.993546 
7.552157 29.479021 5.481404 
-22.976023 13.163032 11.357287 
23.122095 1.809825 14.631248 
15.731113 30.711853 9.354610 
-14.829617 25.181427 7.972936 
-30.220222 -0.829223 17.292503 
19.049761 13.137628 2.064187 
8.788996 27.588512 -2.770687 
-17.743767 19.797466 10.689311 
17.262938 18.557985 11.737288 
23.122576 -8.452751 3.344190 
21.553225 1.781425 5.139942 
-29.130499 0.748634 9.281901 
-26.479624 2.771763 7.913482 
-25.816282 0.178231 17.122889 
3.895739 29.705872 8.494251 
11.183286 19.943905 14.536728 
1.569939 28.623562 7.437987 
26.045815 0.529120 8.563157 
-11.270739 19.230446 15.089626 
-20.148767 -2.139947 16.187542 
-13.104140 25.552822 12.359319 
1.025585 36.304848 10.753557 
19.488258 1.177704 4.881519 
-17.272530 12.114902 3.134085 
27.116173 4.013384 1.175696 
-0.894713 28.334448 3.793023 
-3.896013 34.814587 14.314376 
-24.623354 12.822757 9.827232 
-21.967613 4.648005 7.453349 
-4.252879 33.898930 8.223725 
20.635578 3.252320 -0.846239 
-17.830301 14.563434 1.835190 
-25.978693 -2.799295 -0.433916 
-11.967381 20.723471 1.552860 
20.751768 9.765116 8.428877 
2.290240 30.924114 6.464443 
-17.257288 12.045586 8.605725 
-25.507929 7.332232 1.441554 
-24.991026 -4.794009 8.197586 
27.676519 -1.786711 10.475019 
-19.282711 13.977106 2.049203 
-15.585210 29.922161 9.468267 
-17.910074 19.104780 -2.446569 
20.650312 9.774419 16.306274 
7.245051 29.242065 13.407104 
26.950520 -3.274810 9.783278 
-2.156574 31.986441 9.334462 
23.151854 -3.039080 7.552006 
-25.695704 7.125268 3.994876 
-24.128828 1.808264 8.953970 
-5.455273 25.932747 2.036510 
-20.042511 -1.050786 11.740751 
-12.895976 15.740275 9.645013 
-5.510839 23.731302 3.617915 
-3.873885 34.749798 6.580502 
3.861215 25.874763 3.579987 
-28.217367 1.727268 9.085277 
-20.938469 18.381058 10.775625 
13.047307 25.863514 -0.384258 
-7.199499 30.546562 10.774431 
-28.059507 4.540474 13.989614 
13.085757 25.588150 10.696937 
20.278421 12.019377 11.658738 
-12.151705 21.019266 12.318848 
3.952425 24.971069 1.753924 
18.369474 6.213012 -1.542270 
-19.102163 24.122356 16.154293 
-8.943117 20.226156 2.287562 
8.498571 26.577105 -1.274140 
9.603233 27.914463 1.732826 
-26.524714 -2.162869 17.334820 
-16.044113 5.871204 14.265532 
18.189264 26.254225 13.955535 
-20.829643 3.799604 15.422564 
-28.338976 4.543415 14.709926 
23.547169 8.051647 16.575947 
7.498495 33.657642 8.880461 
-12.948858 18.279892 2.118541 
-1.489848 36.209808 11.670028 
19.097586 15.579425 8.056298 
28.413326 -6.966856 11.583053 
-23.230549 9.878028 16.215593 
27.319201 3.530938 10.803654 
-15.010832 22.300682 16.126091 
-16.283630 22.637600 8.415699 
13.771482 16.401981 9.348941 
-4.497594 26.092373 2.146100 
16.953247 0.995716 1.336462 
20.780489 -3.055022 0.562933 
7.506472 30.810764 15.466038 
-7.872541 27.545969 -3.824731 
25.528711 10.793991 11.657009 
-29.107004 4.272428 10.894148 
2.630276 25.616768 4.692564 
19.727688 17.241415 1.280917 
-18.118801 11.722537 11.340048 
-9.712994 23.095951 -0.150947 
-17.430672 4.619865 10.008720 
21.545925 -0.180067 11.870605 
-11.793583 19.490747 13.349354 
16.970325 16.398403 7.616047 
-18.259888 18.263638 13.439053 
16.631857 26.760021 12.659923 
-26.093050 -2.674325 8.157732 
-20.321709 19.026598 10.678578 
3.827371 36.040073 11.939053 
10.511534 27.306452 8.719895 
-23.129595 2.732388 13.074353 
-11.007516 31.723761 14.172204 
16.568291 2.937224 1.823305 
-30.707064 -4.083966 2.973491 
-19.112535 26.284302 12.231291 
-17.939480 2.003297 4.646173 
-9.576185 26.413677 14.005575 
23.694632 -0.167027 8.497092 
-0.562310 34.867191 13.167919 
-19.661453 24.877348 13.350491 
14.812783 28.548624 9.076656 
-16.451527 27.532316 15.487462 
-16.997341 10.291451 9.936060 
-8.332117 25.900946 12.496015 
27.321419 5.143866 14.090754 
-24.265120 -7.523462 7.306652 
1.248925 26.433264 5.286277 
16.371374 4.311430 10.742788 
-22.873287 16.336842 15.643028 
17.325319 26.472794 18.703289 
16.165138 6.686255 10.795178 
16.776360 2.990987 5.600874 
27.352701 -5.873559 10.627248 
30.604626 2.108130 10.033252 
21.202181 6.492771 16.525433 
9.616981 33.601254 9.845756 
2.031050 24.094330 2.855151 
31.112843 0.140899 14.999041 
-20.699699 13.229623 4.673424 
23.700390 7.070227 7.821821 
-12.374718 22.171558 8.323016 
14.669523 24.376036 8.978069 
10.735022 27.388214 15.289887 
-18.073523 24.470379 16.879992 
-25.363863 8.805952 -0.457941 
-5.637482 21.429819 0.713181 
17.290113 12.927758 7.267568 
-12.637666 22.407576 9.022649 
-20.009932 19.509136 11.877714 
-18.618711 20.133268 8.922259 
-15.232288 9.291032 1.925068 
19.388273 5.624641 5.753346 
-18.736969 18.235161 6.691217 
-23.556089 2.654088 11.599737 
21.996984 16.129610 7.366765 
29.700893 3.057390 17.667252 
-23.520580 2.545811 3.801004 
-12.596259 18.847885 -0.385534 
1.732435 34.431984 14.207409 
10.395213 23.101652 5.388850 
7.012090 20.760399 1.595644 
-22.285021 -2.845398 8.833160 
-26.709185 3.586480 2.857635 
26.899885 5.140952 -1.427653 
-22.643848 2.746964 5.540278 
-18.883238 2.480305 7.532806 
-10.535149 18.817038 1.199968 
-11.932004 23.286896 7.498939 
-21.035057 19.867878 14.789139 
22.387365 11.804276 13.368752 
16.493227 16.675047 14.322140 
24.572886 12.239116 15.523492 
8.314613 36.519234 10.830900 
-23.747532 12.587694 12.332357 
19.553658 12.064897 11.690279 
-13.998698 17.344254 10.809422 
24.136257 2.160757 15.711145 
29.202291 -3.155067 7.850673 
4.590679 33.492962 9.767988 
3.865793 33.783192 17.589886 
18.534002 8.772499 -1.605712 
-6.243727 19.948399 -1.409411 
-7.528923 32.436634 7.159099 
22.492212 1.202988 3.721191 
28.884821 -1.472059 7.458351 
-12.971653 31.677156 11.068698 
16.820555 21.531069 0.222471 
13.646795 20.346079 10.905921 
-3.484623 34.067657 16.767435 
-14.861777 20.034447 5.275519 
-28.209965 -6.568182 1.857755 
-24.232231 5.527497 7.854708 
14.641464 19.453997 1.798285 
19.448009 -0.404811 11.824182 
24.016119 7.966601 -1.137151 
-6.909735 28.731655 -1.314364 
13.401767 16.964624 5.680566 
-11.436145 17.431765 5.278257 
-20.549612 -0.262423 14.338706 
15.663812 23.137854 2.075317 
-20.954266 0.389892 7.609672 
-13.077013 22.490654 15.344410 
15.238045 4.716889 -0.367735 
0.839241 30.431269 4.595970 
-17.454372 13.068881 4.953332 
26.611076 -1.159340 17.198570 
25.674906 -0.953667 8.840933 
