6.506299 31.266489 7.887980 
-9.870867 23.632534 6.128486 
-15.729943 14.862494 1.701429 
11.326808 24.609877 -2.350482 
22.438618 4.967064 -0.724840 
-0.773288 24.150473 11.260724 
-17.564445 22.337910 1.283355 
2.176967 32.104240 7.937845 
19.553770 2.706398 6.963695 
-25.087811 -11.280403 6.570650 
-10.048201 26.263983 16.123083 
9.819961 29.822220 6.911300 
-28.266361 5.946177 14.779730 
-26.450075 -15.318333 11.323880 
20.280060 14.685661 2.400476 
25.783272 -1.816467 9.161125 
-1.020365 27.353327 14.278166 
10.542899 26.895992 13.829530 
-12.441782 22.720308 11.906372 
-4.105175 32.030476 8.314418 
-4.173559 27.869669 18.501354 
-20.220551 -7.179325 8.375848 
-15.763607 25.869034 -7.334206 
8.918021 25.578566 -2.623814 
5.655247 25.378792 9.723027 
-28.597792 -12.098919 4.835663 
3.103096 25.629360 0.527104 
-0.867381 27.379684 -3.666929 
7.807469 29.572998 10.779878 
23.367931 -5.755987 2.555805 
17.200247 13.434247 3.474703 
-7.358904 23.412535 5.503366 
25.465681 -6.001314 4.781158 
5.187953 28.369709 14.199548 
-3.844460 29.516365 13.817592 
-21.923267 3.886671 2.764795 
22.670437 -12.175149 0.668747 
-32.184349 -14.702836 12.102475 
-16.611595 24.377972 -3.061603 
-15.061628 14.771446 -1.597632 
3.717139 21.999397 -3.901536 
-27.436251 7.828418 -1.178035 
-23.719458 -7.848003 6.112390 
13.037806 19.794933 -2.150926 
-17.288328 19.267982 4.607450 
26.763174 -1.634304 4.105507 
23.438847 -14.468372 2.181711 
32.957386 -3.301132 -1.429984 
-20.865513 16.425613 -3.547207 
-0.554081 30.311670 13.584412 
-2.004039 27.040949 1.159337 
24.586296 -6.355781 -1.773533 
7.132583 23.434931 8.019258 
18.700012 -4.002186 8.407542 
18.017536 21.701336 15.640456 
14.315848 23.524096 11.903599 
23.614000 13.344234 8.751635 
-27.327597 -0.631775 -0.201692 
30.512665 -5.988378 11.731142 
-27.139853 3.235146 6.111627 
0.282153 17.736752 19.555990 
24.115393 -9.337552 -2.048675 
-23.929853 4.475317 4.792013 
19.701283 -0.863329 4.486513 
24.840849 -3.522989 -2.923983 
-30.044357 -10.977053 13.135902 
10.343224 21.607521 -3.535007 
4.271952 29.810442 6.025210 
24.812677 -4.972090 7.821434 
-17.699886 3.221303 -4.257309 
-25.933203 10.479496 16.976192 
5.140262 20.776360 -6.026321 
-31.740314 -2.063653 16.436628 
-27.075327 4.864336 5.207739 
-17.521976 13.133606 -2.393089 
-8.324886 22.674259 -2.211039 
-30.785658 0.104762 13.414090 
11.799015 25.889999 4.761098 
-20.050282 -6.464661 -0.645607 
21.413048 -13.981609 1.001374 
17.130968 16.584869 8.633275 
12.238451 24.756218 10.690312 
20.324348 8.045615 -3.514905 
-6.782193 23.220222 -3.239886 
0.844407 27.141117 9.662179 
-24.217363 7.441040 0.190839 
-18.923550 1.166700 -3.040450 
-10.721129 13.645799 15.067656 
18.527874 19.774376 1.177657 
-31.469528 -6.144023 9.158134 
-16.155712 24.134834 -4.557011 
-0.798842 29.044907 -9.698301 
35.021347 -6.327259 -1.459978 
-27.638714 -3.899422 2.887418 
-22.922676 14.601555 7.857853 
18.749485 -10.395657 -5.003565 
-27.990049 -6.031356 7.353158 
-26.611170 7.075491 -0.405675 
-8.549188 25.363152 11.874467 
-15.350253 14.943080 5.872484 
18.414005 12.840896 11.358515 
21.896828 -8.965871 2.286001 
-24.784819 -5.452540 10.799814 
19.314159 8.621675 2.290968 
-27.892813 -10.055170 -1.742978 
9.372761 21.855768 12.224943 
17.528524 16.360964 9.425636 
-29.359474 -4.300426 6.849576 
18.380863 12.676821 -2.374995 
-22.503242 7.857685 -3.093074 
18.570612 -5.479975 -4.029502 
11.986381 24.125685 -4.709584 
-11.788774 20.286201 10.362361 
-22.820696 2.830208 8.112406 
10.443974 24.927588 11.305091 
23.161255 -6.408133 9.270938 
26.732660 9.776165 -1.311816 
-9.737468 28.872587 1.098595 
-31.679716 -8.399856 1.355260 
33.433060 -10.768744 14.317864 
-28.599522 3.236878 9.037012 
19.171421 18.986046 2.890641 
-8.189144 29.486952 0.299109 
-24.882294 -9.246707 1.311455 
-17.863785 20.829733 3.951232 
-17.264683 17.318983 11.522885 
21.421869 0.417757 -4.268835 
11.828738 21.065683 8.848177 
11.325511 27.706203 -3.066317 
9.299715 27.921049 12.642234 
-22.957102 -0.526000 -3.881800 
-16.335361 22.062143 12.839250 
16.358530 18.809616 1.949495 
-24.106129 -5.034689 3.379782 
11.826122 14.583805 15.716627 
-20.977783 -9.036350 2.791911 
-0.113272 31.507820 9.699016 
11.585814 21.701807 -4.479377 
24.428127 -4.068580 -2.212454 
-28.953386 4.054132 11.247405 
-10.207006 23.022636 -3.866169 
-18.713514 6.204343 -1.001516 
-18.387405 9.784859 0.140980 
26.235310 -12.805901 4.949420 
32.363960 -11.939675 11.501998 
-1.672362 29.991308 14.537113 
-5.108172 29.815125 2.117179 
24.249146 -6.182211 9.491579 
-15.594730 19.090118 -2.475289 
-32.343559 -5.780313 12.401894 
16.105267 18.030590 -3.037776 
-12.802608 16.039270 -2.829685 
20.680534 -3.494970 -1.482334 
-23.796888 15.643710 -1.782982 
18.809813 21.134939 19.084316 
-7.475068 24.345850 0.427851 
-27.717728 2.475806 9.624501 
18.361254 10.275857 1.813682 
5.910554 16.831476 19.483992 
19.214577 -1.466872 18.003252 
12.679562 25.583435 14.609674 
-15.901906 15.603904 -0.094202 
-27.841705 -12.443669 3.285227 
-25.179525 3.995962 9.610649 
23.434214 14.528551 9.602954 
-19.034698 0.056867 6.548484 
15.050302 25.537033 -1.192302 
22.145798 -7.058618 0.279673 
9.311996 17.952223 -7.378586 
-18.681881 -3.456570 -8.807047 
-24.709888 13.220160 -3.662617 
10.174567 27.332571 11.364187 
-19.684101 -10.949559 -1.469735 
-11.260729 19.237827 -2.840563 
-23.344902 -6.291199 3.575630 
20.613678 -9.196134 15.056379 
32.238880 -14.351023 15.253519 
21.285257 7.764568 -3.482054 
-24.978163 10.702168 5.467319 
21.100920 13.453382 11.409097 
-21.125267 15.527734 4.581058 
17.218353 17.314253 6.678823 
-20.535635 9.103045 5.923388 
-10.204702 21.834908 12.145291 
-4.304940 27.505835 -4.051623 
2.197107 29.348448 16.276707 
20.012760 5.117064 -1.029108 
-22.203720 2.479903 9.679962 
-13.158267 12.696687 7.470188 
21.129217 20.218176 11.065233 
-7.971468 29.065260 -3.410019 
10.858974 16.130131 -10.345793 
-18.559896 13.881227 8.187139 
-18.865330 21.415184 11.790977 
-1.629384 31.533112 9.569395 
14.933198 14.237097 8.250065 
5.973752 27.379677 4.166246 
28.953081 7.630869 -4.727651 
18.438902 19.965364 0.209528 
29.465878 -8.402704 -1.147477 
21.252592 10.070686 5.167143 
7.428022 21.059851 10.927427 
-17.307161 20.475100 11.521561 
-20.625288 7.746542 3.630267 
20.860132 13.575400 0.253357 
-17.941305 18.819164 -4.381929 
-33.172935 -8.639479 9.749950 
12.283361 24.953276 9.840532 
32.909328 -0.538108 -3.787353 
25.101456 12.999849 -1.059540 
-4.444754 19.719551 11.548671 
0.502794 28.884567 11.976682 
20.123148 -8.156626 13.216024 
-24.859119 -9.889153 3.337108 
-33.471638 -10.268834 13.158876 
-22.969913 4.352366 2.100039 
19.024704 0.227608 2.231698 
-5.459316 26.723532 2.714430 
-2.071620 30.652716 -2.632708 
12.374963 23.950121 11.746427 
10.445798 22.357519 -1.837266 
4.980130 28.944506 4.039429 
-14.990417 13.499537 3.545929 
-28.480032 -4.715855 3.365052 
4.494676 28.175882 3.027266 
-30.630178 0.746381 -2.009890 
18.297569 -2.781694 12.372423 
-4.090193 23.819530 11.782746 
-19.146923 15.847085 9.568328 
-19.885767 -3.797462 9.896683 
-31.945154 -11.479678 3.788777 
14.193063 12.267410 6.052047 
13.104809 24.157999 20.080040 
-20.982550 -14.533746 1.616213 
-5.678041 22.977415 -1.233926 
18.578201 17.287783 9.071346 
-30.466610 -1.033279 -1.465397 
2.626523 30.354523 12.458399 
8.377039 25.547297 11.215173 
32.637489 -10.760133 9.515718 
-25.930002 14.202275 -6.568979 
-3.489545 21.294933 -6.764812 
-10.231515 28.245081 4.237990 
26.196665 13.148014 -4.990893 
-28.984543 0.137514 7.234682 
-27.006798 9.775110 5.851132 
-19.037851 -1.761850 9.491475 
25.905281 9.379957 -2.857125 
-9.702768 28.685215 -1.238181 
26.877722 8.753410 3.557487 
22.395569 17.132597 -1.476683 
16.266037 17.811766 -3.880118 
-5.719753 21.328932 -3.721789 
7.713303 28.529160 14.428442 
1.571201 22.087137 -4.864209 
-15.706973 10.475701 9.947909 
-7.738619 19.681644 -5.287631 
-20.370440 0.781497 4.797163 
15.112149 25.603449 -7.752379 
-11.391043 23.174894 12.487309 
29.016796 -10.939419 12.886863 
9.547773 24.769413 11.050114 
-24.595608 -14.529941 6.858649 
23.105146 13.548209 2.573286 
25.250547 7.673834 4.120954 
-21.288557 14.629727 -0.756110 
-10.396739 25.559956 11.647465 
-16.389885 22.938759 11.659885 
-15.408698 8.670446 4.835354 
5.449002 20.273554 -7.675650 
30.680904 -1.453049 10.006626 
32.875511 -7.420337 10.085087 
24.618813 -14.218035 1.861251 
3.773233 30.720701 5.157616 
-18.316837 15.669271 9.464076 
26.236843 5.049047 8.677510 
16.234224 21.293741 14.938464 
11.958383 21.356861 0.728139 
-26.151880 4.749375 9.896132 
19.403425 -4.036795 7.619016 
27.218233 7.992994 3.866056 
21.749033 18.930199 11.625300 
25.502974 12.344136 -2.184464 
19.747957 -2.724457 1.609179 
26.333984 11.640317 13.803061 
29.501616 3.333320 16.762684 
12.533495 27.141788 -5.300715 
-23.732258 7.883547 -2.069665 
-9.825843 25.201166 12.363703 
-12.813619 24.130659 -2.916658 
-4.276016 29.123884 15.406437 
31.301256 -8.119533 0.161146 
-32.491203 -11.226665 12.331465 
-13.320464 27.452675 -4.106816 
16.068691 13.017553 7.932734 
1.791231 26.918015 3.928920 
-11.874413 20.178581 0.106059 
17.399830 -0.936274 -7.886912 
7.746748 17.493055 10.962697 
-12.319361 10.643898 9.578778 
-32.300858 -1.751289 -8.966667 
9.615260 27.519987 13.649497 
18.779665 13.950402 11.532569 
-27.334818 -9.992758 12.333475 
-14.991924 14.492996 6.898796 
3.949124 26.971333 7.392920 
17.500532 -2.101767 -7.639456 
19.928970 11.432503 5.120129 
23.544989 -8.684772 -1.972129 
14.340432 21.126286 1.108354 
4.259080 29.557743 15.247908 
28.626057 -13.542090 4.854548 
-15.279853 20.486990 -3.064311 
-0.198696 24.157623 10.637969 
15.620736 22.223259 11.550752 
23.306213 -5.894091 3.461997 
-1.728265 29.319181 -2.671234 
29.631020 6.088306 -3.854925 
24.241676 6.004243 10.378375 
-16.319069 22.576685 -3.814652 
9.933611 28.832951 7.046890 
20.353004 -8.147845 15.163317 
-3.915715 30.759832 0.289759 
-9.129786 28.080063 -9.861687 
23.326675 -7.708435 4.159938 
19.136351 11.648165 2.232681 
-28.041361 -2.631182 11.101921 
28.696960 3.114533 7.901289 
-13.712413 9.919745 8.079877 
19.948437 10.248243 10.259691 
-24.169580 11.367199 7.632169 
36.592655 -4.257733 -6.847400 
-8.399190 29.323866 -0.827245 
-16.985622 22.159420 -1.376222 
2.199494 19.702570 14.102086 
-19.796679 -1.292327 9.888776 
-19.022528 -3.914806 16.199018 
-16.622608 24.317226 -9.822136 
-21.862642 -10.551581 -1.895145 
14.266532 25.944099 -1.950137 
6.067907 29.552736 -4.980022 
-16.478554 7.259283 -9.671006 
8.968951 28.498095 -6.252497 
-24.093468 -7.819247 7.190140 
24.325687 -11.299906 10.566063 
16.572784 16.189260 2.042439 
3.755263 30.275574 -4.608039 
18.300095 13.709511 4.941756 
-16.963251 25.025490 -6.146162 
24.581051 1.774360 -4.126789 
7.382634 23.082287 9.324646 
-4.680317 20.179964 -10.698250 
16.637085 24.404427 -0.404558 
-7.465953 26.970747 5.369826 
30.119221 -6.703412 12.090084 
4.171255 28.269300 -3.996958 
-20.965418 4.979463 3.706887 
27.075203 8.060947 -1.233083 
12.826217 23.499702 3.438161 
24.093845 15.716568 11.139478 
23.301046 -7.505834 8.569887 
-3.012074 29.684450 5.026124 
19.627865 17.793112 9.196423 
-17.069883 0.146035 11.182887 
12.441037 19.193975 -0.743710 
-27.479471 -0.545927 -2.594443 
-25.020531 15.682224 -5.354607 
27.916210 -13.811529 11.964808 
30.195782 -11.193968 13.041770 
17.673883 20.755623 0.272937 
3.466081 27.719328 2.794622 
-24.055435 -4.781863 -1.594565 
18.730522 13.194893 1.343497 
-31.851933 -9.670306 12.902817 
3.461541 23.727808 10.829503 
16.958487 4.996683 -7.822479 
21.626181 6.671028 1.636745 
-13.996690 9.834358 8.867081 
-25.727262 -3.666418 3.130292 
-19.946545 -4.072455 -1.157477 
-30.617062 -5.504360 0.937139 
7.229427 21.370110 7.849529 
25.110348 14.500154 -5.907012 
11.098769 21.765455 6.390153 
-4.401109 26.831942 11.886902 
14.691817 25.826801 -2.977283 
-27.429783 7.620763 14.815626 
9.477591 20.851801 11.798454 
2.207484 26.237215 2.098121 
13.271013 19.312803 9.678021 
-5.191261 32.375706 5.795038 
26.009682 12.937468 -7.229126 
26.262655 -14.966940 3.967224 
-19.705366 19.441223 7.068487 
32.853378 1.547803 -6.027934 
-29.779015 -15.283735 11.795224 
-27.171604 11.913420 -3.309111 
3.362291 30.142668 2.743499 
3.123764 32.407677 5.678078 
26.643551 10.312930 -0.686855 
-26.561241 3.754737 -3.639358 
-1.303998 29.248970 4.220740 
-20.662155 0.138117 -3.899085 
-25.275679 13.848787 -1.246497 
11.949325 25.898405 11.986724 
18.294336 -1.937841 -3.448714 
-7.666372 27.928453 11.184843 
21.656639 0.358272 1.989592 
25.732046 9.895065 1.897112 
18.252953 22.475178 15.142634 
-29.387299 -5.921827 7.446177 
14.981223 24.954788 -9.814806 
17.617702 10.696831 3.763304 
-20.824602 6.213009 -2.022436 
-10.468980 27.206163 -11.276194 
23.053848 -6.468807 -0.750953 
9.545991 28.045139 -3.060110 
-19.538115 21.007809 14.129200 
29.331959 0.352388 -1.086274 
-27.499002 0.898705 -0.732484 
-20.680069 -12.330044 1.416632 
-26.907310 11.242156 -10.009947 
5.638621 28.576759 0.385296 
19.977451 -2.369210 9.831608 
20.866753 22.662941 9.011485 
0.737964 30.751732 5.998080 
-12.144730 17.193571 -2.555949 
-0.947801 30.844530 3.996080 
-19.811056 -14.749133 -7.894699 
-14.754579 6.417057 9.698768 
-23.637342 -10.363141 -2.292026 
-12.985962 18.569998 7.511996 
-15.733689 20.169189 0.028489 
24.761332 13.370659 0.287138 
-33.448380 -6.344962 -3.820332 
-20.147377 15.588878 -3.849546 
30.029110 2.219429 10.612000 
-18.586292 -2.289162 -3.396062 
3.049942 24.446428 11.720181 
-14.051097 14.651650 6.490157 
3.095853 29.887646 14.722404 
31.365410 -7.793431 3.308839 
-12.700619 23.376549 9.038114 
-21.859974 -1.779629 3.085886 
39.991577 -12.263019 -3.901034 
4.818546 21.459381 -4.382069 
-14.205013 12.333000 -6.454233 
23.812597 -5.629166 -0.684049 
-24.889194 -9.893930 10.813133 
-27.859703 6.302551 7.926628 
-26.829685 8.173758 4.012217 
9.591816 27.963457 2.129989 
24.655594 7.027135 -1.661860 
19.650766 21.592749 -7.853756 
20.048857 13.107439 -0.490127 
16.993471 10.033348 -1.663985 
-20.543253 19.650608 13.567070 
3.097982 28.830849 -4.652236 
13.166741 11.327967 19.039459 
24.478270 14.812831 10.075177 
26.765255 -13.506623 6.122314 
4.384280 21.311567 -5.291030 
-17.875811 12.442236 10.652022 
21.061459 10.502107 -3.984852 
22.537951 -8.601009 -1.129660 
18.747641 19.601992 -3.791395 
-29.275040 2.730783 10.340652 
31.208920 -9.016364 0.081737 
26.310020 -14.906799 9.114466 
-1.086429 30.737524 -2.158749 
5.716631 21.941311 8.580813 
-29.926428 -1.933745 -0.472466 
-18.002386 20.661011 -2.883672 
-24.456448 -5.901859 -2.053044 
5.113769 27.837402 2.509906 
29.808607 1.060630 9.827512 
30.749008 0.605574 14.566821 
-26.103203 -13.316422 -1.013431 
-27.438532 -0.395090 2.816972 
-22.152760 -11.642874 3.986665 
-10.555317 25.820923 10.840271 
30.632374 -17.627310 2.439176 
-3.952343 28.015911 -1.453786 
-25.866901 -12.401501 -1.561893 
18.560608 12.775104 4.341813 
-27.668478 8.917562 6.038295 
-14.607293 11.026013 2.888118 
-26.535341 -8.741345 11.500315 
-26.204487 11.685273 0.511870 
-4.681337 29.689148 -1.536520 
16.848133 5.847399 18.595884 
19.153683 1.017895 -3.008719 
16.460367 5.886567 16.204351 
-11.452247 24.905060 -1.282184 
26.202852 11.047176 5.834194 
21.036779 4.693459 9.147071 
8.613585 25.053593 3.270674 
-22.623186 -13.607752 1.144575 
29.814228 0.273171 8.480626 
-7.524404 22.689503 -2.909111 
-6.148797 22.669706 -2.563854 
16.090374 20.694931 10.392563 
-8.066072 27.755949 12.438329 
23.163387 0.394381 1.864864 
-17.395681 22.571386 11.914807 
-29.698057 -10.144884 -0.602663 
-30.156691 1.532649 12.224012 
-25.005390 9.859121 -1.412602 
-25.955860 -2.984830 -0.787909 
23.709314 16.503469 11.932017 
22.127586 -10.282328 0.733368 
-12.603031 10.451612 16.703407 
-19.594740 13.312129 -0.183331 
-27.537889 -4.321406 -0.679359 
-2.612827 27.584713 -4.641066 
-19.426874 0.368176 3.145056 
-19.984631 8.968214 6.766648 
-2.047940 26.665813 7.753861 
33.000912 -7.688659 7.515532 
-19.474327 9.124277 8.427294 
-15.895263 23.845675 11.588178 
-19.156752 1.362373 2.724370 
-4.732787 29.146111 -2.218441 
-28.960489 4.448045 16.621695 
33.988724 -23.629850 -4.280648 
-23.989801 -8.008397 -2.469434 
6.301158 26.934677 -0.584296 
-21.004747 6.891431 10.586375 
32.954185 -7.056682 14.301308 
-6.365957 26.970188 18.863117 
-23.508694 -8.804775 6.808776 
-7.631717 27.975817 10.278002 
-20.366430 -2.856833 8.046748 
5.822112 25.658640 7.288546 
-17.542774 3.259371 -9.348900 
18.563631 -0.534497 0.300422 
26.044903 -15.895042 3.704860 
-20.825325 7.825927 10.391201 
18.771408 -0.412795 7.781027 
-23.363667 -8.715665 -2.424975 
-16.946310 8.830468 -3.307050 
25.305946 -0.983804 -3.704395 
5.890984 21.945049 -2.323097 
-13.933712 20.351824 0.976369 
-23.720379 -9.084538 3.706520 
28.465992 -2.017822 -0.967241 
29.339560 -9.469280 6.920014 
10.084165 19.074562 7.418815 
24.509899 -14.225000 8.804204 
20.812119 19.747370 17.129061 
-23.869961 2.495906 -4.373287 
-23.160250 10.100721 -4.164468 
22.353287 -9.657834 8.208926 
9.650267 24.331800 0.950934 
-17.917332 -1.166688 16.066599 
-22.474611 -0.599611 8.414606 
-14.459177 6.929943 16.525669 
-20.771360 5.590300 10.322348 
23.654339 -5.487535 10.359391 
-18.742422 -6.383521 11.231357 
1.455018 31.662542 8.144639 
-26.693371 -10.281626 -2.120749 
-28.787037 -12.413573 1.549043 
11.008327 26.995262 -1.026976 
-19.346195 -1.325457 1.392383 
-23.022972 -9.467896 8.480934 
-22.976040 -8.033765 7.282866 
-25.940407 -9.506333 4.979260 
21.227880 -10.743490 7.818263 
26.087816 -9.246696 4.237803 
-18.536108 9.536344 4.177054 
12.024238 18.610041 -2.563897 
-10.646082 27.776379 -9.632769 
31.453215 -0.218723 -2.175328 
-15.141535 14.809145 -0.753081 
32.942657 -2.378731 -2.260650 
-32.113396 -14.638070 10.670383 
11.728048 15.241858 -10.272510 
12.791693 16.300505 -3.591798 
20.129261 -2.904714 4.918215 
14.839082 18.941681 -1.547245 
16.012766 8.461322 -8.258653 
23.678080 12.712212 -3.146537 
7.082802 22.304756 8.323531 
8.315159 25.249844 10.428013 
-28.311947 -1.510809 -0.563015 
-11.738768 16.069164 7.577168 
-18.098713 15.340057 -4.495790 
29.267517 4.822522 11.554165 
13.069698 22.105915 1.850354 
23.582813 -2.506742 8.612178 
-20.266741 0.617887 9.681761 
-21.006063 19.028719 12.866845 
3.225389 21.191984 -7.047708 
-27.184965 -3.367145 0.370917 
22.691254 -4.381416 1.948364 
16.043123 10.720221 -3.311987 
0.606811 29.746056 4.148580 
-11.311559 25.539045 -0.576273 
18.278389 9.044129 8.023805 
28.932142 -12.489170 -0.344208 
-13.828289 24.983431 12.042202 
-16.895683 16.898287 6.830987 
-18.516722 1.623410 7.876260 
-26.584730 -12.898886 1.788364 
18.462681 -4.025357 10.921160 
30.325674 2.167093 13.330705 
25.983803 -7.338833 7.656394 
-4.969482 29.192179 -0.941308 
-14.524998 24.384790 15.010432 
3.628668 24.610567 7.820768 
-25.967949 7.450622 1.213518 
24.185276 -15.326668 8.391282 
29.259356 7.582818 -6.118972 
-9.264834 22.421288 12.480884 
-12.780130 26.986666 -9.545046 
-28.541098 -4.962887 9.142172 
31.288948 -18.845308 1.265682 
-31.469587 -10.691348 1.981698 
26.571745 -7.139315 4.624212 
1.344842 28.504147 11.773686 
17.968691 21.355438 19.853968 
0.289822 28.463518 2.456861 
11.079985 20.166351 -3.564256 
18.275532 18.998217 14.333084 
-27.583487 8.456707 -1.840881 
-5.106073 26.627296 -1.704314 
-28.373066 -4.040642 2.492151 
19.877592 9.283611 -1.424539 
-10.976986 13.032040 16.808598 
-15.175167 17.861849 2.274808 
18.668110 9.504454 9.880124 
5.792788 19.878965 -9.231012 
1.248820 30.356861 -5.479533 
-1.190232 18.326012 17.697330 
-28.778570 0.258909 5.708638 
17.526333 19.913761 -1.802519 
7.990326 22.373671 7.475668 
19.741255 18.056221 7.215275 
4.700068 20.418283 -8.788596 
32.085556 -5.830863 7.750243 
13.009107 24.433758 9.860021 
-16.872736 21.029282 1.319269 
15.764254 16.373446 1.704334 
-20.487650 14.825070 -1.595730 
-5.937717 31.598259 9.182524 
-8.203531 26.561062 3.303570 
21.491606 12.874697 -2.463117 
24.704754 -9.208888 10.758463 
-20.661936 -15.575912 -0.072825 
7.161843 29.329559 -4.473196 
24.773348 -16.003410 16.825655 
-20.687792 18.502487 9.551592 
-17.800694 8.643684 4.534132 
23.399239 15.456581 9.383196 
20.971148 20.092155 9.631559 
15.374545 23.647163 8.668300 
-28.819965 -3.581622 10.801000 
-18.895212 12.862042 8.551611 
-29.886858 -13.740758 7.419951 
-11.723633 20.959864 0.442498 
25.567327 6.379560 1.056255 
20.253046 5.609211 -0.312508 
-19.514017 5.021342 6.232379 
-21.533014 14.979887 0.237152 
19.103300 10.387957 10.445108 
-11.323701 16.802290 7.548930 
18.182884 -2.730905 11.340773 
8.981553 26.922861 11.074107 
-16.144657 24.665291 4.471461 
17.383793 4.645949 -4.890561 
-24.198822 -17.645565 1.528808 
-30.460638 1.879196 -1.974374 
-21.597630 7.697364 10.803456 
-15.687796 9.088739 -9.817850 
-9.411570 29.077747 -6.335069 
-7.624567 23.758774 12.651302 
29.993397 4.021847 -2.232905 
24.076357 -3.534627 11.051663 
-1.963030 28.891264 17.180584 
29.043877 -6.060205 11.528034 
-20.108852 20.186895 12.468799 
-31.369249 -2.492211 -2.141641 
-20.099398 -6.442730 5.114853 
26.627890 -9.349083 12.015488 
20.060762 -0.630343 9.899826 
7.600900 27.003178 18.813742 
13.010168 21.509247 -5.014812 
-3.760058 25.690701 0.302322 
-23.233721 -13.837483 12.115242 
18.030725 0.092545 14.428008 
-21.394638 19.761461 -3.784017 
22.723000 1.000261 3.136914 
-17.971920 0.034473 -6.981259 
-18.501928 -1.089151 18.024332 
32.683804 -9.902049 2.149028 
-20.086252 20.162151 0.263631 
29.906824 -1.820807 10.054058 
-18.799902 12.904655 -0.736127 
-5.010379 26.006016 8.322830 
27.757906 -13.207759 1.407187 
-15.665479 14.196918 -3.413573 
13.812487 24.913097 5.036760 
17.308420 22.942724 2.194934 
-19.653297 -3.686156 4.691333 
-16.983137 18.376789 3.923156 
8.844883 30.711533 4.971154 
-20.647869 -6.995071 3.179316 
-25.617758 -13.832430 5.510818 
-25.954735 -10.654333 11.774825 
-6.480787 17.982145 11.882681 
14.333537 15.970819 9.567250 
32.659790 -11.742551 9.506235 
-9.479582 16.604849 10.929917 
-27.219158 -9.533767 5.047817 
-5.513734 29.871059 -0.496244 
22.100475 -9.791953 6.898301 
17.990164 9.701043 5.219967 
-25.525507 -0.113758 11.193413 
22.825016 2.251420 10.448496 
22.731522 -3.590796 3.321428 
-6.573487 32.049072 8.030502 
18.409338 5.731004 7.082025 
21.068478 13.211679 1.787514 
20.283709 -3.405579 9.831918 
-24.120209 9.641692 10.704056 
-21.609512 0.779768 -4.184898 
14.958010 10.012635 7.521348 
32.890301 -7.237655 15.239123 
-22.345348 9.768891 9.807766 
22.978901 3.304367 9.516427 
-6.889001 25.933668 1.907276 
-31.674273 -11.127746 7.228333 
-19.273886 13.577338 -1.066737 
30.461231 -12.732805 7.340051 
20.260702 20.196491 14.854895 
2.343169 22.339745 9.639294 
6.999197 17.452961 12.661720 
15.625274 24.479897 8.887801 
20.224764 20.468363 7.155581 
-5.929957 20.023153 -7.581745 
8.828445 19.464777 -4.201158 
12.482970 14.594028 -8.479552 
-26.517969 -15.800511 7.555887 
-25.847166 2.909385 -3.938097 
-22.670033 16.153807 17.582867 
23.601789 11.285794 7.837492 
-29.074518 -4.164507 0.342826 
28.638981 -9.431798 5.522494 
26.729019 -1.579063 11.490901 
-12.353668 19.514839 -0.517732 
-23.397942 -7.538340 4.974862 
-30.918528 -9.377257 12.841889 
31.101091 -11.774923 13.040287 
-7.879259 22.676582 6.332340 
-34.443211 -15.135592 -0.887168 
30.804531 -10.377607 13.095960 
-17.694508 4.166727 -3.832854 
-18.735666 17.501255 10.556390 
9.461251 28.204401 6.055723 
-19.366472 3.572407 8.241235 
-1.173454 26.691282 7.430907 
25.050863 7.506205 10.734813 
-9.128424 24.295208 0.571125 
-32.550129 -9.922117 6.681382 
6.627360 29.238266 5.948479 
-22.974798 -5.273201 0.573768 
-25.860785 3.912495 8.372918 
18.253725 15.528301 2.550317 
0.910483 28.266832 -0.306067 
29.994921 -12.336566 0.240205 
-16.392302 22.480812 18.270414 
19.558720 14.329344 11.610441 
-28.691334 7.582561 -9.716528 
-30.988920 -0.093328 16.749548 
19.880920 10.307425 -3.819129 
25.855572 -2.691493 2.673262 
26.637159 2.992028 10.756401 
-25.681822 -16.954382 9.528683 
21.610600 18.801823 -0.587149 
-29.175304 7.138183 -6.267880 
22.461550 17.816488 10.952275 
-19.156019 7.075973 -0.571767 
27.696703 7.871104 6.391306 
-26.655149 3.037525 3.111280 
-28.120424 5.108521 9.728267 
-9.665149 23.780848 -1.581425 
-27.320482 -4.975523 4.631008 
-13.605700 13.705004 -5.041792 
28.038115 0.209670 1.864796 
-25.673538 -15.165018 10.900725 
-22.035625 2.076502 2.270056 
14.514855 11.653316 -8.128796 
-13.129771 25.904558 6.590267 
19.666557 12.139629 11.219275 
24.452705 6.240849 -1.359979 
-26.730223 -13.624967 5.134370 
39.049076 -11.839770 -2.240037 
23.872662 2.144778 4.019709 
-21.354973 5.837739 6.155230 
22.054754 -5.840886 3.820234 
20.366350 20.815756 -5.055854 
-24.993820 15.636457 -4.445018 
-21.338974 5.981715 -2.811277 
-16.412094 19.336571 12.444916 
14.984423 25.029381 -5.187700 
-16.790501 9.395555 3.041322 
-0.990309 27.634949 9.704019 
20.722097 -10.210307 13.234584 
-17.996098 -2.646570 7.769710 
-19.661293 8.223955 9.161610 
6.848723 23.013906 -3.533747 
15.277579 21.064955 14.360021 
-10.596189 25.388552 3.969921 
20.090302 13.073804 8.578512 
14.465870 13.123602 5.143232 
8.724313 15.851276 17.054276 
14.175908 23.597202 11.059061 
20.774815 21.205561 7.726222 
11.428301 20.723888 -4.075110 
19.942019 4.340419 5.619691 
-9.344606 15.290990 14.652561 
-27.714443 -17.011251 8.571802 
3.326152 28.001421 18.945950 
24.987362 10.656196 9.048184 
-20.278992 15.740741 2.346353 
16.499311 7.289553 8.564191 
-19.743910 -1.325254 -2.813841 
29.772501 -1.566977 5.809153 
-24.754581 4.298400 5.196164 
-12.603028 19.533524 7.431957 
24.108149 -4.592598 -0.328695 
-33.352196 -8.326502 0.469933 
22.223949 8.540884 3.012115 
13.233059 25.893358 -0.062320 
-18.959394 0.239752 7.520689 
6.690478 25.125452 9.285681 
16.874620 18.278505 2.520098 
25.485477 -16.067972 8.430382 
14.435740 20.463398 0.503705 
25.930365 12.401407 11.340252 
18.609308 8.120375 0.780784 
-3.278108 25.411802 13.716480 
-27.326773 -7.479795 -1.986104 
-10.581523 19.461992 8.698981 
19.367382 0.886120 8.368572 
-22.741755 11.916418 8.498549 
27.943432 -1.843983 1.192017 
0.380999 28.612072 1.612197 
-26.568560 -0.421379 3.406637 
8.927767 28.119633 -7.938972 
28.511400 6.946107 -2.568832 
19.112848 25.281837 8.635494 
-20.600019 19.508293 -3.339870 
22.539707 -8.365550 8.000491 
19.913118 13.633804 -3.738512 
30.248396 -12.214836 2.252329 
19.026020 24.519501 11.539751 
0.940231 28.453783 6.102156 
26.607826 -10.385021 12.108369 
-31.737089 -15.567809 16.846670 
6.607100 28.098494 17.213566 
-15.708139 18.260323 -3.820585 
25.336838 4.414116 5.847514 
-24.938890 -9.688621 5.211767 
20.148445 1.079176 2.101422 
16.361937 8.827801 -4.783039 
-24.325941 -4.896739 0.776282 
-9.170991 25.897062 -4.492284 
21.151268 13.498631 -0.574141 
-19.102259 16.748537 6.679649 
-33.281437 -13.101594 14.065912 
27.685493 -4.301452 3.453739 
-18.931808 13.947437 3.385521 
-22.735258 -7.222909 9.723589 
0.126111 27.333755 20.334326 
-18.883211 2.682521 -2.481957 
-27.356951 -11.926398 7.991838 
-21.666826 6.171827 10.833663 
33.163692 -9.308513 12.105222 
-31.128595 -8.073598 6.397689 
29.464048 -9.291754 -1.134260 
-5.830855 27.947721 -3.128325 
-9.903015 18.673611 8.005803 
-29.546324 -11.864143 4.967333 
24.419991 7.583488 2.343085 
5.856417 26.236223 3.842306 
25.864960 -0.212300 3.969654 
30.208355 1.927483 15.493298 
6.512419 25.715876 -1.181054 
20.550167 -5.732223 6.826782 
-21.611727 19.851162 -4.883386 
-19.686676 17.419752 6.812077 
-32.238834 -13.534112 3.079859 
-7.686841 21.268238 11.517737 
17.206825 25.226677 12.035270 
14.045938 21.173830 -5.074220 
-27.942608 7.779832 7.776297 
29.346264 1.780883 9.999804 
24.667641 7.790289 -0.425430 
-8.581055 19.436726 -4.375019 
-23.400417 1.772570 2.093508 
1.674597 28.525082 -4.637486 
23.311153 0.373170 11.043148 
2.033664 26.600214 3.122259 
29.818918 -0.311852 -0.592566 
0.672886 20.539028 12.958189 
-13.905535 12.384071 4.363552 
-26.588242 -0.126040 11.153719 
-16.539618 21.000780 2.157071 
27.692343 8.413347 7.068789 
18.955973 3.782947 -0.313219 
15.452256 12.729526 3.256538 
23.908108 -1.616650 11.278149 
5.564325 24.155991 -1.964436 
-5.992293 30.037609 -1.232182 
16.857031 14.489698 -4.465047 
21.839582 18.832350 -5.852751 
-10.864091 28.455641 -6.802426 
-15.758855 17.139933 2.376145 
-31.844326 -6.665298 11.450457 
23.587843 12.451425 6.808168 
3.936920 19.793682 12.374102 
-9.735927 20.080254 7.195439 
-22.409294 6.802326 1.995944 
-20.820826 -6.167442 2.695640 
9.081301 28.665035 10.513488 
-22.755058 3.093244 -1.826282 
22.463356 9.052359 -3.903816 
26.383211 -13.038003 3.943623 
-27.573610 8.712867 8.051161 
8.306845 23.467218 11.448012 
-25.488611 5.756071 -3.680826 
-19.430994 -4.372908 5.222714 
26.128517 -3.024012 11.332444 
6.518510 28.338905 1.604114 
10.376589 25.951908 -3.560053 
27.838615 4.825548 -1.516997 
6.439828 17.224882 15.351923 
-23.231733 -4.770755 -0.853225 
26.547695 2.949147 8.331367 
26.150276 -7.720662 3.916473 
-11.320235 12.848032 14.409928 
20.074184 19.115913 14.478006 
21.983318 -7.447738 3.086700 
-22.586432 15.643231 9.626429 
-21.649357 -11.621224 3.292401 
13.208811 13.186630 12.679667 
15.549000 24.448442 14.361165 
-22.816355 2.379919 2.022797 
32.502186 -10.582962 2.965211 
-29.352505 -2.206313 7.223568 
25.114710 -7.347544 6.046127 
-9.683608 25.310377 3.866227 
11.439254 23.594128 -0.907820 
20.513918 12.708884 -1.894443 
19.046072 -0.159865 -2.538087 
-27.547989 9.983204 -2.656986 
22.108904 13.679621 -0.886834 
3.433456 31.861961 7.752510 
-13.539659 22.145243 1.738070 
-24.523569 5.041238 3.344250 
26.539434 -2.552353 2.153537 
-7.802466 26.534279 18.605776 
20.311752 15.395737 2.875129 
4.057904 27.486805 1.959381 
-18.806347 -4.606543 -8.714154 
9.727649 26.255098 18.255499 
31.302065 -6.283568 11.950176 
-21.586262 3.519766 9.712968 
-26.618187 9.301774 14.881719 
1.937343 27.576950 -4.632771 
-24.676331 -13.194591 3.140221 
8.284568 28.106609 -8.699041 
2.174686 30.539490 -3.514329 
27.544991 -4.754067 -0.888279 
1.132214 26.542265 3.511066 
29.674812 -6.898799 1.567672 
-21.003904 17.322765 8.616068 
20.903477 18.242308 -1.420172 
18.439716 -4.027806 10.068933 
23.244108 -14.016366 7.743809 
0.173961 25.074026 10.593863 
-2.497001 30.808771 3.227761 
-18.904572 -0.526516 0.230785 
11.616673 26.628481 3.017739 
-13.136889 9.529581 17.034307 
-25.742985 9.843773 9.480806 
27.039185 -8.144524 11.888966 
-20.887548 7.078118 3.148857 
-24.908018 -8.778723 -2.523452 
8.652349 26.876146 -4.846577 
-8.508816 27.415197 11.685137 
27.979692 -13.293271 0.386853 
30.305840 5.185560 -4.181915 
21.549217 17.161409 -3.837847 
-25.327410 9.166303 10.917902 
-11.707745 21.868559 7.876743 
-15.082724 20.470167 10.240970 
7.946122 22.838999 -0.525346 
17.852198 14.843582 8.081970 
19.163454 -1.820775 -0.990885 
20.901402 -4.284920 9.903714 
19.086166 12.929468 4.980048 
-17.071522 17.428463 3.609639 
20.517447 18.458239 10.915171 
18.195057 -3.218133 -4.203335 
8.198018 28.919323 -3.512909 
29.291553 2.213164 7.991466 
-11.997690 12.287479 12.107525 
27.841732 -9.851441 5.788983 
30.746248 -8.277192 4.202875 
20.837902 14.077963 -2.246116 
-20.478128 6.203708 2.296736 
18.394701 9.140587 9.069988 
-7.807455 28.808954 5.053480 
17.942644 10.174387 0.084499 
-22.019798 -9.434981 7.260329 
-31.428829 -3.364297 -1.267167 
26.100733 9.843539 9.686040 
-18.267714 -2.576776 6.882824 
28.521627 -5.200577 6.950592 
32.148769 -5.837922 1.372107 
-11.877923 26.745062 -11.241099 
-21.975842 -11.850539 -0.701684 
7.436454 21.833311 -2.840393 
28.068514 9.178268 -4.020457 
7.505496 24.136639 10.670537 
20.381281 23.977894 9.129634 
-25.594463 8.666645 4.448436 
11.457509 26.185987 11.009501 
-24.743073 0.288180 11.067256 
25.239353 3.884001 4.429442 
-21.862467 -1.952101 -0.859522 
-29.475599 5.661051 -9.562223 
1.244417 27.258301 -0.641274 
11.544462 26.024931 -11.145695 
18.564705 21.291264 14.409763 
-29.770067 -11.258713 -0.201849 
-14.023258 21.070805 1.497830 
32.448437 -9.565016 2.876621 
3.385980 24.806805 -0.325936 
-16.001854 10.529993 -3.520890 
-6.208625 21.197342 9.296460 
-6.366129 28.119671 13.499457 
15.336182 14.881527 -3.969908 
-30.491550 -8.501216 3.884777 
2.028349 23.250706 -2.070940 
29.345442 -3.875733 6.880520 
24.470615 -11.750168 4.837922 
-19.729811 15.385564 10.299445 
14.432204 19.111589 12.556177 
-21.197601 13.087244 -3.913857 
29.167810 -15.874771 8.834608 
-0.802532 29.570570 15.802722 
-29.629839 2.830212 18.339399 
-14.491491 20.815512 -1.054890 
5.756595 23.295176 7.835971 
-3.157376 30.512568 -2.737191 
1.894794 24.707499 7.793856 
-22.828991 -10.776665 8.709003 
-32.848099 -7.700871 9.601087 
-15.169625 15.432237 -3.522844 
6.432287 26.271990 10.995204 
-19.947498 9.168549 7.716287 
27.692945 -2.743672 -1.988774 
-28.624043 3.020505 0.992696 
33.382797 -9.363503 14.075401 
-12.885365 17.544249 9.745200 
-16.803009 24.054287 2.759724 
-21.761557 -2.036218 -3.230697 
6.771520 22.239174 -1.993052 
18.476978 -10.589209 -6.469332 
4.573616 29.511345 12.982752 
-15.972610 18.132013 11.826998 
10.613248 17.983149 8.370605 
-8.438936 23.671640 12.813308 
15.942706 14.321342 4.216891 
-16.591530 14.178678 10.114568 
-7.326324 20.749836 -3.403949 
-26.659603 6.635361 1.867830 
24.711685 11.171545 8.259436 
-0.811566 30.146305 -6.813322 
14.173284 12.227953 6.973227 
25.462017 10.153394 -3.164246 
21.535641 -11.882100 0.938740 
27.483257 10.706198 -7.021933 
1.671782 24.504377 -1.824054 
28.674168 -1.542613 -0.033122 
-15.575965 11.392222 10.059034 
27.235645 1.869565 -3.114889 
18.057306 10.305537 0.897445 
-5.236338 27.499928 -1.111954 
22.011839 1.274490 1.924202 
-18.843176 10.758560 1.655359 
25.402292 11.579134 6.457445 
17.017334 20.205072 7.756452 
24.124798 15.337282 14.995167 
6.828746 24.291445 -4.137556 
-10.845470 13.898040 13.341858 
19.496944 11.107566 3.115421 
30.255863 -14.710082 9.343621 
-26.515369 1.320944 10.758532 
11.041686 23.932732 -3.104620 
-15.369807 14.210886 4.168327 
20.519159 13.426034 1.115149 
19.490240 13.153045 11.483357 
-29.941109 -6.180710 6.860207 
15.276117 16.535908 -2.482268 
7.322492 28.427074 -3.056827 
26.402472 3.795559 -3.207989 
-25.798935 10.673099 6.883997 
28.922401 -0.738854 4.385588 
22.609692 3.319010 8.678031 
-26.169590 -14.864490 3.946127 
18.528116 0.321035 0.061889 
-1.930629 29.918882 -7.646639 
-18.569233 4.493713 7.670873 
-23.941992 6.650794 2.725859 
27.544945 10.881139 -4.801791 
31.139427 -14.023579 10.641789 
-16.321089 14.012284 1.106036 
-19.285192 15.264128 3.296278 
17.413406 24.521374 8.009117 
15.844357 18.460445 -1.451642 
-20.023991 -13.042747 -0.315351 
23.785408 14.357122 7.571228 
-5.126206 24.039387 9.556927 
-30.537535 -10.916727 0.389890 
22.145239 16.916740 6.083818 
26.226782 13.174136 -4.073776 
20.358780 24.002792 7.580514 
2.440309 26.593906 -1.707858 
22.748978 4.942535 9.763751 
-24.575125 -13.701887 10.576850 
4.886577 29.552622 -6.682172 
-30.340664 4.245543 -5.567331 
-6.715593 31.504009 5.972133 
-11.519511 19.736101 -0.668032 
-24.487707 -4.342296 4.994328 
7.570155 27.761093 13.342321 
-9.696809 27.135860 -3.871465 
-25.114819 -10.478442 4.810511 
25.650173 -4.474364 3.074655 
21.941229 -8.051604 0.235208 
15.095832 13.703460 4.163985 
-0.126173 23.006943 9.613573 
16.464935 7.547094 -7.102181 
11.229774 24.024401 2.121664 
-10.870523 27.991184 3.582057 
-6.996807 17.366447 12.604252 
23.066313 12.492367 4.773359 
27.184418 -3.900403 4.453700 
23.722462 14.545804 8.760611 
-15.579967 5.683336 18.574364 
-29.246737 -0.437562 8.558305 
30.355654 0.935336 10.470679 
19.254744 -1.981895 9.449727 
7.564667 29.105873 -2.547160 
19.038094 14.772147 4.731470 
27.884672 -15.100595 8.580313 
-18.187937 16.763905 10.335151 
-12.270707 16.563786 7.970913 
7.923509 19.225149 9.745893 
29.752823 6.801664 -6.075782 
-9.973134 21.756903 6.706436 
-26.429136 1.645267 8.769215 
-22.923828 15.809665 10.738686 
-2.231928 24.550983 8.239119 
-17.660915 -3.937991 10.299212 
-9.385258 25.932810 -1.495856 
-23.072008 13.042979 8.638272 
15.415024 25.386814 -2.011960 
18.884129 21.255733 15.636575 
-24.847183 -16.285349 11.749078 
-21.450377 4.397552 10.184454 
-22.386196 -13.051246 0.394459 
13.165260 25.223372 6.261664 
-22.238693 10.026307 8.521670 
-25.638186 -4.289671 8.400589 
-17.510403 15.925063 7.238268 
-5.762236 23.745157 -0.895698 
29.453495 3.857730 -1.376398 
-17.236132 8.281341 5.091040 
-19.503347 5.658597 -1.106669 
-25.890753 -6.935983 9.832338 
-23.130257 11.439528 5.114694 
-12.438124 19.001865 -1.332223 
-19.574100 20.696447 10.391980 
20.844364 1.717178 -2.113111 
17.939699 21.645420 0.219895 
22.025320 17.995636 -0.184380 
0.947150 28.932478 -3.017572 
-10.499227 28.496075 0.823221 
17.859741 19.291895 -3.785878 
8.786301 25.373245 8.095247 
28.577061 8.398962 -4.789911 
-12.855366 26.955608 -1.671702 
2.738370 31.150995 4.933064 
-21.534794 16.542572 1.447768 
17.215391 23.383472 7.736448 
-32.825359 -3.480161 -6.766062 
-26.604509 -14.132917 5.801670 
10.039994 25.247129 -4.285515 
29.424921 -9.704737 5.636837 
4.206351 28.489681 3.794432 
-29.040382 -0.490656 6.495050 
16.599504 18.034309 12.953795 
-5.957813 32.280041 7.359508 
20.471846 11.435316 2.450964 
32.300636 -8.426096 1.152846 
-14.708717 25.604864 4.542840 
-13.606200 24.243105 6.841345 
-29.357197 -2.456773 10.382802 
-19.916311 20.192587 -3.390452 
26.784954 3.600388 10.035514 
-29.863319 1.441641 10.814508 
16.209932 9.918474 -3.579802 
-20.626598 -6.824129 0.319233 
29.773209 -14.752686 10.063409 
14.277987 25.857914 -0.994570 
13.273691 11.429153 10.505436 
14.684365 11.750972 -6.537307 
14.386537 13.509964 7.394421 
-19.402012 4.149981 6.236095 
-28.848173 -16.243200 2.286719 
24.013742 1.331262 11.009940 
-13.215495 24.145004 9.562016 
17.043806 24.789774 12.769463 
13.037128 12.137606 13.250355 
29.213776 -3.742296 5.929571 
24.484703 3.845653 -3.818540 
30.855080 -5.615393 6.599354 
27.702215 -15.548170 4.081636 
-17.048740 7.070929 -4.429420 
-20.459480 0.331816 3.964170 
30.077160 -16.567301 3.334754 
17.896351 13.187228 1.168212 
2.548891 22.141489 -4.064192 
23.615730 -4.549850 1.874691 
-3.283736 27.810629 8.265982 
9.283921 27.698549 -4.269054 
-13.156930 22.001047 -4.886022 
20.726612 5.429108 9.443122 
-25.092503 -3.657057 11.272817 
-10.723694 23.341648 6.110567 
9.752046 28.182112 -6.699855 
11.694664 26.595501 -9.505860 
27.628620 -5.687108 -1.268222 
8.960751 26.066540 -4.766762 
22.810848 17.662769 13.644965 
-20.635212 1.324353 -4.141092 
-26.639273 8.424323 -0.563468 
-6.946362 19.432119 8.761640 
27.596687 -17.221800 16.727552 
-21.610466 -5.949866 7.375136 
3.515838 18.083279 17.346424 
-8.228650 30.310961 8.637627 
-32.111679 -3.999459 13.415657 
33.757813 0.821704 -7.230512 
-24.629906 13.945965 -2.484001 
29.040365 2.985438 -0.767298 
29.830313 -12.510050 1.301800 
22.534224 -12.709970 7.237574 
-33.193848 -8.326143 17.433647 
-23.857233 2.402658 2.414745 
22.642134 3.545128 -4.098766 
21.195038 -9.605601 7.774569 
-25.350971 11.905570 2.289964 
-26.853998 6.953760 0.607480 
-11.870586 26.558578 6.075150 
-24.878635 8.314173 -1.181160 
-3.854757 29.988705 5.107354 
24.624454 13.611381 17.508429 
-0.142958 23.312389 -2.381251 
17.603119 24.325426 13.493625 
28.931257 -11.633003 -0.800465 
-22.979189 -12.896289 7.761340 
-9.280527 24.018080 -0.739228 
23.049339 6.299393 3.415946 
1.883735 30.073217 -2.669402 
-23.713476 -1.572601 11.259429 
-27.976740 -5.093698 1.354793 
-24.686749 15.252274 -2.473849 
18.307814 -11.611679 -8.088282 
19.880426 0.304978 -3.981732 
10.868614 26.093479 16.801786 
-35.615456 -8.851481 -8.397158 
14.508282 12.138929 9.117661 
-0.225124 27.679899 14.026007 
20.097456 3.928998 6.331750 
-6.131086 23.992283 4.970919 
-14.572785 26.837046 -1.211898 
31.018261 -15.475165 12.256992 
-18.647171 0.718902 -1.355890 
16.478657 12.962250 2.929783 
-16.567430 8.558731 -4.967533 
-21.378294 -11.570548 2.392658 
-5.520977 25.971090 -0.002175 
-32.791821 -14.155010 14.442222 
-29.103178 -6.285513 10.880618 
-2.577849 25.398731 0.046632 
27.772011 -11.971786 -1.124055 
-18.753012 -4.636074 6.719890 
-27.131319 -5.795127 9.419436 
-14.864434 24.799023 5.080928 
33.226315 -7.937084 13.201203 
-7.820877 28.159441 7.506851 
6.331528 31.625584 4.525910 
14.465961 21.870033 7.334404 
-30.138124 -7.464530 3.536382 
25.308393 5.085812 4.817710 
17.602659 -2.035766 -6.558109 
31.344280 -5.631866 0.804092 
24.246984 -10.809137 1.565939 
-17.258085 13.152246 0.492937 
8.805381 22.303181 -2.818099 
-25.881712 -6.389149 4.756888 
0.930184 27.076931 10.645708 
-4.068084 23.451740 11.013680 
20.260950 10.590510 5.591909 
-6.723935 32.145924 6.739990 
23.990591 1.494894 2.722592 
18.083395 2.193459 -2.839178 
-14.336107 11.592769 9.550979 
-32.965260 -13.980987 15.603471 
17.763329 22.630709 0.311491 
27.122036 4.186217 4.993399 
-17.105103 13.710445 1.322509 
14.169117 25.028639 14.367241 
20.738705 11.562995 5.028420 
13.189847 10.975559 15.530704 
11.813297 19.296152 -1.279126 
26.135370 11.067956 -2.767928 
2.646698 29.812155 3.186737 
-31.294468 -11.407753 1.462246 
19.848932 -7.208024 10.392795 
-2.248487 25.717260 8.871715 
-27.752840 -4.456041 3.682032 
31.706638 -14.651500 11.625202 
-22.643095 -7.519679 4.605789 
4.364683 29.909679 -5.890814 
6.839621 20.725655 -3.745158 
-17.030201 15.682675 8.008229 
25.500881 4.409558 6.753932 
1.197926 26.355282 -0.186560 
-27.716581 5.339802 1.678055 
-28.163488 -7.653354 -1.656706 
27.036818 6.667642 9.335451 
2.261831 28.128025 18.855942 
-27.490774 -14.087477 6.034093 
15.579901 24.080681 -10.981913 
22.113258 9.679066 3.021066 
-2.325189 27.448116 7.658134 
-15.772579 13.664915 9.953012 
31.919538 -9.318086 3.718366 
-18.473104 22.928364 5.532958 
19.521534 11.203208 -0.630339 
2.965333 31.614300 8.994011 
21.076370 19.400599 11.242788 
22.038197 -8.298605 3.145703 
22.111401 9.862219 9.608094 
18.451429 7.100926 -1.497961 
-29.160429 -11.793313 -0.449476 
13.759905 9.972615 11.228285 
20.671652 13.229712 4.618343 
25.453398 -0.438814 9.245101 
22.037586 17.597733 17.777748 
-13.507847 18.618105 -0.249297 
-6.559876 23.190744 5.391509 
22.386856 5.827365 2.064226 
-17.325241 11.698700 3.003555 
20.145542 6.522067 0.280720 
-7.832371 19.543602 8.415809 
-20.780479 13.888673 -1.792607 
-7.474650 27.919615 -4.864184 
21.069090 0.082588 -2.182339 
-16.281580 14.227439 4.049158 
-5.560333 29.804604 -6.340741 
-20.895756 9.272107 4.899364 
-25.932137 -10.543757 4.459565 
17.393633 18.348322 -4.102074 
-27.347855 10.392663 -9.941877 
-18.889635 18.338873 -4.382098 
-33.168449 -10.062349 10.997975 
-20.187246 -8.090995 13.239773 
11.100903 26.004007 5.246604 
9.101398 22.300968 8.508790 
18.219282 19.513046 2.290218 
25.068604 2.622796 7.782326 
29.447466 -10.130394 -1.021471 
4.662225 21.901590 8.880850 
21.680607 -11.192163 17.215094 
-29.009836 4.261365 12.312692 
-12.897274 27.685665 -5.389361 
-26.022734 -13.028830 11.797573 
-11.500122 19.371260 -1.462472 
30.363274 0.052808 18.129330 
22.489120 -13.171715 15.283991 
-16.930840 19.730080 -3.953084 
-20.812296 9.429696 6.797823 
18.556187 -4.019490 11.936619 
24.149529 -13.199168 5.979094 
-32.598030 -13.860289 10.414667 
25.334221 1.221269 -3.944783 
8.742963 19.115164 10.141228 
2.807707 24.351126 8.046808 
-4.403124 30.519325 11.999441 
23.911547 -9.552608 10.112623 
15.103745 24.028469 4.259644 
28.963398 2.593746 6.113131 
26.266689 -4.462779 3.633988 
7.518027 27.816774 4.295577 
26.919331 5.683145 8.489004 
19.872768 -16.495649 -5.904662 
7.903693 20.626028 7.150320 
-3.978646 29.215160 4.806327 
21.415604 5.625243 3.055123 
14.108780 9.838918 16.963020 
-17.082230 22.743603 3.093523 
8.544749 26.121742 5.999661 
-26.971321 2.965617 9.471845 
-14.445168 24.089798 16.519270 
26.010654 -12.763651 11.465551 
-26.675446 5.934223 2.518233 
-15.375609 11.316198 -4.133637 
-0.839942 19.198812 15.718075 
5.041987 29.979668 -4.330949 
-21.896526 17.813385 14.019919 
26.756229 2.042786 3.804778 
24.724398 -0.221757 5.090943 
27.414343 7.503717 18.732899 
20.213097 6.890495 2.817061 
14.138022 18.119732 8.560057 
19.396252 -2.587751 0.381792 
38.737625 -23.588617 -7.086376 
7.323263 20.943651 10.024268 
18.992506 -4.002484 14.490886 
4.601530 22.776350 -1.955067 
6.009485 26.548744 -4.081945 
25.237598 -6.914397 -1.941210 
-31.945705 -6.848781 1.150759 
-22.107384 -4.705461 3.481463 
22.589304 -7.540707 3.761010 
23.895369 7.852394 2.999311 
-22.353439 -16.219955 1.693140 
27.567966 -10.498744 12.503979 
-31.451773 -15.611751 11.999713 
23.220778 15.882425 -1.546030 
-16.454727 23.445898 14.278507 
31.905699 -10.934620 13.096829 
-29.990141 -9.375162 -0.479122 
28.615219 -8.813842 12.610106 
-21.660048 9.894225 1.635329 
-20.547592 21.201321 -7.659816 
-26.508514 3.974311 7.265237 
-20.416040 19.215677 10.567783 
5.710820 21.348967 -3.539896 
-25.691160 7.619528 0.215488 
22.231466 16.359482 3.889257 
-3.199052 24.719007 -2.878123 
14.757982 14.511896 7.016142 
28.521494 -11.857081 6.959637 
-24.049995 -9.892850 9.998558 
-32.588634 -8.389771 6.601707 
-12.252616 17.987844 9.438583 
-11.821689 15.118593 -8.456672 
-28.394363 -7.555939 4.572371 
-12.405750 23.544662 11.874615 
22.840967 -7.260765 -1.086551 
-23.513796 14.994246 11.779754 
11.041970 18.295300 9.113973 
12.921524 23.717005 -5.143457 
17.479132 0.247507 -5.842043 
1.610132 25.717695 -3.808257 
-10.589486 17.599304 8.222078 
8.435361 28.232513 2.027082 
22.614952 5.518011 -3.280815 
15.715392 18.324963 8.015928 
-11.692385 12.067133 19.093115 
5.741354 29.825163 5.653067 
19.449169 20.782013 -10.708754 
-21.843311 -3.404868 3.117378 
17.673512 23.320953 16.232189 
12.656569 25.437489 15.752595 
24.095953 -5.023312 3.350739 
27.646143 -6.051300 6.326126 
7.137939 18.160240 10.414915 
21.452497 -1.305926 -3.999916 
10.293744 19.114500 -2.528117 
-9.783043 25.776407 -3.874823 
21.181507 20.202848 12.651175 
-19.502022 16.871252 3.325053 
23.575411 6.249340 4.163860 
-3.265511 30.898918 1.067870 
-17.236755 15.313294 2.267590 
-9.020513 21.319351 -1.487133 
18.087229 10.684306 -0.886770 
28.723307 -6.909917 5.624519 
-21.842871 7.800222 3.385485 
21.732294 2.964154 5.870847 
-15.235800 10.806181 2.346247 
3.760530 24.052750 11.539246 
21.079700 8.735021 2.004319 
-21.764992 -12.207884 0.437033 
-31.425495 -11.826792 7.685502 
-23.426882 14.722439 1.156650 
-30.500448 -15.313727 11.356976 
21.354980 17.431250 7.279147 
16.559412 19.118792 13.953838 
27.580421 -10.337102 -1.741253 
-21.418957 -11.318727 0.229533 
20.174936 -8.105452 10.266780 
-31.782635 -16.031498 0.947017 
-28.787657 -6.283860 -0.956627 
-22.433714 -11.852118 15.086892 
-18.939579 5.578117 5.798954 
17.901318 13.624611 8.328634 
11.101895 27.245882 -8.227382 
27.818840 4.087203 6.740150 
-25.546547 10.250892 8.704028 
5.468191 29.210331 6.291419 
14.193052 24.487246 4.005078 
21.096813 9.740206 2.693229 
27.766998 -4.851079 9.214927 
29.148508 -12.662173 1.823737 
14.400098 12.963286 8.111315 
13.075677 25.718742 1.198895 
-17.256340 14.271440 1.953721 
-25.916412 -2.765025 11.367630 
16.257626 13.110204 -2.325758 
-18.723240 12.303707 -1.711534 
18.751581 -1.456748 16.233971 
-23.820143 -1.017767 5.182888 
31.282097 -4.652014 0.985474 
-20.800331 -15.041866 0.857137 
-4.575134 31.886503 5.210662 
-6.144818 30.021734 -5.006016 
-20.009207 13.967152 2.489457 
-31.525812 -13.123569 3.892850 
-18.999298 8.672450 0.560303 
24.991261 7.235717 1.117333 
-8.010919 22.911751 9.250855 
-11.266553 16.747448 -4.808452 
7.984238 22.439150 -3.383074 
19.622499 24.275309 10.814991 
19.338768 2.869128 2.008678 
-26.567533 -7.064990 1.288611 
18.617334 20.045097 11.941229 
-3.269014 24.860573 8.237632 
-22.173706 5.669040 2.009091 
20.272778 13.561139 11.528454 
-18.547394 -2.495872 5.855390 
20.791040 22.110664 12.299354 
-2.323656 28.869907 3.705064 
28.927874 8.273839 -7.797749 
-21.868086 2.880245 7.677268 
21.446293 11.121479 5.382726 
19.610018 15.443065 3.989181 
-2.183180 28.406836 7.323331 
19.397440 19.714569 7.156727 
-32.904625 -8.348570 1.314891 
