-18.853954 -3.803737 0.858216 
-22.817440 -7.382034 5.802102 
-10.483412 24.166700 1.917213 
14.113038 25.103619 13.016464 
-17.528452 23.572498 13.087202 
-20.748060 17.723557 0.461478 
-15.805284 18.853149 8.084348 
-25.951056 -0.009259 12.915273 
-24.037497 16.152020 6.724466 
-18.675760 4.488350 0.498752 
-15.602864 12.314816 0.731988 
-18.577328 -2.008996 18.457066 
7.070414 29.227690 5.921944 
24.737053 -17.261135 0.038738 
-19.337442 -4.969962 11.052351 
-18.046614 -0.931059 1.363210 
-16.142906 11.927306 7.585140 
-25.631481 -14.911156 2.679580 
20.028374 11.846092 10.768390 
-23.917740 -11.827683 5.567170 
-17.532843 23.829134 4.947969 
12.527155 25.764357 -3.698718 
-17.828711 -2.611174 -2.824762 
-28.213308 4.600074 9.980648 
26.166903 -4.806903 0.517941 
29.035906 2.370499 6.689355 
25.846245 -2.836684 3.246640 
8.452140 12.703216 19.464363 
13.130296 23.109243 11.928340 
-21.203936 -8.885660 9.145013 
-19.805132 -11.014980 16.288857 
-26.740126 4.538369 7.645026 
14.945322 22.986334 9.941820 
-28.380905 -16.494440 12.568385 
16.894192 21.527138 2.875513 
21.478497 14.084674 2.197825 
19.951365 -11.387976 -4.197143 
20.441130 17.292318 1.988192 
-9.032112 28.042540 -2.211260 
-28.076136 -11.019670 3.945261 
18.168413 -4.200444 -1.580984 
-9.688861 28.176029 -4.924442 
13.608688 19.270746 3.520646 
17.952553 16.357431 13.580524 
0.792207 28.083763 1.087258 
15.174534 10.685472 10.979908 
-29.990992 2.109992 11.008219 
20.580027 -2.722866 5.907883 
16.555033 1.954974 -4.170538 
21.019808 7.244974 0.540982 
19.549032 19.210703 3.355293 
11.533533 30.013943 3.361179 
-18.242895 0.458558 11.566919 
15.242542 17.720793 9.375766 
-19.390404 -3.822299 1.523998 
-20.564165 -14.319914 2.494376 
19.955074 18.989510 2.625818 
24.562414 14.697861 13.162517 
-22.953224 13.209391 -0.135173 
28.703863 -4.211793 7.907906 
-30.377798 -6.612035 -0.922459 
16.770390 13.140579 3.405109 
-22.934759 -15.787475 4.242957 
-26.912516 -15.540037 3.478344 
24.434477 -12.224615 7.056695 
16.001925 26.411022 10.181687 
24.544724 6.365154 6.078433 
-13.856163 13.836781 -0.338745 
17.917953 -3.165160 -3.820292 
-13.051089 25.562464 16.866255 
-15.300467 26.618504 3.350189 
-29.017496 -14.230580 14.612593 
20.011295 15.075957 5.071807 
-13.838311 25.665207 -4.136734 
22.632181 -14.542362 4.591133 
22.836964 10.497353 -2.002853 
31.266897 -10.972895 8.383976 
19.446531 11.419893 12.182028 
-17.868256 0.973026 20.359711 
-10.835629 25.639711 0.134155 
-22.161882 -3.154535 12.508781 
15.723003 23.110340 -3.203304 
-23.450483 2.149945 4.654770 
-22.187208 -8.014698 11.964139 
-19.561110 15.371785 1.981764 
11.346447 27.454145 -5.517998 
-17.681030 2.205746 13.087705 
-9.733256 24.761440 -0.851489 
15.598562 8.721408 0.348140 
-24.016911 16.510225 10.953270 
-18.248890 8.610624 0.302596 
20.864674 11.421884 5.504737 
-1.624527 28.335531 -0.655339 
-16.571333 8.788026 4.083127 
12.835040 16.404999 2.198217 
-28.914762 -9.719718 0.567408 
-23.304695 1.309713 4.327109 
-23.693630 3.984768 7.798519 
-22.884104 13.413353 -5.206849 
-20.344002 2.377527 8.645073 
-18.008467 12.094427 5.614352 
17.399740 -1.862854 -1.616086 
16.572594 1.497447 -1.685975 
26.872967 2.881292 2.574379 
-17.557175 -0.360388 -4.964619 
-23.517309 12.369302 9.226075 
-18.509363 -6.001161 -3.225373 
18.925583 25.113199 12.167938 
26.317793 -13.073340 4.528428 
28.433144 -11.892693 7.108057 
-26.060658 -4.574440 6.519809 
28.377748 7.663103 12.020643 
13.532025 24.101408 11.341232 
-4.613214 21.705198 -4.520056 
-19.296360 6.081555 2.442513 
6.429955 24.625694 -2.397369 
23.405937 -14.646851 10.234691 
18.447893 -1.064509 -2.489418 
20.416510 11.219273 10.332864 
-29.934162 -2.392689 6.495153 
-14.181553 14.913491 -1.555339 
-28.926836 4.465840 18.222500 
22.395952 9.025047 0.510436 
18.277380 15.875701 6.875048 
-27.294451 -11.031482 -0.205692 
-23.520460 -6.313495 9.572890 
-25.012947 -3.460031 4.082615 
25.571880 7.425920 -4.860434 
-16.025616 22.581696 -0.820191 
-21.180380 -12.725307 11.837270 
18.299715 9.030003 4.324863 
26.728142 11.465662 16.368645 
-10.724315 16.981251 -3.814276 
-23.552568 16.345774 17.186670 
-3.155005 29.700554 -4.936426 
-31.743816 -6.418980 13.507792 
26.518435 5.672186 -4.823801 
-17.846275 18.105633 11.565937 
-3.632984 12.619140 21.202724 
-20.363966 -0.535028 4.881644 
25.959711 4.643121 -2.653108 
26.809671 -12.322969 9.216917 
-18.372490 20.638088 4.284738 
-18.461325 -2.657389 12.875819 
31.845432 -11.352507 11.014406 
8.589046 18.809029 -4.678937 
14.323428 25.737158 6.216744 
19.576305 5.180540 -0.848113 
25.452358 7.501782 -3.870460 
18.272202 16.895748 6.565923 
17.873734 15.346027 -2.963736 
30.133228 -12.609981 8.680517 
20.204094 -7.619461 10.371042 
-21.989902 15.877001 13.919719 
0.415046 31.015591 5.810318 
17.172615 -0.476660 -0.466141 
-22.324678 -2.805982 -2.597538 
-25.169167 -3.851746 12.764237 
23.432154 5.439916 9.303477 
16.951927 19.928328 18.344831 
-20.143610 -6.227760 3.249735 
11.985664 19.086115 0.863533 
-12.252470 24.673866 -1.573281 
-4.862985 28.439119 -0.101963 
25.510847 -0.358303 10.252246 
19.675131 2.422745 -3.245912 
18.450260 18.360109 -1.642799 
10.387330 10.585941 21.189100 
-19.460445 -9.919830 14.666876 
-14.287687 10.210857 -4.640041 
-30.211754 0.607420 8.550673 
24.018242 1.730118 4.946963 
8.322661 28.489494 -3.623569 
21.649370 4.590698 10.889529 
-20.467680 -11.099980 4.032475 
-20.138777 20.554987 0.287492 
22.663691 17.487282 8.704717 
23.777065 10.070750 -1.688018 
28.060690 -14.330639 5.272993 
25.916458 5.696816 9.438303 
26.411884 -0.046079 4.957503 
17.667160 17.477764 14.923898 
-20.257048 -3.931696 6.429699 
0.798944 22.908951 -3.064920 
-18.093451 11.835335 9.983229 
25.284296 -12.025806 6.000248 
-4.628391 27.678192 2.311105 
9.646270 25.453310 -2.440128 
18.271046 7.353686 11.813410 
22.032391 -4.110198 1.502034 
-31.906483 -11.494081 9.879601 
-25.191607 -1.348197 13.027369 
-16.420984 25.070986 2.600741 
20.396952 3.673463 4.369429 
28.557072 -13.042742 1.909374 
-29.583364 -12.334947 2.622114 
-14.885409 21.838398 0.288157 
-26.208160 -8.886925 14.123837 
-4.605845 27.131466 -2.420192 
9.728208 26.088953 2.357378 
7.003787 28.423334 -2.062981 
-28.055937 0.652169 1.702694 
-25.246195 0.234046 5.631728 
20.360912 -9.112251 1.476032 
-16.353174 12.134804 6.617808 
21.981855 -7.207767 12.199923 
29.713800 -8.432765 7.495248 
-24.779993 5.518427 -1.900320 
23.156500 6.716493 12.251584 
-18.542965 -5.837157 -1.142655 
22.452608 -5.642100 10.349069 
-27.687675 -5.027514 3.736547 
-24.384104 13.831190 7.277598 
-17.852848 2.280431 -0.385860 
-30.945732 -1.918747 11.926320 
-29.065081 -14.696333 13.910526 
-3.152734 23.406610 -1.152276 
16.894066 4.779453 0.171989 
-30.752657 -3.083611 18.252707 
18.243357 20.033970 10.103616 
11.274614 27.093405 -6.504799 
29.703756 -12.991987 9.201117 
-15.536852 18.008244 14.508888 
27.385078 3.825336 -5.612870 
-21.603224 17.685343 10.961689 
11.495459 29.235121 4.125558 
18.111658 -0.036811 20.587723 
-5.894553 29.410215 -4.168211 
24.525166 9.255442 -3.288092 
-16.338467 9.120899 11.103256 
-18.228676 16.897198 11.375116 
20.737291 -10.052768 19.983013 
28.716993 -2.523736 7.875508 
-11.333366 21.171867 -2.949823 
20.120302 17.898949 -1.315566 
27.601177 -14.049974 12.650186 
-22.010439 -15.894221 11.958221 
-23.925524 -15.668111 -3.546811 
19.670929 -8.390969 18.023981 
-28.305180 5.129591 10.727499 
25.713612 12.062344 6.990738 
13.855559 20.396364 -2.386406 
25.040060 8.360253 -3.935614 
28.835649 -13.998013 11.229303 
-16.914879 3.610297 13.961021 
22.364178 8.926553 4.378420 
-15.604967 12.400426 7.900233 
-20.471609 -9.565789 4.850602 
13.047894 8.988960 18.922022 
-5.430829 30.027794 4.656981 
-8.932969 26.832630 18.448423 
-21.544264 -8.349966 6.253714 
23.314020 -15.150457 11.031980 
18.126093 -2.513273 14.525495 
20.521847 11.783818 6.483694 
28.221460 -4.853806 4.427395 
-23.191517 16.439556 12.397759 
-29.428806 -3.293183 -1.228268 
-18.508715 10.394972 -2.786039 
-24.654593 -13.717396 0.015782 
-18.647038 8.337001 6.478387 
12.598680 15.294517 -0.245852 
11.925699 26.811975 -1.375114 
-16.324852 11.607630 2.494955 
21.113571 -9.858519 8.725537 
-5.716748 20.892300 -5.551843 
-3.082580 31.726398 4.557674 
27.161777 0.855189 3.606868 
-16.607733 11.120219 11.513174 
-22.071587 7.246055 3.710957 
17.260496 7.229269 3.552439 
6.434943 26.127638 0.603271 
-13.059621 23.898310 -2.029842 
-18.227173 16.005331 4.858099 
25.982025 -8.350163 -0.478147 
-24.839560 -2.718079 -2.292930 
-21.992281 14.664471 -6.291776 
8.838758 27.438807 -7.628843 
23.851921 -5.322563 7.125801 
-17.714626 14.822179 -0.674274 
20.429199 -7.491921 4.485981 
-32.027798 -13.273493 13.898169 
27.257984 -6.083748 2.440623 
22.402182 6.951396 5.818123 
-23.518251 1.521224 12.459103 
-18.491068 6.402225 2.183831 
20.229713 14.424566 2.168041 
-14.431829 17.559832 0.209631 
17.122971 2.391764 2.360865 
7.599754 23.342539 0.069513 
-18.770279 12.008921 5.852132 
-21.224337 8.734056 12.365355 
23.620207 11.983523 -5.523915 
-20.641510 -0.215716 3.980446 
-16.726755 21.511364 0.906516 
-20.337278 16.797741 11.337915 
23.470970 -2.821157 -2.243277 
-25.947609 0.029414 5.927083 
29.582520 -12.774021 14.218134 
9.107841 28.811569 -3.942176 
-19.736555 4.676868 4.976642 
23.240803 13.012369 -3.365942 
16.922222 0.220116 -3.329472 
26.327456 -10.152025 -0.345889 
15.380858 16.765331 6.964445 
3.281894 27.968269 3.081548 
15.854018 16.647871 10.162086 
-3.714943 25.948584 0.488087 
25.841105 1.144302 -2.889858 
18.082664 6.408202 11.094048 
-20.783657 -12.533574 5.147961 
-13.270108 7.705451 20.817659 
-28.025785 -5.378682 12.227098 
-20.335909 9.693036 9.991216 
-3.000643 29.167646 -3.831543 
-16.040154 20.418823 4.957276 
20.847757 19.082481 13.017108 
11.901271 26.290312 -7.543824 
-12.550551 24.077543 4.517349 
-16.299402 22.655254 0.294510 
25.382799 0.273542 5.452926 
-12.953383 17.593904 0.693045 
20.264282 -9.740159 10.114018 
31.102589 -5.046914 8.593560 
-22.730101 -0.281630 3.636400 
26.767630 10.551476 10.120301 
17.960230 6.607702 6.960305 
17.189903 13.342604 6.273817 
-16.270887 24.687010 -0.468165 
-15.111267 13.032314 8.453586 
-26.594492 9.589753 6.013232 
9.235837 29.152557 5.961829 
15.204267 23.989063 15.880467 
-17.857779 14.565779 0.627810 
29.460804 4.637740 18.769382 
-17.134142 10.346124 4.040539 
-29.696482 2.995395 16.534842 
4.648510 20.993633 -7.022789 
31.839632 -10.022427 1.637327 
6.775266 21.705879 -2.208089 
-24.694693 2.328525 -3.100460 
30.557402 -8.244081 7.587819 
-29.327744 -13.614502 2.756714 
27.953196 5.039850 8.540215 
-30.552950 -2.068490 18.394180 
-20.466024 -1.904435 -2.791976 
4.182312 28.190521 3.287132 
-25.990269 -5.881397 10.106165 
-23.944090 1.615903 -3.283754 
17.934931 8.632071 5.829556 
-15.743859 5.094850 18.723946 
21.205025 15.991112 13.831632 
-23.101799 -6.341937 10.736389 
18.617174 19.758661 21.828945 
-12.061170 27.787941 4.148544 
29.049236 -1.748200 7.250347 
28.032839 4.688064 10.154302 
16.905340 3.058649 18.428724 
28.005402 -5.163544 13.340655 
28.431154 4.847693 9.410171 
-17.548693 24.409506 9.790713 
-19.008886 18.466284 -3.376879 
19.155609 2.239697 4.617064 
-18.466309 -2.169852 2.268095 
16.327936 9.784231 -1.553418 
-29.403070 -13.162510 8.230451 
-28.230782 -12.888607 5.862334 
17.059521 14.637959 -1.330051 
18.661362 6.626726 -0.844716 
-18.095575 -0.475635 -0.382075 
29.844727 -1.653472 -5.134002 
-25.778080 12.147081 10.937331 
2.297427 25.260660 -0.403397 
11.633494 29.817310 2.248606 
-21.153000 18.588850 9.327382 
-10.696811 26.485201 0.562201 
31.717218 -7.669543 13.058594 
-27.713579 -10.991245 12.252335 
23.066271 9.476744 3.088862 
-20.164480 -3.620482 3.853720 
-23.455978 12.520521 10.173827 
20.930407 -11.190823 18.312086 
-23.008049 8.578450 1.152092 
-21.753481 -9.727020 -0.634939 
-11.592962 21.428818 10.329191 
-27.175657 4.677369 -0.998085 
-1.854385 24.795923 0.238946 
-23.716610 -4.103143 3.463340 
2.290845 25.375578 1.171286 
27.212801 4.916773 11.129961 
21.208370 14.411796 -0.210656 
19.410448 -7.443858 17.928793 
-23.082750 15.752222 4.140141 
-22.029839 -7.393949 10.261673 
-0.628195 30.089874 -0.415881 
23.033484 10.031525 1.263906 
-25.637396 6.090129 2.259161 
1.233078 29.533178 -2.254239 
13.634268 21.963140 10.707405 
17.136797 2.688593 1.650335 
15.206079 6.573549 -2.692139 
12.393231 20.049755 14.900099 
-20.235859 -3.237045 4.544344 
19.812267 -10.265589 14.055430 
-13.515525 23.592464 4.774070 
-1.315718 25.323324 -0.524168 
28.118460 -4.788257 3.651912 
29.650524 0.671968 9.364629 
16.864357 4.070822 13.708563 
-16.800980 17.113804 6.617859 
-20.209492 -3.934512 3.048557 
-19.219276 8.812573 4.812176 
-28.284914 -10.070184 14.667603 
28.965157 -6.496348 1.097984 
-32.641121 -8.527235 14.307648 
16.675005 9.665940 -2.371713 
-19.499374 17.426216 10.377273 
21.706285 -3.678076 12.140466 
30.047649 -5.452319 6.753173 
15.829125 19.667095 5.002812 
-28.571131 1.268870 -2.379537 
-18.494741 5.637444 5.548495 
20.568321 1.163672 10.285108 
-21.826185 13.236639 4.323654 
25.107908 4.088274 5.032129 
22.502037 13.808375 7.587568 
24.443825 -5.699073 4.877012 
-0.895044 29.412407 -2.252548 
25.715328 -13.111327 14.170667 
-19.509871 -0.768015 6.428514 
-26.202209 -15.898685 0.163959 
-18.675779 20.832779 19.077383 
-19.015062 0.410281 9.248568 
5.177593 31.241224 4.522947 
-14.132969 11.860211 -2.268715 
17.806143 9.561689 7.584434 
29.133692 5.569592 11.362139 
-10.556680 16.697121 -5.092868 
17.730366 12.827985 4.289498 
22.951511 -13.002654 9.451731 
25.008526 6.248442 0.369628 
15.548011 20.421383 -0.028401 
19.387846 -2.909224 8.387349 
-28.900692 -5.514895 12.367307 
26.909550 -0.511046 4.503555 
-16.901979 18.113354 14.075993 
-15.553459 14.207333 5.918257 
27.185175 -2.635444 1.445958 
26.174019 -16.578962 1.796540 
17.975466 1.001241 -2.736540 
-9.513031 24.173128 0.532739 
22.478962 -6.881569 -0.221638 
18.101929 -1.526310 17.413416 
-24.142004 16.289438 7.727972 
-26.815113 -11.406463 8.562616 
17.718168 7.526700 0.536967 
20.276833 -3.859808 6.445369 
15.809802 7.830809 12.762471 
2.557503 14.172847 19.055614 
-24.757364 9.768929 9.520170 
-21.135952 10.759414 5.890589 
27.247532 -8.143297 7.973943 
-11.066914 10.539825 18.619709 
24.379076 -12.377205 13.906728 
-19.823406 0.375547 3.857333 
-31.474993 -5.916634 16.563139 
18.506542 22.927961 16.254608 
-21.940351 -5.614291 0.689412 
-23.814665 11.087757 4.753541 
31.563486 -5.038391 10.269284 
-19.708332 12.296015 -2.673290 
-4.635746 31.798296 4.006591 
22.036144 -10.450472 5.618801 
13.231550 17.779757 13.433199 
-27.419785 -9.400115 11.791799 
-19.558350 3.190006 4.999537 
14.173180 16.179586 10.051715 
-29.979753 -2.945365 7.182660 
-18.928259 -2.363921 4.328848 
25.479088 -4.299966 1.558002 
29.889362 -3.696369 -0.337301 
-18.779463 21.056274 11.943789 
14.574868 17.052277 9.638738 
-26.060953 -5.608209 9.345837 
-19.643827 16.181082 6.736609 
-20.236855 -3.111656 11.877193 
14.055876 18.903179 16.971312 
25.458921 -3.462111 2.393538 
-29.217155 -7.542377 6.729007 
17.936005 24.811693 14.784929 
-32.060242 -8.113465 12.773980 
12.806238 21.795683 13.786847 
12.276390 16.531406 13.647009 
-15.077649 14.135279 7.120098 
14.888249 15.307798 -3.306834 
-29.950066 -1.273198 20.121571 
19.189938 23.474840 14.651720 
16.106045 22.921911 3.344868 
-13.700091 18.343317 3.683428 
-23.012554 3.580242 10.433929 
23.732485 16.027672 15.096363 
17.457563 12.035594 -1.244458 
-25.605686 -2.058180 13.009075 
-1.062865 28.626282 0.032337 
31.169455 -12.724599 10.380606 
-16.034035 22.866434 15.563123 
-17.538363 11.031386 3.869544 
27.584122 4.573592 11.708553 
-22.553501 3.358116 6.025664 
-27.587084 -15.559368 12.589493 
-18.583948 17.803913 7.260711 
16.180235 11.792892 8.371737 
18.968037 16.226652 -0.188826 
-26.643162 -8.582731 7.219754 
-17.698603 1.087319 18.098303 
-17.025105 14.844490 -2.114443 
-21.167557 -2.640631 5.324718 
16.381435 13.130335 6.264886 
19.864250 -4.011784 8.476257 
23.610544 -5.235418 9.396612 
-0.747732 27.430655 2.603994 
30.319101 -10.641487 4.741528 
-26.155907 2.310073 4.445503 
7.570312 26.065527 2.126202 
12.738027 27.256130 2.399010 
-18.303215 -0.148549 10.918796 
19.909166 19.781700 1.199371 
26.279255 7.978044 9.350901 
-16.059359 16.752914 6.654737 
-23.313417 -17.140368 12.698796 
15.569897 20.442181 13.598595 
-25.236326 -9.837695 14.166481 
23.709669 16.065250 12.826458 
-20.774525 -0.983298 -3.075692 
22.746948 8.998744 3.616224 
28.280487 -12.829173 9.851143 
-27.884827 5.855020 20.583765 
20.483751 11.957557 11.604033 
-25.708103 6.598222 -1.775024 
-22.279301 -7.968132 6.108226 
-23.406464 5.013962 8.990779 
22.656775 -12.393861 3.343440 
-19.130302 20.153761 4.134923 
27.358477 3.836189 -1.016152 
23.023724 -5.025523 0.886687 
25.151814 -2.758132 -1.284102 
-14.857261 17.901350 9.048403 
21.734150 16.130573 21.627426 
-18.579901 14.861833 4.303502 
-15.075053 15.452711 7.888267 
-25.529116 4.371544 5.542798 
19.963280 -3.039332 11.112942 
-21.103397 -5.581793 5.719233 
24.580896 -10.098177 4.751812 
-25.058331 -9.983367 11.099188 
-4.126023 22.459970 -2.949345 
-31.108868 -13.792879 12.327768 
-3.127981 27.992411 -0.776928 
31.082109 -6.959449 1.788079 
-19.687740 -3.114724 11.144765 
15.012951 7.023115 17.067331 
15.894348 24.962498 -1.979178 
9.938582 26.915985 -2.513091 
16.145184 23.878323 9.090721 
-20.603123 2.042534 11.475379 
-4.304697 31.723785 6.462066 
17.276186 13.952353 2.510466 
21.567327 18.242718 17.241846 
16.725285 23.969383 16.686228 
-24.613491 -6.493480 7.088821 
21.472441 -12.961807 16.558140 
20.059574 19.689871 0.413236 
13.592834 22.872988 14.692846 
-10.816896 22.090322 1.219647 
-16.802534 2.309229 -4.052133 
16.467051 15.815230 4.678565 
-21.372280 -9.782812 12.157785 
-27.127651 -15.802184 11.908338 
10.694498 18.868795 -0.746055 
17.786291 -2.012793 -5.028893 
-21.848198 15.690753 -4.171775 
-16.090511 23.940937 -2.235830 
20.474943 13.134301 -1.989653 
19.122389 3.514975 -3.027967 
28.861509 -10.244918 14.836381 
12.832824 27.071287 3.915919 
-26.120029 -0.957611 4.730894 
-23.063868 -14.454259 9.004410 
19.768709 -10.222893 13.015612 
20.354389 1.290920 12.193127 
23.955217 11.188213 -3.883910 
19.447052 -2.505741 9.303741 
-9.116247 22.162237 -1.923423 
-29.988594 1.275418 10.894835 
-22.244600 16.133984 21.271795 
-17.415474 16.583790 11.173127 
1.576388 21.948828 -7.090332 
15.100704 21.233095 -1.177128 
5.473489 29.889132 -3.436382 
-11.850849 21.193090 -0.581169 
21.715942 17.220879 13.022600 
20.285555 0.842381 3.422978 
31.976435 -10.057950 0.725212 
20.145426 -4.244761 9.527384 
-10.293084 25.010305 -2.701215 
19.214800 19.503508 -2.596272 
19.911554 -12.443702 -0.667497 
16.693468 17.665762 10.264297 
-21.403372 11.188766 6.695236 
-14.670645 23.232637 20.556654 
-27.786633 -6.002608 5.883947 
8.988110 29.434448 -1.474803 
26.534174 -6.770739 6.826723 
-21.102610 4.347833 4.061598 
-22.563948 -5.063128 4.380270 
19.422560 9.721045 11.589271 
-23.716595 -8.091831 7.254038 
-18.006918 20.744610 -2.428057 
19.555483 22.593012 14.803271 
27.687647 -14.164318 11.766759 
-18.183018 19.974724 13.895412 
14.697010 14.392220 6.203949 
-0.820578 31.250134 4.251377 
22.069769 3.230704 -3.454853 
30.380527 -12.679087 4.298164 
12.253013 25.261623 6.856491 
1.669437 31.215126 1.706188 
-25.390032 12.769453 18.864115 
20.004370 19.772646 -4.563176 
-26.080669 -3.361227 10.362629 
4.501498 26.206039 1.056806 
25.941370 10.615740 21.316814 
-2.274397 28.791815 -3.941682 
-23.889898 -3.079089 1.326400 
-20.681801 -6.837845 10.275338 
29.754696 -13.672325 11.719998 
28.916641 6.280511 11.930367 
19.749233 16.052963 14.067632 
18.545639 -3.647851 12.220534 
-29.236912 3.306368 5.684378 
-1.757689 26.425331 2.037612 
-14.773892 22.137955 -3.445191 
15.305499 17.361765 10.179548 
21.625729 4.848084 7.310832 
-27.759375 -15.035048 10.399686 
14.874989 7.350202 -4.776518 
6.757090 25.098383 1.083864 
-15.958878 14.787259 0.504844 
20.973597 0.359573 -3.320401 
-17.022499 17.666752 12.072106 
18.523344 19.286188 7.692799 
31.679649 -8.162024 13.645472 
-25.755156 8.898726 11.943027 
-14.172907 11.041389 -3.348116 
-31.164616 -12.968577 8.455908 
-11.718820 19.206825 10.229124 
20.277330 16.459120 1.871606 
-28.921211 3.912026 10.651665 
31.579784 -4.200754 18.510653 
-27.717672 4.618337 9.326847 
16.419481 12.154786 13.084566 
-23.086725 9.731224 12.379819 
0.821407 27.757893 -3.057786 
4.788490 31.139118 5.920298 
-14.016376 18.149323 10.685442 
-22.102402 4.582817 9.214662 
11.648900 14.288069 -6.460764 
-28.119905 8.444752 13.183095 
25.747353 -13.226395 0.988528 
-21.988323 12.153428 -2.508381 
22.135590 18.064901 8.416178 
-27.566727 3.312412 -4.476127 
27.045050 -10.106383 14.727383 
16.711885 17.232317 14.172070 
15.959779 12.730743 6.777715 
19.294626 -4.432080 20.322605 
-16.945227 20.247149 -3.155179 
-4.680723 28.920538 3.307560 
-20.818340 17.777843 -4.751395 
-17.157541 15.845469 12.177989 
14.204817 9.751847 13.889639 
-19.187346 19.655003 -3.201542 
-19.757067 -10.005177 2.222613 
8.479421 17.703163 13.984317 
8.184031 30.006735 5.047641 
-19.347775 20.286797 3.407380 
-15.470405 12.184669 11.466608 
9.435912 24.745268 1.593970 
-20.106779 10.870038 11.288576 
-22.866222 17.689508 6.725308 
-13.007731 25.662771 -4.053238 
-22.261417 18.437107 7.439744 
6.991766 29.955786 2.291787 
-29.330889 -2.959313 11.582379 
-19.002707 -4.893045 16.584497 
-19.126520 11.359309 9.368284 
-21.392246 9.504817 4.161633 
20.140678 18.837152 -0.860788 
14.336743 16.976984 7.878099 
5.265772 29.348883 5.331714 
-12.735000 20.528093 14.684544 
-17.933231 1.561504 -0.870387 
-26.401464 10.811820 18.765835 
-18.010519 13.801391 1.673125 
23.977423 -14.139099 9.786717 
-20.972187 3.365188 9.361629 
-22.083010 4.606937 -2.928040 
0.477312 29.713917 0.852044 
26.929188 8.897070 6.925961 
-21.034805 7.711897 5.272140 
28.181305 -4.632810 10.089323 
21.746717 12.583261 4.357572 
28.067995 -5.004932 5.611125 
-26.972048 -3.693888 5.080466 
-10.768721 27.344574 0.145824 
17.037388 19.580629 12.512012 
14.665360 20.180216 11.937884 
13.992924 16.337906 7.578057 
-19.596985 -5.977196 1.626170 
-13.733314 22.091909 13.267877 
-23.841993 9.550430 12.450331 
17.503008 2.280139 4.098170 
25.054049 -13.250372 1.381343 
-17.127588 18.504578 7.609674 
22.311348 18.011328 9.216125 
5.606372 30.897610 6.036542 
-23.436249 16.152647 4.776263 
17.169918 2.322400 18.398483 
-22.049417 4.318655 5.458957 
20.182878 14.186064 0.552833 
-16.934731 14.978961 -2.931524 
19.837057 -7.018925 11.222571 
24.458143 -9.695221 5.607466 
30.887970 -2.348712 20.546616 
29.659346 -6.223331 4.175629 
-19.865395 11.142254 7.620066 
-25.749392 -8.576586 6.779160 
-20.505083 15.954496 -0.251002 
-21.841202 18.358694 12.432616 
-17.599791 10.840457 0.322085 
31.648542 -7.586669 -4.610235 
-11.894208 17.302027 12.291061 
18.643234 14.924955 1.104191 
-16.647747 7.327480 11.988612 
-20.395142 19.593731 -2.138618 
-4.553616 30.914494 1.358599 
16.872118 12.014342 7.651870 
-15.273765 15.596755 9.350223 
-16.908016 13.038933 3.170652 
-20.065260 4.448749 -1.703543 
19.542868 14.786867 11.423172 
6.324804 20.549591 -5.460526 
29.871460 -8.565948 1.394088 
-20.838907 -9.477001 11.617462 
-20.922207 17.820837 -3.963475 
20.823973 -10.773820 10.998597 
-20.677704 15.047292 4.971140 
-15.215178 24.829746 6.979455 
-28.034342 -1.232832 12.735715 
-24.832047 4.045238 9.812979 
27.193693 3.010653 4.336557 
0.323083 25.798914 15.225989 
-23.912205 -3.884857 5.925565 
20.438089 -5.529029 10.183461 
20.501617 13.948222 -0.173015 
-20.507706 16.623688 13.398718 
-22.729601 -0.174169 12.672589 
-26.115192 -1.508712 4.175420 
-23.934994 -6.148578 4.935112 
-14.565453 22.389050 -0.776106 
11.740466 23.093477 -3.595687 
29.087267 -12.310032 14.703612 
-32.164452 -9.922981 10.218981 
15.039294 22.661974 16.778069 
-19.221523 -6.982563 14.474212 
30.384033 -13.227530 11.615964 
-19.755774 9.748294 8.247147 
18.858154 6.329307 0.572041 
-25.255421 7.361443 -1.761374 
-17.229618 21.920908 0.409878 
1.104877 30.804266 1.287665 
-12.523505 21.390139 8.698019 
-28.472210 1.250107 -3.531847 
-15.929585 24.638287 6.590179 
19.641605 -1.894602 -2.511908 
28.822750 6.374204 18.704168 
8.034930 27.587481 3.921218 
7.920250 23.950283 0.472340 
26.995737 -3.865598 1.946904 
6.201150 27.611635 4.596794 
-28.632271 5.327807 18.250469 
22.242189 0.653653 3.471321 
5.526885 30.239962 -1.123277 
-12.382194 10.148667 16.754675 
-15.763404 9.841808 -0.142717 
9.557029 29.511162 -0.888991 
-30.782532 -10.367867 7.535285 
22.925489 -10.034073 -0.447995 
17.630337 14.161616 3.779850 
-15.156050 26.659828 1.119007 
-27.719313 -12.602131 6.509430 
12.142882 25.509872 17.485508 
19.434637 -8.413671 16.241566 
18.834188 25.700850 10.728375 
-28.000042 -0.187369 1.683591 
13.406648 23.112600 -1.850380 
-17.209190 3.810296 12.006412 
15.807381 4.790093 -3.117684 
-14.272786 19.548939 15.090405 
11.467830 14.830246 15.589804 
-27.988544 7.430882 10.936216 
-13.351562 22.015615 15.032948 
-21.628441 18.662045 6.697476 
11.164614 26.628826 -7.569884 
20.229258 -12.571197 -3.104845 
18.644775 23.571085 8.150126 
18.704403 14.121440 1.626115 
9.883174 22.126684 -2.695024 
-24.369753 15.700147 8.371996 
16.019474 14.037333 13.687164 
-28.582365 -0.256655 5.218052 
22.542143 17.443512 7.903748 
30.038710 4.204687 15.507452 
24.864704 -11.003175 5.392570 
19.281450 18.001795 4.977597 
-22.880518 0.747171 12.542156 
-4.447662 28.289957 2.799449 
23.371431 16.852058 13.717278 
-18.752480 13.670146 -0.019555 
-21.408012 17.344276 11.783598 
16.481018 3.527302 -1.155595 
9.660254 27.979334 -2.771402 
-21.330580 16.365376 -2.392052 
16.226913 16.606031 7.165286 
-16.565027 10.390436 -0.120517 
-17.141485 11.345330 7.482282 
26.901711 3.851966 2.014899 
20.655746 7.217083 -0.481373 
-20.609974 -10.576530 -0.216046 
23.627905 12.126496 -4.143126 
-16.329372 23.861759 -1.344622 
17.907190 1.454667 3.955469 
-18.774796 8.764647 7.194150 
0.861115 29.647259 5.743769 
-16.862675 13.192788 4.933846 
-30.599640 -8.327069 6.778437 
-23.662762 9.007668 4.526621 
-26.354828 2.190585 12.360861 
-28.532539 -6.408617 0.993395 
-14.148953 25.011713 8.206483 
-28.311937 -7.240509 6.778924 
14.294932 24.092655 10.153455 
17.652803 0.918044 3.068437 
11.279555 28.020859 -1.844364 
15.798604 16.298540 4.815975 
26.537930 -16.144049 13.485103 
-26.461485 -13.976072 14.487638 
24.829786 -4.071922 4.289809 
22.905249 7.410683 0.418860 
-16.784876 21.681993 3.534018 
31.989853 -4.885452 15.748732 
-15.818250 17.063755 11.684758 
22.475050 0.816979 -3.437654 
-23.663568 15.564301 12.876605 
-32.048794 -10.781755 10.440799 
-23.490793 -8.761719 6.886956 
18.304363 9.603895 9.853233 
17.791531 6.593593 10.367533 
-28.494404 3.548045 8.611193 
32.585571 -9.808722 18.811285 
-28.009165 -2.690187 0.535687 
30.769152 -4.710203 12.901005 
-22.210531 14.808026 12.181463 
-19.700573 16.966768 6.831365 
20.443808 -6.616170 2.509641 
1.658147 25.757626 0.063519 
-32.492619 -11.661132 13.932340 
3.253115 21.866386 -5.421693 
11.229798 18.828060 -0.145363 
-25.937763 4.066294 -2.450043 
24.476671 -13.583473 8.557020 
-22.913729 0.438342 4.137247 
-23.101589 -16.187086 19.244930 
2.062309 24.024239 -1.187307 
-10.473472 16.469229 -6.523880 
-6.381344 22.974987 0.267814 
-15.365859 25.013805 -5.729486 
20.471153 -2.158589 12.151293 
-24.978348 6.330145 1.155060 
-26.189259 -2.165121 3.469518 
-22.603199 -4.650876 3.610857 
-23.819933 3.651862 11.173938 
-25.349033 -6.429955 7.746527 
27.600985 -9.239687 9.175552 
-22.401260 -2.141289 0.690442 
-11.510500 25.768402 -3.602053 
-30.809366 -6.585529 8.835079 
18.932613 -4.488636 18.258823 
15.058949 26.002083 2.463056 
-0.429502 27.339516 1.476280 
19.045679 13.593694 13.747168 
29.170755 2.786287 7.349241 
15.796067 4.669615 -4.281757 
12.693592 27.002375 -1.088481 
-27.652168 1.296719 12.467604 
22.711506 9.405725 12.870855 
-18.564329 -7.044252 -2.030743 
31.880007 -6.149020 8.252785 
26.749199 9.319472 21.242340 
7.015496 28.351063 -6.727531 
-27.980873 3.573340 9.190985 
0.319497 27.514442 0.660583 
8.545780 29.200237 -2.222046 
-19.757458 -11.658188 11.673698 
13.459688 10.949811 12.991998 
21.469740 -12.771778 0.689110 
-16.393873 15.293651 11.842334 
-17.572634 10.938107 8.241737 
24.389214 5.808567 8.258032 
-28.948526 -3.680819 11.264954 
16.887701 26.294582 10.279204 
-21.993370 5.791384 4.499810 
12.305936 22.682190 3.431656 
28.416384 5.677741 9.818999 
-30.736460 0.560694 14.032331 
-24.794870 8.909739 -5.756307 
31.222614 -4.832632 12.056323 
29.204634 -5.966356 5.013637 
-27.652824 -1.226170 0.667400 
27.834858 0.835483 12.474185 
31.526234 -7.503552 14.069105 
13.780495 13.277751 -0.275184 
31.965166 -11.633610 0.322054 
28.455870 1.871159 -4.626630 
16.445818 24.596348 -2.813645 
29.094206 -12.443105 1.631491 
10.059471 20.545668 -2.011641 
-18.869816 15.269310 0.415471 
22.878164 13.298694 6.124322 
19.764528 18.281612 -2.996515 
19.316021 1.638335 5.652302 
28.033297 -13.507030 13.851268 
-9.752950 20.146063 11.925848 
-20.390211 14.483246 0.505720 
4.706325 27.407539 -1.299478 
30.715828 -14.376139 0.083887 
22.719419 10.057228 -1.239520 
-16.980007 19.046082 -0.848269 
15.988523 12.315517 1.492647 
-13.690028 17.286392 13.524403 
17.779381 16.096430 7.757117 
-19.893864 20.499605 -2.854701 
-22.515173 5.173184 5.518519 
0.380777 27.694859 -1.167000 
31.088064 -6.494479 13.791982 
17.346607 5.135966 10.966791 
-17.663368 12.083030 -1.147275 
-18.715597 11.346992 4.653086 
-27.006418 -7.991183 11.082955 
-26.530378 -12.358585 8.150018 
18.893848 5.030636 -0.048057 
-17.532768 13.360839 4.174990 
24.649267 -2.037197 5.868443 
-26.017731 -12.349240 14.599366 
26.201466 -15.993875 11.862423 
14.716206 21.346977 10.424830 
16.778406 11.106392 3.803879 
25.287916 1.839797 12.756459 
-27.515070 4.270100 1.036614 
2.564442 21.722979 -7.075941 
21.685266 -3.690472 5.380255 
22.350788 3.060404 9.759651 
-23.747673 16.382776 6.002198 
21.742537 6.176144 -0.675764 
12.960727 16.023245 -0.860529 
-27.797077 3.238978 0.614941 
-19.123329 15.332511 13.943583 
-24.459621 -16.209467 2.455593 
-18.780437 -3.809762 11.892420 
-28.990675 5.041971 13.032127 
-16.862810 4.741738 12.311546 
16.521494 5.808123 12.585012 
20.695660 20.372898 10.942979 
17.562979 6.940496 9.562779 
-16.137615 19.381912 -3.368527 
13.458751 26.791668 -4.111280 
-22.643097 17.144621 11.637280 
24.819593 11.171847 11.579600 
-23.308023 13.012715 4.806244 
-18.247986 9.747237 9.044621 
16.293146 17.456762 11.070577 
18.228556 9.892765 6.758650 
-14.639629 24.021099 13.617930 
-12.486716 18.382690 0.443645 
27.564878 -4.619093 6.942990 
25.047905 -17.621027 -1.649979 
16.173906 24.113216 -2.133215 
-22.543051 6.410308 12.527338 
16.650066 26.360964 11.629476 
26.155977 4.098258 3.305282 
21.113106 -2.084287 5.782763 
2.627492 23.040773 -1.484090 
27.674311 8.257972 10.727242 
30.935480 0.015231 17.117546 
-19.724237 20.098347 12.204197 
-25.424662 -8.063368 6.086275 
27.662169 -10.882613 12.192588 
-31.974346 -8.726307 8.144490 
14.727962 26.013330 12.044147 
-25.239780 7.951313 -5.667258 
-25.120779 8.769647 9.817375 
26.283249 11.661183 8.931793 
25.429079 -2.527315 5.802894 
27.773817 -1.501149 12.446926 
15.915970 23.914791 -2.962668 
4.022631 29.566607 -2.294059 
-17.121296 17.590012 11.000229 
-17.508360 2.989328 12.416177 
18.581423 2.397113 8.695801 
21.865644 11.739256 10.468256 
22.848461 -4.870738 5.072228 
28.047319 8.019647 18.974874 
-31.822559 -13.276852 10.423787 
6.537927 28.687012 -3.365226 
20.513458 -8.943981 10.036535 
-30.001106 -6.478118 7.836234 
27.229158 -1.339006 -0.185570 
-26.234751 -17.720182 12.969633 
20.717104 -3.732428 11.503052 
-20.295063 10.906608 10.239994 
26.112755 0.744443 5.132112 
-19.064922 21.160421 11.021496 
-19.072378 18.883400 5.930669 
20.099207 16.908092 13.841959 
31.672508 -6.835777 12.902482 
22.546436 5.189085 8.683733 
18.396067 5.074886 3.221859 
24.650784 -8.537916 13.976977 
10.308753 23.407244 -3.169365 
31.362350 -11.866736 8.548743 
-9.277605 21.201050 -1.906792 
19.228487 -0.689735 -2.806199 
27.766754 -8.165641 7.232625 
11.558939 27.593952 3.614383 
-25.559931 7.341747 -2.610849 
26.593466 4.140857 2.671555 
16.604609 7.791039 3.609985 
-14.374564 18.419491 -3.099583 
-24.443850 7.871825 3.702867 
18.383900 21.403847 18.400063 
-25.284914 5.258251 5.575403 
-31.220530 -3.888261 15.033623 
3.145473 24.787361 0.735172 
8.521398 18.593784 -5.683494 
-31.829357 -6.577914 14.492719 
-20.728565 6.965155 0.155828 
14.834528 14.292094 12.388715 
-8.197783 28.630602 -4.802187 
-21.238718 -12.025412 12.441611 
19.052483 11.902238 5.230257 
-30.236210 -6.151512 9.337605 
-25.208130 5.738126 -1.203430 
0.984629 25.367010 -0.050176 
-31.574280 -9.934207 7.504473 
16.364719 8.273729 4.164631 
-17.177877 17.433231 7.332337 
5.718031 25.205322 -2.303864 
-21.254471 3.679470 10.148294 
-22.812401 1.180293 -3.402685 
25.098284 0.215148 -2.965660 
16.149906 7.454575 1.249149 
16.929232 14.345595 0.132417 
-17.901320 9.730975 0.088652 
-1.520143 30.072969 -1.734633 
-24.106060 4.055829 8.771646 
-16.879951 8.159369 0.770664 
28.358091 -2.634733 10.385600 
28.781439 5.185570 21.000429 
-2.575809 30.391867 -2.217835 
-18.899117 -9.361781 -2.161769 
-25.026892 -0.136756 6.305368 
17.908041 -0.983189 0.492576 
28.562614 -13.689746 13.198335 
23.259073 10.768238 3.250206 
19.498669 14.755392 5.964731 
31.875570 -7.144907 12.089771 
-28.818928 -13.481945 14.744751 
-31.936537 -10.114552 9.093050 
-9.687866 15.847197 13.158327 
-26.127064 6.131526 9.424790 
22.088312 5.458663 -2.429108 
12.017203 26.747183 -6.472697 
-20.038269 -4.915454 10.285039 
-16.289198 17.331396 -3.698881 
-15.007278 6.301176 18.292210 
6.376378 28.675110 -1.342741 
-26.175169 -3.378555 4.969392 
-25.820314 -11.320251 6.270926 
20.507566 4.109356 10.316454 
-16.359600 25.048210 11.293296 
13.295447 17.028864 14.297919 
0.211923 28.955420 1.384318 
26.226820 -13.996844 12.946422 
22.515871 -14.588401 16.281191 
-22.177164 -9.357268 7.473298 
22.292730 -14.605204 14.875034 
12.550494 11.399190 14.364144 
-22.064499 15.185678 4.066497 
-17.731825 22.816797 -2.925937 
-25.158041 -2.848251 1.117856 
22.824331 -5.368604 6.670491 
23.660128 1.393967 12.812314 
31.586218 -7.157580 -0.158123 
-15.196973 22.669655 4.929151 
15.033933 22.180832 10.089814 
19.421061 14.472271 2.670309 
25.598867 11.248510 10.926495 
18.000834 20.984417 0.556123 
16.542379 19.146109 6.184841 
-14.317013 21.220921 -2.579537 
29.230587 -10.851586 1.144472 
31.515234 -7.395216 7.128463 
29.309618 -6.934289 14.190659 
3.212858 30.721863 -0.512230 
18.120796 21.628481 -7.161253 
24.292400 5.935395 7.479922 
-26.948290 -0.069174 4.181129 
24.512321 -3.086127 6.655905 
28.152285 -11.499182 0.663698 
10.386483 21.185207 0.741735 
-26.606855 -17.873304 14.735911 
20.650835 14.121964 13.613996 
-11.445757 26.152874 -2.728501 
-24.887022 4.780183 6.053668 
-30.641203 -7.680980 0.717036 
-19.767010 16.631231 -1.080444 
21.004509 20.882126 12.252113 
1.191104 22.176601 -5.718971 
-19.604219 1.433711 6.997292 
23.198057 -3.982433 1.215158 
-26.788801 4.537355 5.727554 
-26.455971 -15.448401 13.159204 
-29.427683 -2.237368 12.334174 
-28.584019 -4.708364 9.768068 
-23.872389 -2.522641 10.553740 
-20.245483 -4.903747 6.806792 
17.375372 0.944459 1.756444 
-21.105459 7.387965 -0.439521 
14.715005 8.575478 -1.848843 
13.130175 24.038414 14.786541 
-23.099773 10.235976 -0.462717 
18.320181 23.600885 15.897600 
19.667458 -3.501775 7.624554 
-17.220009 18.971491 14.908560 
-28.708420 -8.886968 0.475969 
7.789946 26.556160 17.217922 
29.422722 -13.538785 12.833359 
-20.670353 12.901625 13.782879 
-23.770357 -3.114235 4.555651 
-16.269247 22.466579 3.791394 
-22.818419 -8.443209 5.839543 
15.440504 8.144636 13.602393 
-28.772270 5.793226 13.056360 
-20.166882 -9.581866 -0.098888 
13.703156 18.049700 -2.120115 
-26.411909 -11.153693 -0.498363 
-25.188078 -6.193315 9.865133 
16.963547 0.939166 -5.289935 
25.270174 2.748737 12.587278 
4.961113 28.409433 3.503091 
31.303402 -6.006229 -1.121969 
17.529222 9.265528 9.280710 
-21.585260 -11.677762 7.639262 
-31.919800 -14.415228 16.700706 
-28.034491 8.271852 15.642291 
28.795372 5.641352 10.500427 
-18.260757 18.051481 8.561175 
0.441157 15.262401 17.204117 
16.129381 12.645464 2.209827 
-11.331512 18.281569 11.047523 
-1.349127 27.763697 3.305910 
29.777197 4.682950 11.939760 
-24.333122 -7.798569 13.048729 
-30.463558 -9.408976 -2.848952 
-19.085526 -1.586133 8.843361 
-12.161294 21.052366 14.369146 
-15.735451 19.056290 4.817587 
18.992170 23.103813 15.391913 
-13.165313 20.327703 -1.948805 
-27.488953 8.929873 17.424166 
28.207331 6.955676 10.793025 
-24.107067 15.307881 12.111524 
24.632717 13.518241 19.206785 
25.103745 -16.313150 14.462584 
19.504162 13.687811 -0.372373 
26.296913 8.192865 10.145934 
-16.850159 18.696543 6.226427 
-7.391435 21.975060 -1.155308 
22.081079 1.612496 12.588693 
-3.015349 23.068893 -1.993157 
-9.692504 24.866165 0.149111 
24.020597 6.785465 12.130711 
24.202497 -5.786991 -0.104742 
-20.376186 -13.080544 -1.779100 
-20.622864 -8.835068 -0.255928 
-21.314814 -12.902905 19.464634 
-30.122610 2.558353 14.134731 
15.847703 24.950945 2.591632 
-11.423471 21.175751 13.779838 
-22.109665 -4.059675 12.320886 
-24.956741 -0.821387 5.954984 
17.835531 19.401543 -1.184366 
-2.744741 24.388470 0.224519 
-27.237148 -2.215749 0.748832 
18.944801 13.403418 4.991543 
-13.981140 11.392298 11.516780 
23.464024 -0.603284 -3.091558 
28.368193 -9.892957 6.860261 
15.706813 6.135320 16.165852 
0.188269 27.447378 20.872969 
3.225680 26.695690 -0.621446 
26.004539 -9.204287 -0.494644 
22.361538 -5.541037 8.369645 
12.751059 12.710768 -3.740495 
17.422277 1.800111 3.468127 
-16.453669 14.244335 -0.107798 
-20.347944 3.210964 8.501584 
-19.555349 14.050344 -0.176692 
21.130741 -11.699956 0.399950 
16.385403 4.661873 15.516021 
0.044562 30.158245 -4.067374 
6.423733 27.988417 -7.663803 
-21.707594 18.730402 14.936994 
-25.937881 6.030083 1.532974 
12.479102 19.875084 16.368227 
-27.204477 -5.362360 12.119282 
-8.748288 19.598309 12.090989 
18.547066 1.370234 10.981779 
10.946646 30.231800 3.936767 
-25.054522 14.352391 16.319391 
10.580637 28.643442 -0.658641 
-29.976353 -8.841252 6.800306 
30.957104 -2.084998 12.537725 
-14.199986 26.888493 -2.090897 
-14.648366 25.933638 -3.764051 
19.808210 -7.355484 20.144060 
-17.749098 22.785461 -3.875074 
23.472469 15.686643 10.556199 
-29.529194 2.854589 6.316857 
-14.853673 26.823351 4.339721 
23.333332 6.815504 0.708012 
24.308809 -3.410080 4.032203 
13.481962 21.979769 4.027541 
-17.771511 17.885878 10.651196 
-20.325779 17.248671 -0.341630 
19.654234 19.455177 -1.732009 
13.587717 21.178080 -0.050643 
28.987530 0.686466 -3.553888 
-12.955220 18.388361 14.013604 
26.035013 0.317636 -2.701857 
-22.703421 7.834131 3.297099 
-29.832483 -11.980090 1.597029 
-27.066622 -12.280818 14.770247 
27.254745 5.482697 4.739317 
-22.814186 -9.511664 6.817871 
-26.371836 5.798970 -2.137794 
-22.182045 11.585196 9.389184 
-10.110927 25.131315 -1.712753 
24.827362 -0.288417 5.556727 
-31.505077 -13.401241 13.308921 
-19.266832 10.738941 12.058794 
24.614901 3.576212 5.378572 
-26.051414 -9.818103 2.843013 
-26.921892 -13.245370 14.673916 
-22.775881 3.672066 4.936240 
-19.190006 18.801537 9.728591 
14.704215 20.938614 18.203627 
21.273094 -7.226534 0.146992 
-29.079277 -4.710535 8.334169 
-23.958654 -1.323131 -2.936011 
14.947171 22.407700 21.964804 
-18.086985 23.305227 5.134513 
25.141459 3.509365 12.400971 
17.979330 19.595013 13.847582 
22.149210 -13.671402 10.206591 
-13.409202 15.759191 0.007025 
13.767562 15.584696 7.520189 
27.289894 -4.071724 8.085396 
16.063187 3.776655 -4.211443 
-23.070843 -1.408264 4.373765 
23.724899 9.047713 -1.202734 
-26.446423 3.562730 11.784081 
16.601757 25.352802 14.905616 
12.802935 26.735147 -5.459112 
-16.418165 19.913788 -0.276826 
-20.234385 17.024267 6.181537 
-20.762432 -10.325490 11.828416 
21.435282 -5.654469 5.427298 
16.082281 20.313160 -1.174464 
-27.069517 -9.067028 14.324646 
-21.539762 -6.742804 9.746505 
-17.637693 15.506119 13.560407 
11.411637 23.560097 3.549825 
7.779139 26.053785 -0.784744 
-16.345938 25.110275 0.489802 
-26.323530 11.779745 16.693348 
16.007282 6.868811 0.339877 
28.788130 -12.920614 5.081638 
-15.155486 8.980652 12.712450 
-5.500279 12.147802 21.158159 
21.849657 17.915762 11.654340 
-15.694532 16.618351 7.785856 
18.234312 12.413327 -1.691924 
-20.634613 19.711569 0.397611 
-10.880868 19.373055 12.785918 
-0.574597 28.570103 -2.754054 
-1.385909 28.403404 4.087152 
22.843225 -10.853238 -0.293311 
-20.879623 -4.884593 11.724081 
12.996469 20.143904 16.949341 
-20.110521 -3.784750 0.581081 
-17.316370 21.247734 4.193271 
-13.882439 17.751751 -3.024345 
19.197954 19.775021 8.096478 
-15.182557 13.145801 11.047606 
-15.195788 12.358236 9.678359 
5.156904 25.834230 1.457903 
-17.868694 4.235966 3.348788 
-26.710909 5.263273 -4.468485 
21.643946 8.299692 -1.727381 
19.833349 18.625015 5.617873 
26.410681 -5.572351 0.258926 
31.515141 -12.552938 15.869228 
28.360163 1.813083 -5.437423 
-21.243196 -13.106674 0.185858 
19.889843 -12.316339 0.523153 
-14.987296 9.167052 -2.933339 
22.285124 8.339191 1.453111 
9.012893 18.577600 -4.036468 
27.994884 -3.519602 10.338638 
-20.638847 15.896371 13.978252 
31.848930 -9.851939 9.288848 
-25.734825 12.668669 12.109342 
8.175967 28.568983 -5.599587 
-18.482012 22.969503 6.108550 
4.751904 28.255228 -7.677763 
-2.122358 30.952744 0.491226 
22.363689 -2.043653 0.869018 
-13.482471 26.327452 -3.678087 
13.445090 25.542625 7.169193 
20.948112 21.456997 12.794736 
5.317139 27.255365 -0.809324 
-21.677517 5.108964 -2.052339 
18.563828 21.697498 -3.864208 
21.620831 -11.323036 9.097885 
17.582748 4.414695 2.533243 
20.236774 19.019178 1.264786 
18.658911 -0.457512 3.698372 
-24.344021 6.329630 4.292308 
-24.864710 7.343972 -0.990760 
-19.678066 1.515394 10.260638 
18.986609 -6.088086 -0.199475 
19.100012 24.271975 13.689642 
25.368715 11.568323 4.814288 
3.226896 29.987885 -4.438209 
-22.337112 -6.256998 10.721061 
15.412468 20.041168 0.808634 
-20.165165 2.678064 4.916893 
-19.019676 -3.819115 18.374027 
-20.319862 5.453574 0.279872 
23.644030 -10.868784 -0.401447 
-26.170595 -1.084481 12.993085 
23.314457 -0.428252 4.124739 
21.128431 13.967799 5.149731 
-21.259417 -3.191631 -2.405430 
25.993889 6.432687 -5.839429 
-29.506409 -12.141285 8.398529 
-17.393230 -0.118966 -0.561041 
-24.595621 -15.809200 9.883396 
19.957680 16.232693 0.660221 
18.158697 21.060894 20.169291 
-18.888216 4.315651 6.778885 
-26.086018 -13.862817 8.361685 
22.300291 6.102884 0.378891 
31.864815 -6.090159 11.561134 
25.076153 6.516551 9.340391 
28.670671 -7.514587 14.403378 
27.345274 8.115944 10.046351 
-13.429107 8.029404 18.918924 
-14.665927 16.736616 13.292036 
21.588629 18.444345 8.034473 
-2.508683 28.959742 -6.741973 
3.256600 25.399160 -2.556289 
11.902358 27.282562 -0.689503 
-20.962471 -12.989432 17.994759 
15.526083 22.967266 20.036030 
-19.635456 1.022938 11.047067 
-27.529341 4.566172 6.922672 
21.152849 17.551126 -4.927037 
-19.117842 4.819082 5.596998 
-17.083508 7.000720 0.482594 
-19.612770 4.932559 -0.073450 
20.260023 22.276890 13.962197 
-11.658574 27.654688 -4.266274 
-13.393795 19.096621 2.841436 
-2.199339 29.541691 -3.407367 
19.939104 17.478828 -2.156957 
-19.334967 2.840873 9.379741 
18.066149 -0.743754 18.766020 
18.690096 9.137185 -0.098032 
14.971419 12.517266 12.642976 
21.750299 0.396898 -3.376199 
26.312700 12.397031 13.396720 
-24.353821 -6.436240 9.903095 
-15.138551 19.551420 4.024012 
10.292856 26.911127 -1.729584 
-22.327906 14.236180 1.069440 
16.001812 17.219671 -3.773254 
-19.718002 11.076232 12.851526 
26.799507 4.498688 11.894704 
25.502323 13.021182 11.794547 
18.716690 -4.622334 13.671210 
-21.083080 17.395531 21.360033 
19.626551 0.394980 0.282437 
30.125982 -9.075690 7.967008 
-17.740593 3.606881 1.261737 
19.448677 7.709289 12.268432 
-22.825539 5.065321 -2.763765 
-28.788763 -5.092619 1.325312 
-22.167961 -9.980437 5.105706 
-19.030592 0.489285 4.254939 
9.028623 26.287567 -3.690901 
21.906342 -12.587527 10.624271 
-6.264117 29.933769 -1.413439 
-14.514385 17.313700 -3.340749 
20.155317 8.071924 -3.023592 
18.228918 5.591844 1.517231 
19.822401 9.661730 4.504495 
19.441650 24.120537 8.231794 
-20.383219 6.095450 12.230424 
-15.893674 21.122105 4.679788 
-15.377026 25.709667 6.344862 
23.866346 -4.486278 1.475758 
-30.278168 -7.571748 6.728516 
19.298677 9.326224 9.705554 
-29.890144 -1.663465 11.533204 
17.694780 2.369711 11.977949 
13.972925 14.016367 0.472265 
-26.469046 -0.840364 -2.342358 
11.985879 22.059914 2.516753 
16.963203 15.414871 6.675758 
15.541404 18.001398 5.619649 
20.424427 15.790789 -0.166172 
-20.871328 -5.442783 3.474822 
27.605412 8.816362 19.192778 
9.136567 28.817635 -3.084981 
-27.092213 6.245637 9.314209 
16.822515 6.771965 1.831027 
17.189890 6.220109 10.803720 
-23.568394 0.341428 12.743460 
-26.702534 5.448119 -3.613732 
20.184795 -7.235569 3.041499 
-24.038780 14.095103 11.882563 
18.155376 25.868990 11.210062 
-27.127935 6.158211 5.771727 
-11.187468 21.013927 12.631556 
-17.866718 12.723428 5.102723 
19.852365 12.531083 9.176170 
18.306211 15.426871 -2.072305 
24.347969 -12.710225 7.671960 
16.372639 12.451568 3.240075 
-18.222794 4.232938 1.199353 
23.397610 -13.460905 12.135903 
18.075533 7.641121 5.732573 
-21.275091 13.145246 5.468417 
14.808754 26.136053 0.252089 
22.316868 -13.282722 4.718294 
22.812679 -14.491244 17.898041 
7.659441 30.040489 4.263606 
11.859112 29.191395 2.985069 
0.424643 26.823633 -0.493329 
11.384299 27.720200 -4.611942 
0.533572 16.246056 15.728729 
-18.125526 23.856073 9.092186 
17.801205 0.103199 11.285041 
19.613024 -3.437703 8.943915 
7.567566 21.237103 -2.005345 
16.084730 18.933731 -3.459935 
-20.595058 1.725135 5.769580 
-19.717384 17.010651 12.191698 
-1.892487 14.037710 19.000835 
-19.027683 -2.008954 -1.283787 
17.311968 15.725227 5.095636 
-26.589283 -2.209909 5.043345 
17.886368 12.362497 0.447848 
11.400489 27.289007 4.603018 
29.984076 2.840828 18.996078 
25.767031 9.553889 4.292523 
19.956404 -9.962614 10.843552 
15.518160 19.616167 -2.395549 
21.158920 -11.734525 5.899062 
-15.298377 7.371882 -5.675006 
29.560772 0.262922 11.085030 
-21.911253 6.989206 5.750134 
-13.682581 21.666304 -0.340883 
3.609401 27.335852 2.433580 
19.922649 -10.276047 15.264979 
15.508082 24.449726 -6.618991 
9.006196 28.403439 -5.434255 
-25.388309 -13.838408 7.641457 
-3.033796 28.441677 -7.647604 
-19.253311 -5.993837 12.610736 
-27.366106 0.872534 5.098458 
19.670774 -10.312431 -4.292369 
-31.046600 -13.892831 8.636959 
-18.643709 17.591469 6.000741 
-18.236937 13.249344 1.109648 
23.209585 -16.720015 -0.465398 
17.954205 -1.308460 12.944178 
-31.933453 -11.540926 12.014867 
-16.339077 24.067373 4.092409 
13.361383 17.364023 -2.195428 
-14.104583 14.907971 2.750116 
9.007621 26.128862 16.529135 
-15.180906 22.284138 -2.729997 
-14.336996 18.586813 0.643693 
25.900230 6.012414 5.072418 
-23.023104 -6.984663 8.157233 
25.805058 6.220376 5.958351 
24.950607 -4.878768 8.520431 
-18.993605 14.509632 13.999729 
21.877905 5.988976 9.265471 
-0.478804 31.210466 5.951354 
-21.438169 -2.455270 -2.710516 
14.608693 16.826797 7.154255 
31.566586 -4.370337 12.587472 
-26.692759 10.191850 8.686276 
6.965239 27.956900 -4.082629 
-25.515581 -3.496394 5.459926 
19.632698 24.614935 11.824526 
-3.653481 31.800713 2.920000 
-19.830261 -6.889741 19.852442 
27.112448 2.879052 12.323325 
-22.282923 -14.448728 10.385720 
15.610803 24.902676 -3.130445 
13.366531 17.244596 4.429511 
-23.889004 11.122090 -1.433044 
-24.041876 -1.099585 5.092999 
-14.905118 24.091551 -2.081828 
14.852605 7.424501 -3.819021 
22.042337 -14.444382 12.647925 
-19.158558 11.527258 -2.780684 
-11.503633 21.714523 12.723606 
-30.956930 -15.570707 16.370232 
13.475159 27.046936 1.851824 
-19.406454 18.093857 5.849528 
-3.496820 24.687321 0.503071 
