-22.870646 5.418937 8.967300 
-29.167078 1.637477 11.226055 
25.622513 13.178331 9.032804 
-25.140564 -5.174815 0.775617 
3.947184 29.067759 5.973077 
-17.845366 -20.181465 17.026182 
-11.056770 16.354069 14.131839 
12.986908 10.049016 2.870355 
23.965113 -9.747006 9.594136 
29.334227 -9.899477 -0.278673 
23.371344 -4.896802 11.860925 
29.032753 -3.304475 -3.926160 
12.774611 17.068247 -5.285050 
-19.563231 -16.937702 11.602472 
20.192173 -6.090526 1.095625 
0.942487 31.973228 8.328170 
-6.553560 29.491089 7.986097 
-13.919682 18.408903 -5.034897 
-22.471228 -3.772655 -0.983647 
14.437119 13.812667 14.389376 
15.766891 1.774132 -5.456801 
19.904312 -10.296906 2.866200 
-11.206636 31.542774 2.887504 
-20.561014 10.878410 -2.984789 
-0.811010 34.414860 1.648547 
-21.505686 14.131836 -6.565880 
29.280649 -11.778964 10.216876 
12.555420 30.144247 1.843363 
26.594261 -12.503169 12.857429 
-22.170797 -2.464616 1.238179 
17.835129 10.121685 2.755843 
-0.053247 35.752979 3.133292 
16.669004 7.045361 15.920233 
-20.893583 -17.761036 7.504051 
19.853584 -1.952469 -5.207398 
25.917370 -13.703861 -0.551976 
-27.017067 -19.917093 10.157960 
-10.402331 31.550291 1.653791 
22.017786 16.469147 7.979489 
-19.805313 -6.310614 6.885078 
8.830206 36.129932 2.302657 
-25.367626 -2.034689 10.573149 
-27.115097 7.024421 16.224522 
18.850712 0.867762 3.283984 
-15.168550 18.952141 3.965756 
14.380483 26.437016 2.762909 
-12.598370 15.639393 1.559754 
-10.582572 22.356598 9.368374 
3.258247 34.293900 1.682145 
20.192446 5.883822 -3.678929 
26.822353 -14.046153 8.936799 
-17.111103 0.017620 1.908728 
-21.146873 7.310358 -4.017023 
-2.222129 29.199556 -0.833398 
-21.472898 4.478210 3.364938 
-29.503786 -16.811245 12.366934 
-12.998650 10.053906 -8.012897 
20.352859 3.834960 12.236201 
21.591803 12.211506 -4.989405 
1.297051 29.721733 -3.341089 
23.080538 9.274426 -5.325601 
-13.476436 24.109852 -7.561836 
-23.705830 -13.705410 7.448307 
-16.788500 1.040066 -0.072056 
21.538801 -12.946304 9.042509 
14.768185 18.370359 4.306299 
-15.959624 5.182780 -0.213518 
-25.189661 -21.503386 13.396807 
-30.425850 -8.105329 12.785968 
-4.231608 35.752712 1.605201 
-26.418678 -11.533545 6.044215 
-5.953299 31.495615 2.679237 
-28.664265 4.313837 11.310706 
27.936483 6.689306 11.673425 
21.373764 8.805562 4.643041 
30.587893 -10.995732 -3.102926 
-29.663910 -14.651662 10.372496 
29.401316 0.433417 9.950330 
-22.863110 -3.585125 5.054420 
-17.246809 24.364994 1.606796 
-18.270548 8.813199 8.236259 
-24.441320 13.701016 10.688416 
-10.983965 19.904081 -2.002861 
22.497721 -1.982297 -4.667475 
14.157122 8.644375 -3.124004 
25.476564 5.745986 0.476629 
-23.856939 -7.510336 13.294380 
15.428109 14.381167 -1.013136 
9.276394 20.629992 -0.515648 
-27.923433 -15.879035 7.294053 
-25.908443 -10.290537 6.378455 
-9.475823 27.209917 1.627258 
-22.541801 10.690438 -1.998859 
-16.518946 20.714745 1.795594 
22.147192 -11.211164 9.665580 
-16.666784 2.498743 11.997034 
-10.188385 21.311481 2.689538 
-23.398506 -13.495516 13.644210 
30.274910 -7.764134 9.711484 
-19.684385 15.350239 0.525738 
-14.294294 26.899620 7.438570 
-24.405806 6.252080 -4.000085 
19.547359 -9.936355 14.433062 
18.883766 0.456256 12.495440 
-5.360524 23.947956 0.181887 
24.726515 2.443883 4.793811 
21.735373 -3.373123 9.759356 
-25.101940 -12.434447 1.707928 
13.306690 22.117859 5.286014 
-18.607924 -19.227646 11.214165 
29.959152 -12.072111 -4.407050 
-5.002665 35.464050 1.526876 
3.783396 20.044178 -4.290002 
9.216740 27.311956 8.926437 
-7.018761 33.126179 4.487242 
-14.138021 11.854469 -2.017072 
-17.355185 -0.202341 2.654686 
-11.791466 20.295109 7.350584 
24.867332 2.966185 2.982421 
18.030777 27.577488 7.531645 
-4.122503 23.523281 -1.853580 
-32.227886 -5.544829 -1.255358 
-21.141167 11.531865 -1.586071 
8.845120 37.361782 2.213851 
-5.025064 28.657595 4.965777 
10.708014 33.219273 2.804127 
-11.087513 19.746162 2.202161 
4.931577 37.013889 2.885079 
-17.559717 5.439125 8.554170 
-13.592020 12.024425 -1.233513 
-10.794766 29.603853 7.735465 
1.133085 26.284460 10.700583 
-18.900831 3.336799 -5.023275 
19.063046 -1.188893 3.712047 
19.010252 -8.971641 13.405269 
-1.920923 27.104393 4.402619 
27.494432 1.094216 -6.144173 
-19.758005 -10.042445 -3.129976 
-25.884588 -9.000276 13.530581 
26.085411 4.541549 -5.716228 
-29.413710 -6.204659 0.544548 
12.770339 25.686096 8.392401 
-14.427895 14.595980 -0.845827 
-26.237701 5.803952 -3.215188 
30.709602 -3.911751 13.288755 
19.797047 -10.905411 1.363760 
-3.140057 31.746927 4.675215 
13.167142 22.252579 8.832541 
-5.539844 23.678009 -3.024911 
15.956618 19.884153 2.278962 
24.770681 6.710222 -4.431318 
26.304983 -3.130223 9.478492 
-20.053082 15.401183 6.668161 
18.642805 -5.913179 12.815586 
20.691813 14.292758 6.932271 
-17.747643 0.461641 3.437256 
22.080536 1.026873 12.966228 
-24.263643 6.721952 10.001874 
27.705568 -1.336101 10.370763 
-23.852217 -13.004482 11.576590 
10.328981 26.477543 -6.890972 
16.637499 17.994787 -1.047949 
-4.795289 28.990677 -5.029279 
-17.373514 2.165059 -3.589761 
-18.137310 15.242597 2.918011 
-6.285894 27.428497 6.030519 
-2.150195 24.689432 -0.225475 
22.753210 9.825480 10.500213 
-16.331562 27.342113 5.634367 
-16.987991 27.384747 11.093091 
-29.482000 -0.311555 12.807528 
-28.293388 5.448939 12.579699 
-23.523560 -0.786033 0.324700 
16.021179 20.947357 -1.597165 
0.597981 32.648487 9.110566 
26.270689 6.060698 6.542305 
-16.895599 1.198041 -4.486621 
-18.056166 13.565780 3.781308 
-27.820873 -17.214828 10.328566 
-18.860359 -5.003786 -4.301362 
-18.302343 13.138941 6.515712 
22.904472 9.348728 -4.227369 
10.108263 36.497353 3.671150 
26.206461 4.074830 11.984110 
16.039639 16.641497 1.093460 
29.648954 -8.888399 2.800509 
12.260887 26.527851 9.324581 
-7.140851 29.971224 8.770603 
-17.998695 23.768681 7.760155 
-13.964308 9.750736 0.394646 
-18.666279 10.385741 2.657787 
-19.979071 15.005960 -1.991570 
25.937197 5.255987 -2.675500 
19.985537 24.886805 3.654612 
-7.257658 26.896370 -0.895384 
13.745543 19.284128 7.717290 
14.514222 30.948387 8.912201 
-3.350910 29.246229 -0.206613 
-28.558907 -3.414020 6.501966 
15.818113 4.263528 -0.142649 
-23.427444 -5.313817 9.768904 
-13.313527 19.284521 -5.054071 
-10.717872 26.365377 1.598599 
17.413307 8.838346 -3.056035 
11.920286 24.801849 2.140351 
18.306604 1.016777 -5.863901 
19.012938 22.627523 10.083296 
-11.388735 26.831789 4.871095 
-10.317240 26.365015 3.290386 
28.672962 -4.841268 11.525775 
-26.635696 -8.637648 -1.295202 
-30.840851 -17.721855 14.805987 
12.792977 24.603413 6.763011 
28.137794 -13.886794 16.506956 
-24.589872 -9.285757 -1.920395 
10.617649 14.596871 -1.964083 
-2.361581 22.677151 -1.957372 
-26.417137 0.762975 -1.885245 
6.851086 32.858437 11.805789 
28.620966 4.882210 13.456996 
-19.206600 23.223986 8.180634 
-11.658299 24.970825 1.900367 
23.299086 -13.561342 10.342406 
-25.673384 -14.643695 3.244445 
25.571480 -8.994493 -2.986288 
19.420851 5.069639 6.013521 
-26.167582 3.480073 10.251910 
10.614057 30.076569 2.731247 
8.743205 25.939533 7.267876 
23.879044 -6.282715 4.494481 
15.755909 16.025530 1.917433 
-7.698410 22.934937 2.708207 
9.845158 24.201757 5.998453 
-26.560005 8.785607 14.626245 
28.522934 -11.352181 4.058321 
9.544337 18.825384 -1.285003 
-8.029008 27.544630 5.020525 
14.524864 26.818329 7.243238 
-22.590286 -13.101851 11.144642 
-15.740732 5.139406 0.658997 
-27.429661 -17.116459 9.457641 
5.964907 37.283520 2.822217 
-13.892566 14.122528 -1.373815 
25.531683 2.243161 -4.072606 
-20.241970 16.334450 7.449463 
-2.772069 21.386745 -2.164771 
25.676292 9.553511 4.830212 
17.114243 20.323654 3.579546 
19.408222 27.131678 10.272338 
-11.227045 25.435669 -2.670009 
18.332504 25.239563 8.948359 
-7.358691 23.798780 8.510763 
25.445145 -3.778227 9.531457 
-2.334207 26.813982 7.673656 
-27.954082 -7.662323 -0.655087 
-19.729979 23.009771 12.631173 
18.450708 9.584401 -3.477959 
27.896351 -14.184639 14.905308 
-8.994929 19.239265 15.710078 
-16.049395 14.982113 -1.604844 
6.422153 29.053751 5.931059 
2.689239 34.410667 7.907170 
-16.768978 18.974815 -1.758709 
6.099227 26.051952 1.291306 
10.031198 27.802313 6.503200 
-11.621839 22.306345 2.060597 
-21.268106 -9.934947 6.103512 
-22.094536 -10.303036 1.160126 
-9.961742 24.753685 -4.396555 
-17.787529 -1.022484 -0.467510 
-12.670454 20.034744 7.425285 
-16.291872 6.754126 2.601452 
-5.541180 29.596203 6.478508 
7.421296 31.968605 12.013655 
21.629751 9.656052 10.634154 
-19.978155 4.419537 11.890599 
-21.058611 -8.326395 -1.909545 
-15.260430 5.553479 -7.594736 
-20.956703 -2.099828 -1.924288 
-18.169067 -19.779154 13.737976 
-23.559511 0.285931 4.528778 
-18.179119 22.844217 3.070030 
-19.678816 0.703373 -2.699978 
-24.396463 7.285431 4.339428 
-25.972713 -2.553868 10.377237 
22.997154 -5.030420 -1.924818 
-4.279459 33.262161 2.933331 
-20.317829 6.529111 6.335573 
-9.918485 22.418718 -3.939043 
18.546144 -3.442328 -1.320636 
30.360794 -6.422122 7.718244 
-10.035007 14.820247 -6.126637 
-27.403826 -10.991901 0.362261 
-22.775385 -20.894487 10.681439 
9.672237 24.985554 6.195073 
1.953761 35.613777 3.601843 
17.289728 10.853067 5.382078 
-0.485499 27.278780 7.878510 
-18.951338 5.068555 9.668996 
-17.389009 26.492016 13.244761 
2.267719 35.779488 4.326083 
-18.925241 -7.643922 10.697345 
-15.983120 14.419823 -2.387835 
-2.474475 33.895466 10.653046 
25.608562 10.257445 8.162908 
-21.820877 -16.113359 14.304638 
-25.709196 10.486766 14.630149 
14.339943 8.295053 -2.291679 
17.196943 2.229857 -3.688407 
18.580553 -3.497609 6.692031 
-14.451844 11.270740 10.192347 
-22.845346 10.822166 8.323208 
11.650740 25.259623 -7.907376 
19.579813 3.958510 11.468807 
-15.292176 27.784557 6.676106 
13.391562 16.944681 3.022885 
13.900994 31.752110 5.654750 
7.205103 24.367527 12.316843 
-16.749001 11.486065 2.714123 
25.934656 11.467916 8.267221 
-28.864614 0.831834 -2.807083 
26.851217 -0.891219 12.269427 
-1.042556 30.564116 8.273273 
-5.060560 23.627209 12.649978 
26.599350 0.454088 0.082279 
11.632367 27.868053 4.919116 
-5.367518 35.866734 4.210002 
15.684159 2.413121 -3.355950 
23.372303 -13.868522 6.999316 
22.683071 -3.468384 3.344726 
-6.530669 27.114937 -9.591421 
19.092445 2.747993 -5.881542 
-18.548183 22.490852 6.345703 
-5.524319 31.817455 10.665020 
2.020512 35.174786 4.829828 
12.162183 24.100513 2.636960 
-17.828022 -2.004285 13.940029 
11.689467 25.785549 5.515752 
-12.848733 21.181862 -1.159398 
-29.825010 -7.320604 3.104135 
17.432228 23.443344 8.127072 
-15.908566 13.247030 2.210691 
15.078353 17.128746 -4.675101 
-21.808737 -6.588465 12.459722 
0.794932 29.216740 6.690145 
-1.933224 27.550722 7.044599 
-16.195936 26.858295 3.084681 
-13.976113 24.178610 1.528787 
22.465244 -4.758169 10.181380 
4.454139 25.387482 12.664227 
-2.450337 25.829674 -0.209307 
17.032219 5.369096 3.507901 
-30.251305 -5.561139 11.113025 
12.917169 7.697217 -5.653955 
-4.928357 31.306599 4.169122 
17.481800 11.768975 7.749465 
15.742751 27.149662 8.484894 
3.543798 26.519070 -0.253530 
25.328827 -3.456506 10.417539 
-18.347919 5.811810 7.681417 
-27.390381 5.727375 9.822887 
26.766413 -12.588888 4.909930 
25.225664 10.072992 9.238077 
17.482456 1.436883 13.509025 
22.350939 13.252042 2.675757 
-24.790705 -13.363103 12.966557 
-19.945795 -7.553946 -0.854479 
13.189147 7.638450 -7.875810 
-6.001692 24.949339 -2.556938 
-15.512268 26.367996 11.222591 
19.891733 21.165884 4.244022 
-20.721439 -3.880968 7.700637 
-25.688469 7.684124 -0.152624 
14.387349 7.602602 1.846676 
17.271248 24.408077 0.281747 
6.124106 25.450699 -1.885444 
10.585274 33.164310 3.608851 
1.555258 34.323196 8.047043 
-18.980225 2.061397 -4.913669 
23.508698 6.369869 -2.160584 
30.278597 -1.618472 13.236455 
20.280220 7.149002 -0.552898 
-19.813227 13.147028 9.482986 
-12.570644 21.664509 7.056852 
-3.211486 20.037437 -5.526841 
18.483191 16.594212 -7.267022 
-17.852900 0.014662 8.232263 
18.134548 7.738291 9.394437 
17.402178 3.539610 3.510195 
23.341192 -10.201882 12.782857 
25.482656 -8.669168 13.176846 
10.595347 16.703577 -4.952959 
-27.639984 2.431601 12.048561 
-22.532730 -5.295962 12.405058 
-30.062969 -17.032585 11.268197 
25.979776 3.695210 9.192312 
16.007362 27.631741 7.227631 
21.138988 24.601437 11.167571 
13.551658 27.812523 3.164610 
25.218311 -9.972656 -2.914430 
13.567716 24.044779 -3.673707 
-4.839261 18.680704 -8.826653 
2.419460 33.920078 1.826369 
-13.653860 21.452852 4.688179 
-24.154228 -3.212735 7.509020 
-18.452971 -1.087846 10.779593 
-31.298935 -4.421296 -0.497699 
-22.600086 11.807819 8.469012 
26.757172 3.731541 -3.368579 
-9.777040 29.158638 3.132786 
-27.551132 -10.416533 5.223437 
13.926534 30.338047 13.972779 
27.210300 -7.074701 -2.253964 
-8.735686 31.974606 2.024960 
-15.882276 28.137764 8.252200 
-18.167639 11.249911 -4.846564 
13.796227 27.724577 6.196258 
-5.540609 30.710907 7.756034 
-19.959536 22.222410 14.137741 
-29.677393 -1.298188 13.929755 
13.100405 25.800898 6.218798 
27.382414 -5.619751 -1.845705 
-11.149800 19.170942 -3.745450 
5.346804 25.510803 0.955963 
-20.865353 -2.333878 3.218984 
17.837065 27.307329 15.267212 
-6.763458 22.547871 1.352644 
-27.721218 4.355938 11.310176 
-27.981321 4.977293 9.902768 
16.772322 21.657288 9.765201 
-23.843023 7.806791 6.399950 
26.042580 -2.646123 11.626439 
17.125313 7.846562 -0.780438 
-9.312773 32.039669 2.669475 
-25.147144 8.238466 0.874817 
-9.197964 16.687246 -3.977893 
30.738361 -9.953382 16.363726 
30.234051 -6.690230 11.191223 
-25.378780 6.624368 -3.500465 
-17.428478 6.618202 8.219834 
15.704293 21.529543 9.549011 
14.126310 15.236975 1.953409 
25.993849 -6.722717 9.020409 
6.086906 19.098074 -2.466929 
-0.549796 26.089943 0.137978 
21.394945 14.012594 6.224046 
-26.854610 -11.641070 6.925081 
-8.664209 23.227324 4.469889 
-17.719763 10.059647 2.239477 
-19.433886 16.710711 -8.600242 
-28.568218 -3.399225 10.189054 
-2.902958 32.375721 4.170415 
-17.737953 -14.149420 10.427105 
2.980932 34.364742 9.711676 
-23.851116 -6.555492 13.163723 
-25.936449 -10.908762 -0.639298 
21.093424 7.633712 -0.404493 
-8.964797 20.870049 1.261237 
-18.478872 -2.418693 6.491114 
10.408548 25.686480 5.639103 
17.872883 2.771293 4.750286 
0.368011 26.210222 1.880404 
0.284922 26.334286 3.359604 
-15.573717 28.329351 12.581880 
20.381048 10.633106 2.802903 
-11.780218 16.198606 -2.669281 
-16.113478 4.882241 -2.906958 
2.352422 29.154413 -0.065465 
22.720818 -12.035852 5.552679 
24.483669 13.572466 7.404990 
29.874708 -11.495110 6.099620 
-26.433754 -3.217097 0.143163 
-10.791272 21.513405 9.236294 
-27.127804 -9.235587 6.486143 
-4.456420 29.146255 2.333559 
-7.689529 16.785320 -8.644491 
-4.565043 24.744024 1.646261 
8.300429 24.322098 10.539680 
23.499435 -12.836167 -1.993564 
-12.376148 25.137957 6.907275 
9.589802 33.086243 7.581583 
-11.205931 21.353197 -0.033809 
19.077393 7.390597 9.975667 
2.388798 29.035606 6.581907 
23.577414 -7.673134 -3.473627 
28.832224 -9.105345 13.113769 
29.434958 -4.673264 -5.233624 
-15.276709 22.213621 -2.846183 
21.680405 12.019736 7.209192 
29.325529 -9.580208 5.435727 
23.404507 -2.923308 -1.867060 
7.003455 24.079512 13.790775 
-33.271103 -13.622763 -5.786269 
-18.925169 15.648766 7.439610 
-23.349220 13.641879 7.521634 
-28.953794 -6.756920 0.099128 
12.772265 17.430887 13.934815 
-23.581505 3.591131 5.031870 
-1.992758 24.948360 12.547912 
16.074629 22.413197 3.264483 
-17.037529 3.771260 9.912581 
-26.394272 0.450839 1.805308 
-24.986927 7.252523 8.052858 
7.577409 19.993368 -1.491495 
-7.910000 25.261738 8.233016 
20.442066 -8.443486 5.039969 
20.216307 9.939145 3.546228 
-13.353656 27.294022 8.874037 
18.054283 0.677395 16.113316 
18.853971 -3.860950 7.354208 
17.534285 7.792659 4.258450 
-27.159315 5.082885 -6.583460 
24.877508 10.648508 9.813250 
26.406309 4.889511 11.638453 
12.727924 22.072203 2.509067 
-19.756296 -14.534524 9.936054 
-26.917301 6.892163 4.434632 
-19.693274 9.398764 -0.243104 
24.203396 -13.235144 -1.583708 
26.152712 -7.072380 13.014428 
-7.148104 20.236563 -0.995514 
18.159657 6.836720 6.438068 
-5.585428 30.285873 4.297807 
-11.657749 23.832180 -1.285009 
22.144188 -4.262410 10.778461 
14.338824 16.623713 -1.685826 
-16.657677 26.301439 2.454148 
-24.513552 11.308724 6.452360 
-17.545031 21.360516 5.011596 
-19.906046 4.064937 2.691022 
20.006943 -9.759653 6.902411 
30.390562 -11.037728 -0.528675 
1.415851 20.768698 -5.019969 
29.715185 -12.860126 12.628955 
-21.132629 14.199021 -2.172149 
15.572573 1.958844 -0.300989 
-23.936300 8.351384 3.613752 
29.343685 1.871089 14.841422 
20.277607 -10.687467 -3.876258 
-14.415294 7.379230 -7.764147 
-28.325588 -0.238508 9.388142 
20.357868 -11.928448 2.139561 
19.545471 17.913666 8.085839 
-22.705727 -14.980330 14.982126 
11.582379 20.947329 3.198528 
14.046813 15.987299 8.790910 
18.504269 25.759586 0.661335 
14.016068 21.344046 -3.744023 
13.183925 30.690125 14.063317 
9.209682 15.778358 -2.828368 
19.635374 -10.266560 1.868727 
-22.086504 -10.696445 6.244579 
2.206251 30.048140 6.346859 
-29.673328 -2.355357 11.919326 
-26.337805 -3.611017 -0.578616 
9.806381 14.063114 -4.099535 
-18.010338 -6.258063 13.209820 
9.898479 27.041731 4.130362 
28.571798 0.250698 9.093827 
-1.438294 27.236088 -3.677832 
25.130339 7.620426 4.587061 
24.650911 -6.031181 -3.090516 
25.444733 6.126828 7.526572 
-18.623337 0.230668 3.607308 
25.784435 4.162218 -7.598533 
-10.823377 18.084908 1.789392 
-15.760558 5.668565 1.462096 
-6.504976 33.510887 1.891281 
26.140808 11.114059 15.725046 
-14.144141 22.144083 2.725822 
23.060747 2.966333 4.667310 
13.336761 9.688702 -2.687776 
19.727684 -9.792585 15.385468 
-23.522264 -14.205993 3.299612 
14.829293 21.206781 2.510113 
-27.486309 5.749749 7.716702 
-17.264019 19.123344 0.937084 
18.858011 7.779806 2.007281 
10.214325 35.669968 4.912724 
24.749557 7.606337 6.334692 
26.839806 1.832512 -1.504313 
-23.029804 -17.507334 8.801074 
9.062882 27.770941 2.080213 
-17.498451 -0.787963 0.378640 
18.542679 12.050474 4.416450 
11.044652 18.431200 -5.198568 
-15.336142 6.967984 16.144636 
-21.696955 -11.771128 -0.375427 
-17.365337 11.793461 -5.001889 
-8.567430 25.517704 8.731224 
-18.755894 14.434666 -1.886144 
-3.201836 34.037491 10.219205 
-29.864697 -0.031073 -5.338859 
-30.235817 -5.903573 15.626911 
18.983459 21.338144 2.274890 
-10.284012 19.276262 9.468137 
0.527333 35.184982 1.801994 
-27.349167 7.253282 11.506031 
24.231941 -14.568096 1.185594 
-18.280851 6.786711 5.583290 
-5.337924 22.565601 -0.885960 
-29.445436 -6.385265 3.446947 
15.483153 7.116393 2.024614 
-27.235336 0.974349 3.108878 
26.567595 -5.892245 4.884161 
-10.289950 31.827177 2.746005 
-26.030621 -5.229419 13.064135 
15.714317 30.061821 8.496504 
18.925564 -1.896551 -4.190295 
1.900705 23.662712 0.347746 
16.975311 1.522484 -3.258999 
15.136331 24.280422 2.684139 
-18.444733 1.995281 3.453223 
18.013218 7.439068 1.651659 
-9.169247 31.974592 12.952103 
-24.548155 -11.551588 4.093089 
-6.115499 21.631792 -3.415853 
21.132130 -8.671846 -3.014667 
23.873764 6.471549 -1.359958 
-4.145688 34.008049 9.967586 
-19.006231 -5.062180 -5.378109 
-13.092017 12.553415 -1.592169 
16.731123 19.386993 -3.459677 
15.609640 8.210719 -2.758076 
25.723558 10.581848 6.311109 
1.832268 25.422529 2.918022 
-20.653393 -4.376038 11.004495 
-12.498808 14.032895 11.207973 
15.531365 0.758554 -0.274514 
5.022438 33.939529 12.156239 
8.632079 29.649502 10.245435 
-17.743404 -0.954439 16.413494 
27.879345 -6.896026 -1.803647 
16.887297 16.966230 -2.448660 
2.332344 31.697929 4.738911 
-3.274565 29.118757 -5.589344 
-27.906685 -0.743395 6.091301 
-31.924639 -11.931746 -1.005270 
-14.538338 9.169187 16.069044 
-10.437022 20.897688 1.520029 
13.032262 24.156410 4.944148 
19.215792 2.199117 12.402830 
5.042355 33.401314 13.791425 
-23.683748 10.357714 2.692765 
-23.317059 9.752060 10.085356 
-20.983406 20.859173 12.219798 
-0.903911 34.265041 11.151442 
5.346697 25.860083 10.172961 
9.180921 27.008951 7.537733 
-30.800350 -8.774543 3.512278 
-17.300854 0.641413 -2.478223 
18.561235 21.874300 1.394450 
18.717171 12.333851 5.276566 
14.358024 20.438257 8.518828 
15.689013 21.088070 -7.083052 
18.458803 -3.796152 13.839622 
8.784149 29.130756 5.555329 
26.009989 -5.503680 -2.517920 
5.306628 26.851397 0.045849 
5.657012 35.525574 8.063916 
-12.499197 13.774671 -2.716676 
-22.604399 13.973314 7.140609 
-19.970320 -7.479352 -6.389646 
12.655360 15.166340 -3.362832 
-21.034542 11.422242 0.642981 
11.081964 17.202257 -1.883828 
-19.740183 0.205991 -4.547862 
22.813704 7.465533 9.887341 
16.902557 24.434196 8.356569 
-18.854710 -11.913864 9.943852 
9.994069 35.302090 6.086976 
27.662945 -9.387115 5.898916 
24.860538 -1.494116 -3.847386 
-31.845921 -5.719473 -0.252154 
-6.785169 23.351894 2.140491 
16.269554 1.914345 -1.783472 
25.671112 -0.894119 -2.878676 
-18.927698 5.767898 -4.415727 
-22.033648 1.065443 4.067323 
-17.726053 -8.021513 14.534686 
11.692013 14.904114 -0.643196 
24.167244 -10.772509 0.815345 
-14.674286 27.420265 9.817515 
16.102510 29.125235 13.706226 
-16.644447 25.240786 0.833248 
29.676559 -6.822825 -0.168769 
26.111692 12.556625 10.243594 
12.743112 23.810156 -9.351088 
16.117928 16.790953 8.316031 
17.643841 7.357511 5.235065 
12.448840 32.600269 4.479557 
-9.594460 27.547188 -4.406136 
-20.869089 20.801342 13.287724 
8.684252 31.235691 7.563002 
16.735384 6.206574 14.552898 
18.517496 25.572960 10.471147 
25.598980 -3.792119 7.313495 
-22.129189 -7.344436 3.854795 
-19.490244 -4.006349 2.765025 
13.756985 26.813341 9.146026 
-19.825607 3.737167 -5.066914 
18.508900 26.212776 1.541176 
11.773266 21.571266 -1.363846 
-17.567774 5.098768 -3.308404 
-22.184990 -12.693864 0.977549 
2.954041 28.971560 -1.814392 
-23.209328 -20.117617 8.553458 
19.884180 8.993793 3.230269 
-23.880577 9.269526 -2.601574 
-20.271547 -5.329455 7.481443 
-18.104479 25.889889 12.063071 
-15.662166 4.765424 1.593974 
20.434013 -3.997800 -0.088456 
25.532440 -10.705764 -2.589166 
21.944244 -6.580190 2.564169 
20.376038 -5.345841 0.724564 
-27.598959 -12.043834 10.072604 
9.885332 18.173523 -4.787043 
-16.291605 14.277261 7.415546 
-26.460976 1.244092 2.533760 
1.630363 21.772488 -2.242824 
-15.073900 10.206795 9.153015 
-14.209773 23.833197 -6.089697 
-29.159639 -16.870920 8.070315 
-2.612002 24.469967 1.382978 
12.034595 27.155331 9.783453 
-26.106113 5.631228 11.554608 
0.211936 27.313362 5.970469 
-18.202278 -16.110853 9.706519 
25.421440 5.988274 -3.922376 
-14.838971 23.431578 -5.143712 
-3.227999 24.910292 -3.520683 
-21.437181 14.296077 5.410379 
-21.955036 -4.758474 -1.581785 
19.357759 8.824040 -0.716056 
9.141959 23.697018 9.975272 
5.643245 29.046179 -2.344750 
21.022106 -13.078053 -0.699366 
21.441910 -7.261327 2.438848 
5.348881 25.280584 12.195581 
12.727353 15.077253 -2.404347 
-29.770214 -8.701169 3.461409 
-24.283789 12.651827 4.803230 
21.716364 -5.118711 -1.035236 
2.700164 36.164902 1.774118 
-11.128060 17.327505 -3.375323 
-5.140170 28.398172 0.571844 
30.338646 -8.068124 8.870785 
-21.469387 5.538156 -4.859047 
22.578564 -2.863892 4.713060 
20.444838 10.788896 7.892429 
25.000376 -5.093555 12.305453 
-24.010590 13.134210 7.098425 
1.048560 28.298758 6.707723 
19.141014 0.911996 -5.852789 
-21.565556 13.182819 2.352330 
-3.080247 28.682388 -2.841973 
27.294558 0.019539 12.211061 
-22.952293 -14.766144 -1.040063 
22.355568 -6.270061 4.440545 
-26.779623 -12.356399 1.019681 
-26.640699 1.303652 -2.860246 
10.609045 32.952866 4.495693 
-19.762489 -3.485132 5.455810 
-29.496029 -8.564527 4.229124 
2.367978 34.528713 7.089895 
-28.196163 -13.761530 8.718445 
-16.892229 23.159964 7.374660 
-16.398123 -17.405252 13.482979 
-16.641018 2.312251 13.903074 
14.277952 14.206363 11.603412 
9.854159 35.573673 2.747660 
24.547232 6.875721 -3.568651 
24.382057 1.202124 12.868272 
22.542877 9.435350 3.346360 
-16.621012 27.058352 10.296748 
-13.876509 10.574394 -1.013955 
-18.930151 -2.970122 9.355292 
-8.610570 17.669706 -3.372895 
-2.109054 26.809566 -3.929487 
19.486971 -6.776228 -0.702811 
8.613363 14.798315 -8.515019 
-19.093048 12.947077 9.109354 
-11.055768 25.862576 6.187141 
-29.570574 -7.552629 0.905358 
-24.712418 4.499752 4.079430 
-12.528723 24.398077 3.175125 
-14.620297 15.507040 1.258295 
26.612762 10.941031 11.285233 
27.138596 2.328867 -5.480775 
28.318382 5.777344 13.170866 
-26.761280 -20.730871 12.122516 
-21.846670 7.351858 7.498506 
-1.265657 32.960724 15.219738 
-25.690022 -7.603596 7.092741 
-11.891916 23.781570 0.609408 
-18.423517 -3.849387 11.561988 
-25.959959 -12.500601 1.104197 
-14.348023 7.439194 -6.557993 
29.372389 -5.738059 4.651751 
16.107878 18.819691 7.082880 
21.784571 23.090267 11.338240 
-19.411045 -7.519145 -4.087190 
18.449270 0.128945 -5.764005 
-21.227573 14.031576 2.869799 
-28.612839 4.394366 13.665827 
15.874661 -0.229409 -0.588160 
24.938944 -1.058032 3.049265 
-16.761408 23.974079 0.872982 
-19.145777 -0.547492 3.828584 
22.583067 -5.467396 0.171731 
-9.812526 32.011658 5.735368 
-29.361122 -9.390995 4.286635 
6.420645 17.866793 -4.735508 
18.234148 11.215806 -4.594564 
17.536402 2.581266 8.759216 
-16.699785 22.420101 9.768529 
-12.713948 16.986002 -1.686346 
-10.561923 29.111790 10.460469 
-9.251386 25.480236 6.211222 
-10.202195 26.259380 4.117707 
-2.255217 28.256956 -3.189275 
-21.714569 5.187921 12.027959 
27.413017 -3.155597 -0.547495 
11.547564 14.909223 1.374510 
23.848925 -14.312565 -3.067873 
28.497999 -13.377329 -1.324101 
-26.652803 2.099242 -3.002125 
29.406376 -12.398361 -0.311851 
-14.470894 11.550841 -3.197571 
18.068691 24.348703 -0.115198 
-10.761650 23.360949 -3.974653 
-5.678603 33.153378 11.540724 
-18.501337 -0.830672 4.407691 
18.754335 20.933075 2.997261 
2.825981 33.109520 9.195650 
-26.491041 -5.438809 6.308614 
-26.693604 -2.726498 10.878498 
-29.294611 -8.253183 12.783609 
-27.609028 -0.765710 8.476212 
13.883357 5.952031 -6.418866 
-13.962723 27.602068 2.991348 
-27.715641 0.456923 11.370877 
-14.356739 15.987217 -1.767830 
-19.268839 12.758553 3.370942 
25.239170 13.095246 7.880035 
-22.900440 9.801610 7.887251 
7.481417 26.842026 -9.611167 
28.739244 -10.188684 13.103696 
21.065557 0.597467 4.382683 
-17.685902 16.621590 -1.165470 
24.056786 18.456173 11.492500 
15.170026 15.911761 -0.022040 
-0.915423 27.081079 -1.897885 
-10.942132 24.238077 -0.659852 
-3.669381 24.217918 1.129650 
-26.921644 -4.326296 -1.357827 
-12.977585 24.916391 -6.074091 
15.728558 21.511992 -3.736923 
3.016324 24.332647 -3.067570 
-1.525860 26.236776 -3.627901 
21.891304 -12.701836 11.135199 
0.443777 29.953325 9.398004 
-27.225357 -8.690080 13.499583 
-8.425021 32.342041 9.426661 
8.896625 22.711363 3.456681 
24.467072 -14.799076 -0.052813 
-27.558506 6.549393 10.736081 
-20.464193 -9.584507 6.755856 
-1.228544 29.834127 -2.152491 
-18.243204 -0.098628 -3.552873 
-21.053427 20.922050 10.410433 
-19.383968 -6.929070 2.541657 
-25.152403 8.065576 -0.714173 
-19.786478 22.991360 11.306873 
3.091354 32.776405 2.658730 
30.445915 -2.740410 14.602811 
21.217682 12.288566 1.717391 
24.717520 4.748029 3.913547 
-3.316973 35.030304 7.615085 
24.029688 2.468918 12.749968 
14.267109 13.412946 4.130285 
-28.098635 -0.087586 5.443717 
8.479221 15.805907 -4.327030 
-13.130948 23.381054 -0.951205 
-8.399744 27.464308 -0.039135 
-11.984354 30.443758 13.995904 
0.411026 30.654461 9.928596 
-6.541437 35.361115 2.989559 
-13.164691 24.211428 -1.967231 
-27.295771 -2.686031 9.831648 
-11.022710 26.509752 -5.526076 
-22.107113 7.333536 4.699376 
-25.237415 -9.380603 7.086039 
8.882781 27.431824 -1.829377 
-20.024782 6.669414 5.149931 
20.090214 24.943888 15.326814 
21.884550 -7.620699 -3.531292 
26.311066 11.897100 12.347346 
19.469303 15.313613 -5.939191 
-26.831491 3.784202 2.442176 
-19.595095 -10.386271 3.897943 
15.983314 21.435720 3.281545 
-5.325249 34.340397 8.494019 
-22.912580 7.539454 -1.393857 
7.215846 29.020861 7.050443 
-0.323175 24.955282 1.118594 
-12.545473 18.489212 2.879577 
23.109449 9.638743 2.792016 
-15.184651 26.226927 7.799222 
-34.910461 -9.273483 -6.178193 
0.584548 28.860039 3.179479 
15.442752 10.269710 -4.456402 
-10.528551 24.027020 8.782414 
6.142199 27.284584 -9.647310 
-28.492664 -10.427087 4.708332 
14.671525 29.956198 13.879489 
14.709232 4.263467 -6.247557 
20.465742 -8.885436 11.650415 
26.953566 -0.529299 3.099111 
9.372214 23.640793 -0.790012 
-21.173477 -2.980613 2.731035 
-16.255060 28.112293 9.939998 
-23.010544 0.904361 12.614265 
-7.442214 31.842180 7.665330 
6.254170 23.005148 1.754701 
-16.168016 3.119449 -5.003032 
-25.083900 1.212175 3.648432 
-34.624275 -10.802364 -6.039496 
-6.135437 34.088440 7.509731 
-16.648226 26.943453 4.864436 
30.972305 -6.238318 10.251604 
-20.643961 12.954884 10.069268 
20.040791 6.951702 9.701744 
-21.141222 11.560328 10.530600 
-14.754690 9.745838 -3.999361 
11.126730 20.934214 10.712290 
12.013919 9.779669 -8.067588 
15.085706 21.194525 -3.260319 
-8.059646 21.312037 -1.619976 
15.158523 11.876580 14.185361 
-25.147806 -1.144084 1.439340 
-16.157362 4.077943 2.800932 
-20.961243 13.579613 -3.452309 
27.296051 -14.133618 -1.388418 
30.732773 -5.052841 14.759656 
-20.228226 14.287932 2.163700 
0.837739 34.134552 7.640623 
-2.407437 35.122887 7.359168 
-18.778004 15.759932 -0.101859 
5.999600 24.978931 -2.737945 
7.062899 36.464882 6.461055 
-5.710895 34.846107 7.062375 
22.515059 10.260602 -4.459243 
22.107889 -13.895055 -0.125180 
-21.695219 -17.694265 7.850295 
3.331579 29.435413 -0.548209 
-16.321100 19.786051 -4.148255 
-17.064121 15.461132 -1.334337 
13.473125 31.727921 0.585625 
25.882732 7.937668 8.580250 
-21.185101 -4.066674 6.380344 
13.788318 21.397406 5.616795 
15.028027 7.351512 1.088567 
-19.839003 15.861859 -2.509038 
19.631487 13.435580 -2.292333 
27.729248 6.573076 15.858568 
-17.608400 14.962943 7.425398 
-27.399773 -10.187620 13.294830 
14.337998 23.970167 9.713519 
28.522818 4.819168 14.615884 
-24.688963 -10.213305 6.913419 
-23.263968 -16.419289 14.241949 
16.197096 8.517351 3.554381 
-30.337040 -10.659804 13.668831 
5.393320 23.809332 0.083469 
-22.194454 -11.799754 9.410866 
20.862591 4.533117 4.246639 
-0.806998 19.940426 -8.954535 
14.454192 19.183884 4.734021 
-12.077285 31.339399 3.761189 
-27.189342 3.464921 1.639632 
4.523565 18.510046 -8.840914 
27.787424 -7.989328 5.295031 
24.308409 -3.634948 0.516285 
18.779480 27.279469 12.949539 
26.309792 6.715224 7.789052 
20.019453 -7.283140 11.171179 
-18.104467 -0.414177 3.622257 
-21.470001 6.537107 -4.692297 
-21.614220 1.383208 -2.214583 
-16.425434 9.629349 8.198058 
-26.372753 -2.231034 2.986016 
-1.714105 30.298468 11.414293 
23.814508 -14.101427 7.771621 
-19.072855 2.060692 11.963884 
25.015032 -12.822495 -1.652706 
-15.589430 27.752487 5.857443 
-22.976929 -7.622939 4.075289 
23.420986 8.455267 -4.190352 
-19.993593 -2.404587 11.384841 
12.976218 10.619199 3.500614 
12.513353 10.749701 1.761747 
-8.956288 19.861486 -0.705438 
7.931398 30.195255 5.887736 
-14.771421 23.509729 1.674192 
17.516588 1.999285 5.172641 
-23.400154 -7.964792 10.153073 
-0.593143 29.563190 -4.248666 
-8.908752 20.731930 10.518029 
28.248905 -8.763755 5.151262 
14.109230 30.580442 12.850568 
22.988047 6.086119 7.165447 
-20.882599 8.226459 -1.966175 
8.199586 24.406679 5.458554 
24.739408 -2.138229 1.054665 
-16.330017 5.428321 -1.202240 
12.893007 16.497040 2.530007 
22.079517 11.129369 -5.732797 
-17.135866 20.491877 -1.337790 
-17.824903 22.158548 6.111470 
13.583269 15.647552 13.320080 
-6.770240 28.481842 -2.103668 
-0.580595 25.740814 0.876758 
-10.634218 30.793995 1.092128 
8.217619 34.586845 3.638829 
-21.450594 13.974088 -7.407053 
-25.681854 -8.510455 7.085281 
27.699400 4.023103 6.657582 
-13.335853 26.893663 9.942950 
-7.497584 22.658249 -4.137105 
-15.164393 20.203959 5.302639 
14.722816 19.518438 -3.122400 
2.025005 29.436113 -4.995728 
-25.288237 -14.032360 4.197113 
3.768456 26.987579 8.840390 
-22.707342 11.584261 -3.194026 
-13.365754 12.740749 0.366189 
12.527928 8.900184 -2.242985 
19.822071 10.869442 3.363201 
-23.827023 -8.960008 -2.201313 
-11.938485 15.870923 0.401019 
16.836916 8.974007 -3.961130 
-14.945627 9.369740 10.330021 
-19.450331 -9.061399 8.584769 
20.821283 6.762140 9.264588 
-18.453646 24.230137 15.616816 
17.714245 8.602025 9.569169 
24.021795 17.787298 14.251872 
8.713348 29.372131 9.424502 
-23.359343 12.600090 2.622536 
-19.608894 5.546321 3.756225 
-9.263513 20.775873 -0.572414 
24.280903 16.501268 15.566475 
-4.367859 35.714302 4.437840 
-4.519065 29.721796 7.978503 
-16.978493 26.180607 15.544505 
-22.457355 13.084587 2.158826 
-19.959894 -15.589621 8.399641 
-17.176773 8.042016 9.530238 
-11.631558 20.927637 -2.238545 
-21.569187 19.254532 13.841430 
-22.945284 -4.255444 5.604103 
12.540064 25.237284 -5.052255 
-26.986879 1.281216 -0.424286 
15.117654 21.564882 -0.316408 
10.330160 15.763855 -3.097062 
21.698265 -13.233818 2.017931 
20.435495 -10.201378 6.033448 
25.576714 2.082095 2.850238 
-23.737829 -13.102453 8.630445 
-4.889836 30.143284 10.913376 
-14.619528 23.150707 10.915277 
20.734701 25.373724 10.327255 
26.260660 -0.619687 -0.250420 
12.509377 10.044837 0.583450 
-17.832996 20.104010 -5.421356 
-12.101801 26.779398 6.140821 
22.675947 2.619193 -5.310085 
28.498625 -5.351717 1.114570 
-18.234579 3.983273 10.107163 
25.346752 -8.313304 5.768115 
-18.379507 4.530864 9.236120 
-6.561052 19.044325 -3.227869 
-9.951509 32.008682 3.545075 
11.807744 19.889961 3.292694 
19.545357 -2.122935 -1.175965 
-18.520058 5.138752 5.497463 
-11.874395 20.233461 -4.501237 
-30.276945 -4.580943 13.569969 
-29.811390 -2.366549 12.892455 
17.141958 10.372037 6.463605 
23.408506 19.196144 14.239089 
23.649826 -0.693769 12.902993 
-30.690365 -16.585810 17.000809 
-18.595415 11.260542 2.907576 
-1.767433 29.776554 0.147867 
24.351849 3.943863 3.631988 
-20.515284 14.364993 -2.873710 
27.075769 -9.349934 -2.263634 
24.660343 -13.303427 11.677567 
-26.970623 -16.791485 12.431875 
19.579933 11.162630 -0.922104 
21.743055 9.518470 3.774767 
2.745778 27.919243 -9.694437 
16.339161 29.537401 11.049074 
28.174809 -0.712439 5.244082 
-9.336547 23.073044 4.896874 
15.146024 29.210926 15.225284 
18.370544 2.715117 10.892081 
-12.950081 30.233994 8.639654 
-27.246008 4.507164 -2.737754 
-26.608356 -3.702617 12.385145 
-17.751011 1.276585 9.613975 
-28.373945 -11.817465 11.096916 
27.162819 -0.489829 -1.484107 
22.337866 -5.761219 5.109719 
4.150840 26.361235 4.396540 
10.973591 15.101538 0.783229 
-10.961165 18.270111 -3.253586 
21.109081 -12.031097 -0.899007 
30.699234 -9.916786 -6.328593 
12.000212 21.193153 -3.297485 
22.585981 -4.511664 2.877639 
21.182394 -13.136210 -1.587255 
-26.790815 -7.563637 -1.454398 
-17.261843 9.177102 -4.250279 
4.871910 29.443260 5.831659 
-4.005876 19.321491 -7.126378 
27.597685 -13.928475 -2.674818 
-21.506643 14.407521 4.460902 
6.085526 17.283665 -8.733908 
-25.322870 3.636920 12.425972 
30.108089 -7.440008 -6.552872 
10.504728 16.261856 2.836381 
-3.492440 27.440132 8.912423 
-21.784409 -1.267059 -3.874335 
17.450584 2.078249 3.096444 
-23.637232 9.501144 2.981764 
-2.010317 35.884148 3.527064 
2.495137 27.454067 6.678442 
12.887146 9.541435 -0.978829 
2.458895 19.898821 -7.200189 
-20.972057 12.628709 -3.960668 
-29.838846 -12.924136 1.167962 
-18.092831 3.068821 3.787992 
-24.899281 -13.138562 12.169150 
-15.802710 4.983172 2.398394 
-19.994631 9.614498 1.743952 
-9.345304 29.074532 7.685168 
-21.265366 -20.659159 10.914290 
-22.322676 -12.332378 7.725303 
21.277697 -1.610456 -1.040666 
-21.473526 -20.322876 9.766379 
8.967638 23.028891 12.112780 
11.135972 25.688242 -2.328277 
16.561197 6.947854 12.386642 
-10.868940 27.973812 3.724873 
18.053509 5.088697 9.435544 
24.274426 -10.203531 4.580885 
24.114697 -2.179224 -3.424446 
24.786049 -12.833879 4.856292 
-21.848894 -12.937948 2.208833 
27.311445 -6.320708 4.607217 
-17.920004 1.409263 3.217846 
-28.222687 0.660079 6.732493 
25.064621 1.604451 -4.323329 
-23.738979 10.657574 -5.526608 
9.561850 19.134949 1.974830 
-28.805368 -16.103828 7.726468 
-26.635532 -1.865631 4.494914 
21.350374 6.588776 4.383693 
17.603062 -2.267415 -6.985339 
-17.461985 8.009037 0.878277 
-30.216593 -4.647287 14.473867 
13.696226 8.168245 1.637413 
20.205217 -8.558613 -1.511770 
-11.027880 25.455868 7.442904 
-21.553017 -12.157305 0.659042 
-20.387037 -11.011848 8.261305 
3.436853 29.293375 4.177317 
19.557304 -6.723551 10.133557 
24.071787 -10.447607 -3.040995 
-28.502106 0.663970 -1.710007 
-1.229644 24.354544 -2.830405 
-18.965788 11.794153 10.221472 
-13.580974 20.053860 4.676326 
12.184944 32.104027 8.648722 
-18.021646 12.252919 9.059133 
-12.814729 24.316984 7.179280 
-25.940645 -9.695629 3.700842 
-23.567656 2.076605 -1.625600 
10.982277 20.204355 15.540830 
25.995096 1.245799 2.302842 
7.413160 24.690802 11.023707 
20.884384 -9.516932 3.724413 
-25.119822 -3.637817 -0.971130 
-6.925809 29.379410 2.748594 
-26.874218 5.621956 0.038228 
25.080019 6.354595 -2.685388 
-15.154450 8.635679 10.724018 
17.137959 -1.217507 -1.992401 
-23.225130 -15.886618 6.038027 
-20.491369 -0.886727 3.319088 
-16.217333 15.600010 -0.727161 
20.674004 -11.851728 -0.237768 
-21.575834 -8.422368 -2.518815 
27.863964 -1.612853 7.819188 
8.903419 36.805759 6.107392 
-18.177532 14.529764 3.568604 
-17.996948 24.907816 15.592079 
-17.862316 24.804173 7.715450 
-10.786505 26.276184 0.032976 
-24.342249 -2.251352 11.147415 
15.640911 17.069016 3.353894 
12.946030 19.667080 -2.074282 
14.852292 14.550933 -0.424805 
10.556665 24.306526 7.259720 
15.629276 26.052309 7.320463 
-9.596993 23.839380 -4.384871 
-29.298910 -8.486887 0.864352 
-17.874758 -0.909510 2.960025 
12.623885 14.880997 -1.219595 
0.119911 28.717920 -7.634086 
-21.490360 14.416915 -4.514559 
19.561689 26.140587 6.011870 
12.334254 21.800858 3.252644 
8.798943 31.050102 2.373348 
23.621498 11.743814 7.646611 
-25.030739 9.083880 7.645683 
-23.903498 -2.762045 4.322006 
5.339062 24.565786 15.441141 
12.780806 26.671211 4.225971 
19.519691 8.086222 3.141762 
9.791144 16.490616 -0.569547 
-6.202160 18.453119 -5.435014 
-11.804673 18.334267 2.446399 
-14.315453 20.950674 4.447109 
-4.218174 28.875124 -0.628760 
26.597736 -13.713460 10.217111 
20.710705 -7.622856 4.844320 
17.655846 -3.326458 -4.104683 
-21.919149 -9.959051 12.498425 
-20.656294 3.818970 3.146719 
-6.410965 27.116537 6.803888 
-21.253496 -16.612204 13.250650 
-14.620440 11.383587 -4.004488 
-26.767832 6.509069 -4.185242 
-19.851553 -11.514711 2.556522 
28.240145 2.982747 10.924086 
6.820485 27.312208 1.810426 
22.596462 9.355891 -3.282840 
-6.950024 20.297100 -2.977797 
-24.410507 -1.575732 8.967230 
-20.221666 -13.973232 10.827617 
28.303425 0.440046 7.248064 
-6.557610 31.874832 7.048131 
13.792206 17.072712 -5.123052 
19.863964 5.418793 -4.352551 
-30.918358 -11.785417 0.896426 
-28.667927 -1.192825 -0.348004 
29.884218 -10.662127 0.747993 
-19.081604 0.678837 -4.654893 
14.130883 15.500667 -1.608607 
-24.477819 -11.548419 6.090737 
-6.183867 20.585974 -2.943099 
14.101867 21.290751 8.919382 
-20.992393 7.870341 -2.823821 
14.395664 15.399769 -0.119480 
-14.729426 25.075417 0.631535 
-16.280697 21.985065 2.383745 
13.990915 14.917159 11.145446 
-24.049002 -8.538097 5.029562 
-20.635529 10.611039 10.634835 
-23.334848 -11.233335 6.573653 
4.064509 24.603823 -2.940568 
18.298616 -5.394095 -4.533333 
15.090843 21.627541 -7.934952 
-25.558718 -16.296894 14.885126 
26.020760 -12.173228 9.350848 
-7.753550 26.629059 -2.509082 
23.602598 -3.623814 2.035744 
19.293825 -10.206556 12.116283 
9.466086 17.503979 -0.311008 
-24.325350 7.151165 8.679708 
30.508955 -8.724029 -6.436901 
-2.615866 29.788506 -3.080221 
-5.407800 24.488520 0.950437 
-24.360428 8.403934 -1.006600 
17.857334 2.329271 -5.014989 
20.186077 -3.877358 2.781467 
19.254824 12.975392 3.451771 
-20.171011 10.261695 -2.635720 
-27.416477 -2.800894 6.621510 
20.289618 7.707787 0.996892 
-29.095703 -2.196730 0.179706 
20.096226 9.054170 -0.014709 
10.787312 25.505434 -3.463247 
7.086744 25.981026 -3.543634 
-29.791111 -8.985878 1.706368 
-17.832125 -7.010405 15.419893 
-26.210958 5.979100 2.247641 
-24.234810 7.061125 -3.879306 
11.007621 20.302685 -0.166884 
14.763224 26.554590 8.863091 
-27.967390 4.803229 6.136474 
21.332542 -8.737430 12.064485 
-14.001031 23.293413 -1.510691 
19.188635 10.532744 -4.150124 
21.318075 -9.700686 -3.300014 
-0.423500 35.325253 6.311537 
-23.707766 -6.511174 4.681119 
-15.356050 6.947429 13.395511 
12.156019 12.715630 -1.069117 
-19.451826 -9.850785 11.026370 
26.534767 6.111460 5.393948 
18.270929 -2.915110 13.155780 
15.903479 -1.432962 0.821876 
-25.412310 -12.827084 0.614283 
-29.542343 -19.705738 15.431142 
8.000816 36.271580 7.298016 
19.160154 25.979040 2.561167 
-29.507071 -9.824554 1.799503 
26.141861 -0.313879 3.415239 
-2.310333 35.885612 1.535934 
11.942098 19.809980 -5.089897 
29.726583 -9.848622 12.017794 
18.333532 15.600595 1.368090 
13.763996 14.753951 1.352937 
17.064459 15.075646 -0.196536 
21.074375 10.657903 0.682891 
-16.271740 5.561830 10.814490 
-21.775810 18.610308 14.668364 
-17.896280 8.610465 -2.702033 
17.348951 28.739176 9.020329 
-24.815662 -6.477273 5.689569 
-24.340895 -3.705776 0.906477 
6.489009 37.126705 4.229239 
16.099901 -1.180910 -0.257163 
-28.293861 1.976883 7.750720 
-18.343874 3.691514 3.080921 
-23.023949 -12.446937 7.304557 
26.089100 -8.102266 9.227459 
19.509186 25.935291 4.104488 
18.406536 10.761494 9.791839 
-23.699429 11.106597 10.082626 
18.139317 27.507307 5.726738 
21.584234 -14.029216 10.154903 
4.540129 28.933661 1.745026 
-25.557316 7.346489 -2.011400 
8.743307 32.032787 2.890437 
-22.466284 12.484571 -3.723295 
19.262333 24.060520 1.045034 
17.793327 5.719985 3.208349 
-5.557561 24.856457 0.176830 
12.294065 30.723190 15.196926 
-16.608234 7.342627 -1.009774 
-16.537249 24.249374 7.784857 
-24.701326 10.002112 4.728441 
15.230695 22.234945 -4.131227 
23.753494 -5.340384 4.612475 
-2.054900 31.931042 4.513974 
3.398154 30.914845 11.226256 
2.177954 28.150105 0.024849 
-28.838150 -4.453717 12.255274 
-24.938423 -21.911539 15.099894 
-22.327684 -17.812616 5.859901 
1.307654 31.745230 6.066462 
-31.055216 -16.563398 12.625765 
-12.982665 21.004580 4.008796 
9.239235 31.374384 8.502130 
17.021065 18.716465 -7.745702 
15.997670 2.382575 -1.168943 
-14.851540 6.473094 -7.680013 
-14.266926 13.390588 7.849116 
20.818699 -8.288614 2.817770 
10.470876 17.583975 -5.043977 
9.211575 37.451668 3.077730 
14.886039 29.420052 2.007302 
-23.463341 -0.920924 -3.617904 
5.580598 26.140656 9.292052 
-23.865389 -2.147853 11.851778 
-20.398315 2.571311 2.513096 
20.598383 -6.017037 8.854380 
-29.695013 -1.094117 -2.346189 
-23.538342 13.551716 6.361976 
-23.574360 10.745412 -4.470213 
8.575838 20.398272 0.052814 
24.841837 1.876779 12.742598 
20.473520 9.376664 10.610828 
-10.397056 26.245296 -3.196844 
-9.050240 21.314447 -1.217278 
-3.597280 34.371311 9.359026 
-20.400568 14.755573 0.604372 
18.239199 27.347889 4.459363 
21.556751 -9.587746 12.189418 
5.367401 28.698862 3.168149 
18.059139 -1.874487 8.539323 
-25.457541 -9.048071 10.562774 
-20.698683 12.003117 7.876140 
-34.366348 -6.288748 -6.452475 
30.293617 -7.237178 -5.121728 
-5.655708 21.282240 -0.875946 
-5.962792 20.572859 -1.540001 
-27.477200 -1.230400 4.578672 
-18.948114 -4.569881 10.048526 
0.163620 27.992416 -9.692887 
-26.666647 6.759694 -3.064787 
-12.250028 27.824152 5.849210 
12.918793 13.433401 2.959116 
3.653499 19.690628 -5.589624 
-17.951897 -10.811506 11.411974 
17.555445 23.478964 0.637650 
-16.288984 2.840689 -6.462639 
18.049599 22.808235 1.155185 
16.679333 13.585990 -4.319173 
11.416047 29.562809 7.530801 
3.207504 29.816488 6.642615 
-30.629814 -15.706517 12.974116 
-15.406617 23.930578 11.110272 
-15.259116 5.964950 -4.372618 
-19.582727 -7.106423 7.060415 
-26.029142 -0.197747 0.474969 
25.082998 -14.503294 -2.875729 
-10.428099 21.584385 8.519876 
-13.776580 17.840841 -1.683900 
21.262589 -2.560090 4.411054 
-29.388384 -9.594628 6.760602 
-14.788924 6.652688 -5.321873 
16.343178 29.616491 9.920286 
-7.573267 25.849741 -4.133258 
20.526358 11.203403 -2.767759 
19.124920 7.028438 9.233079 
-27.788479 -12.576641 10.845016 
15.750341 0.774954 3.439333 
18.799950 27.638062 11.075790 
-12.866954 17.992016 6.610435 
17.271055 -2.263894 -5.205445 
8.408056 32.631149 10.380604 
0.032463 29.715410 -2.864125 
-14.889478 15.923433 8.105223 
-18.146187 -5.390900 12.904068 
-27.077524 -12.314089 7.438284 
22.551279 -5.087015 11.669869 
4.901710 26.191082 4.852774 
-30.722502 -14.502756 16.072157 
-25.641130 3.534051 -3.689802 
-17.920776 18.855785 -8.800940 
-4.326699 27.674898 8.941082 
19.738638 14.989477 -3.144631 
-21.786127 4.668908 4.125883 
-22.416962 6.267509 -4.583685 
-18.943365 17.436966 -8.668123 
9.391352 26.294630 8.222242 
15.823305 5.637804 1.895946 
-2.208325 29.400826 0.936444 
26.338440 -12.173310 5.536618 
27.686285 -12.161425 6.089207 
3.130376 30.803720 5.008023 
-20.314171 7.469994 -3.226056 
-17.941242 8.218061 -0.001036 
19.048897 6.461680 -1.493795 
23.730915 18.178223 8.493630 
-22.520798 12.035256 -8.163467 
-1.887203 34.063278 11.441742 
-30.421507 -18.654020 14.385657 
-18.237309 19.369165 -5.141919 
18.706758 1.079308 -2.498534 
-18.376526 -1.508954 -1.465015 
26.260778 1.685380 1.602572 
3.412192 36.034512 4.482639 
-10.456597 23.382734 6.578375 
-1.332381 29.679745 4.802045 
13.928173 25.906811 8.910410 
21.768423 22.128803 15.404778 
-26.698895 -4.556105 5.668358 
-11.399787 21.645796 5.571018 
25.860804 13.259718 11.727379 
8.038206 32.213276 15.179010 
-28.402027 -11.434503 9.521063 
20.800289 -11.477195 7.137699 
-10.311449 23.265034 -0.829265 
-15.046744 7.739944 14.737432 
6.254718 26.096043 5.241870 
9.998773 23.160427 -4.278607 
-25.503056 2.756440 -1.140204 
-23.758244 -7.780073 0.636745 
23.405415 -11.319780 -2.811662 
-19.280603 -5.974923 0.423806 
-14.702928 22.973253 -7.643655 
20.651667 -3.791371 3.966437 
-10.343645 27.166357 -3.846253 
-25.028086 11.916667 9.585022 
26.100307 -10.927904 9.392312 
16.804869 -1.174876 -4.804141 
16.625181 22.731264 10.152102 
-1.370244 20.446976 -6.215878 
-26.780193 -9.582021 13.449245 
17.443754 3.288311 11.805349 
27.837381 3.317564 11.703219 
-23.322992 15.373079 10.410299 
24.646908 -14.183832 8.501655 
13.812305 32.029026 1.274567 
8.139992 17.094498 -2.763642 
-19.196844 -6.759757 1.713858 
25.629150 -14.207067 8.697613 
21.839323 12.922488 8.477624 
21.580694 -7.385882 11.990185 
-19.792431 9.386379 2.599468 
17.585495 0.449349 13.211915 
30.024580 -0.460838 13.429820 
29.152512 3.022418 13.962766 
26.373373 -12.616474 3.422705 
27.999174 2.201821 6.270494 
26.842953 1.491286 12.332605 
-16.821943 5.067594 9.958779 
18.960340 1.301288 12.463475 
-24.406204 -6.536649 -2.510438 
12.415841 32.729515 3.549989 
16.569723 18.360958 -1.865893 
22.363735 21.607988 10.212525 
-18.304794 7.777181 9.771375 
-11.198878 26.633430 -1.723344 
-13.846046 13.921754 -0.587013 
-27.078667 6.821265 5.500463 
-23.790960 -5.297552 12.807468 
3.388410 28.566305 -2.612683 
-27.567377 -7.056871 -1.034352 
-22.411730 -14.537704 7.096390 
-24.106274 -10.437449 3.257499 
-25.891558 7.303493 -1.103796 
-22.547483 -14.099585 14.540030 
20.808361 8.868158 8.397939 
15.161890 6.274665 -0.711913 
-18.841421 9.855957 -0.859039 
24.228292 5.730524 10.883452 
10.732944 11.814224 -6.695766 
9.717584 16.663267 -2.608720 
-25.445501 1.069241 -0.157834 
17.222557 4.663821 15.992196 
-11.634052 23.366968 6.898487 
-13.370821 24.393406 -2.741545 
24.342766 12.297064 9.097353 
-19.979801 -8.876056 4.734139 
15.115911 10.497403 3.765832 
-29.384722 -9.752989 9.717500 
-14.402143 7.593595 -4.559909 
30.635120 -3.896281 14.630112 
22.049227 5.874671 7.328495 
-18.263687 25.856731 10.349713 
-5.860814 25.607347 0.347656 
-23.492943 -3.719775 11.999793 
20.236017 6.214356 -2.939854 
-23.303911 10.774466 -3.531286 
-17.185226 0.695994 15.365077 
17.347010 3.149142 12.695038 
23.817814 -13.784267 6.227563 
-19.777700 16.550327 -4.141960 
9.935639 13.079702 -6.925032 
1.185599 31.973167 7.502546 
26.037500 -6.159648 12.783154 
29.592052 -8.001733 2.697316 
