-0.157457 18.972273 -12.673329 
16.760035 15.196517 3.822478 
-11.886496 23.980551 -0.803839 
19.874741 -4.853862 -1.271937 
10.989686 16.501429 13.013509 
29.309752 -10.757049 11.677425 
-6.830768 22.078604 0.290541 
-21.453125 -10.708103 -1.144960 
-14.277517 15.469653 9.988297 
-22.860983 -12.869973 13.092421 
16.492104 18.588188 -2.730380 
-14.496623 11.287052 11.828473 
30.030371 -3.140191 -4.871847 
-7.736997 27.815054 2.729512 
-30.012886 -8.402119 0.376190 
20.884783 -7.231449 1.437788 
-12.070194 21.303396 3.452814 
-15.937993 21.818394 -1.419612 
25.010920 -0.790414 1.528618 
-26.466799 -1.173363 4.585938 
25.300192 -0.288173 0.224045 
23.702000 -5.582569 6.020494 
-21.077354 -8.958848 -0.370019 
-28.395880 -9.482596 13.241315 
6.494582 29.400219 10.718642 
20.682880 13.044099 9.940595 
-20.324736 2.378174 10.909334 
-0.601254 27.577059 2.224297 
-16.243931 15.650362 8.359734 
0.970549 20.690742 -4.567794 
15.904136 11.924396 5.160395 
-16.138371 9.646644 -1.172565 
27.141079 1.441238 3.789032 
-19.910715 18.825459 5.400148 
-25.478779 6.158830 7.136867 
12.906779 15.283342 11.226638 
3.306673 21.221384 11.995529 
0.955233 23.567627 -3.277748 
-9.737100 26.178223 5.846093 
29.933315 -9.758868 11.534329 
25.242041 -0.113634 -1.871645 
18.228529 3.589688 -10.163871 
2.479408 19.285162 16.643557 
-12.325125 19.376150 11.684778 
-21.883554 -8.627743 -1.539678 
1.740020 27.778753 14.008300 
21.608479 12.701147 5.926742 
-28.145868 -8.929634 10.693630 
-1.518491 26.352060 -1.223984 
-18.822725 20.350863 12.398536 
18.363897 6.606856 4.400500 
14.865898 22.438852 5.649588 
-13.379920 22.698296 7.067890 
-19.526247 -10.342243 8.504529 
8.439150 26.757231 10.163828 
18.495218 14.032198 5.054543 
13.081071 17.391771 3.361555 
9.107947 23.699106 12.581802 
5.567943 25.835348 0.915226 
13.037462 22.000580 4.861833 
22.838730 -10.595852 2.950990 
18.948294 21.038326 7.319714 
23.016037 7.077164 5.134844 
-22.920052 9.463381 10.809932 
-18.346176 8.494079 -4.039811 
-23.799612 -7.426109 5.818776 
-21.208881 1.813681 7.343357 
-10.188626 25.041588 2.078595 
-4.575092 25.639969 -1.275079 
2.459349 18.939461 -10.675188 
16.086306 16.696981 4.665197 
-12.224685 25.626143 12.017159 
-8.915987 25.940241 -7.785286 
0.611626 26.115154 18.457682 
-2.447326 26.959049 13.968122 
-15.527725 20.265520 -12.948603 
-22.829903 2.506522 7.768363 
-19.823231 7.785110 4.278819 
10.305453 16.071323 -6.386055 
-1.776147 24.287251 -2.623731 
-20.306787 -5.014391 -1.734372 
20.015545 9.838402 10.696043 
-14.243312 20.848284 9.333398 
0.752495 27.263794 3.367904 
-28.670160 -1.270571 -4.619733 
-22.401455 -9.174278 13.088531 
-17.501076 11.134655 0.361580 
12.163231 16.280195 11.172661 
-27.276514 -4.801539 16.253447 
24.867311 8.575955 5.328540 
-4.571082 23.567007 -4.336291 
0.839634 26.850552 8.803762 
26.410231 -8.997987 6.443709 
-0.687988 24.111065 13.990400 
-9.730742 26.345125 -1.390010 
-19.857916 -4.423046 3.008325 
21.055653 5.102148 7.063581 
-6.372600 18.982525 -5.500042 
20.388020 -8.266043 7.774942 
-2.019394 26.538969 3.375235 
-19.780855 -13.823058 7.336070 
11.591824 27.236696 9.478601 
-23.648766 1.723065 12.927314 
5.360048 22.861403 -4.171453 
22.729818 6.103764 6.938314 
-19.116709 -2.845409 11.304702 
12.381248 13.499557 17.025648 
15.560429 11.015180 7.283217 
16.804491 20.455853 2.138652 
-21.706673 -6.864058 4.464080 
-27.300467 -1.621425 15.673538 
-22.832563 14.157191 4.221457 
-24.609905 5.978538 9.224715 
16.641832 20.536789 1.091072 
-24.657539 -9.664814 10.958253 
21.716398 14.277306 10.736139 
5.838027 25.758484 18.304609 
21.830231 13.882784 5.455207 
10.287147 15.909039 15.893839 
11.797423 22.883196 -5.489026 
-20.560564 10.890296 5.195687 
-30.883797 -7.607912 -1.647560 
13.370159 18.374466 8.163890 
-6.981916 23.888742 -2.833769 
-22.492992 12.811765 2.917573 
9.645916 22.667080 1.205174 
-23.208883 -12.317243 4.478201 
-20.950268 13.547157 2.205861 
29.546925 -8.949993 3.239771 
-18.597416 5.699599 12.484558 
-10.011286 20.014637 11.161268 
-5.543812 29.362030 4.981031 
-26.778194 -11.302080 6.056178 
20.312822 9.097635 1.341082 
19.880501 -4.983119 3.660803 
-19.767963 -10.439573 9.436550 
-27.327909 -7.602087 6.305147 
-6.714160 25.218063 3.688174 
12.776465 13.633715 -5.517190 
17.489920 3.134218 14.798318 
-9.030450 17.029064 -5.416707 
5.233233 18.049744 -12.502888 
23.244818 -12.573378 9.127058 
21.948103 -11.353845 8.167286 
-18.593916 14.823499 -0.683249 
20.740950 5.436847 11.084599 
-11.299814 20.092331 -4.518845 
18.187538 7.696762 10.399974 
19.124895 8.519911 11.867593 
-23.096153 12.139117 -5.896320 
-18.102072 19.061022 5.037257 
-6.367797 29.302387 5.144069 
0.977479 27.445610 5.490786 
-18.952330 13.063882 2.182817 
10.997267 20.843292 1.869406 
-25.773674 -6.437801 8.877648 
20.058840 -3.498676 -1.678466 
15.646780 14.005510 1.024636 
11.442959 21.440063 2.435251 
21.338957 13.368577 -4.012033 
-2.656010 21.068150 13.376611 
25.548712 7.915805 12.685573 
-6.230566 23.377560 1.015816 
17.202736 11.972774 -1.329371 
21.484537 0.519998 4.932919 
16.781034 16.719793 11.088148 
15.437256 21.794771 -7.983835 
16.834538 17.034256 8.001618 
29.432199 -4.201002 2.110055 
7.197646 21.337965 13.199767 
-22.122423 -17.177334 11.382972 
-4.238984 27.728279 7.247948 
2.147404 24.611784 -4.958391 
-22.614498 2.245982 4.067802 
-9.560266 24.713238 -4.694324 
20.168629 16.079327 3.906928 
5.220799 28.397646 3.864212 
-26.049597 -16.011061 10.856524 
-18.168423 3.224063 -3.075967 
-14.724165 10.184490 -6.765221 
-1.506622 30.146875 7.923175 
1.322760 20.845434 -3.826603 
-3.827638 18.802549 -10.417764 
-16.313614 17.426809 -1.862567 
-0.793131 25.071051 14.982709 
17.588198 23.221296 9.128258 
2.773344 23.161470 0.274742 
-25.168310 -4.221798 -1.948098 
-24.130466 3.703024 6.332617 
-22.625639 -6.597741 9.047979 
-16.965969 19.839272 16.741026 
28.649855 -9.330497 12.224034 
25.841768 6.500176 12.396887 
-28.632687 -1.255150 -6.007773 
22.652348 11.950486 5.361011 
-11.564324 17.998053 -0.496328 
-26.582497 -6.296497 10.315309 
14.330344 22.941124 -4.412094 
12.390915 14.188025 -5.836629 
20.073437 17.301779 9.705108 
21.769867 16.090376 8.946054 
21.826939 -10.286965 2.377142 
-26.796068 -6.875339 8.765902 
-18.621614 17.216228 6.114500 
26.808680 -10.729271 9.458905 
-15.288837 22.794230 7.043100 
-20.704475 15.436983 3.800169 
-8.045956 22.784189 11.024512 
-18.054285 9.855564 -4.186974 
-25.829514 -3.500801 11.148436 
30.216394 -9.656833 13.544977 
2.378463 26.981897 15.501964 
17.363098 15.741110 5.824917 
11.012157 25.566320 14.774468 
-1.999350 27.656170 -5.247204 
-15.357860 11.188201 9.825393 
24.229231 -10.170326 12.201184 
25.958420 0.290563 5.295048 
26.776684 -5.571186 -1.116246 
-13.501664 22.879871 10.573545 
-6.389448 22.791197 -3.626874 
-16.300114 21.268175 13.221103 
-6.515584 26.501659 9.248368 
-5.073501 23.113800 12.133539 
6.418640 27.974867 1.248474 
-17.915646 22.416451 6.767017 
17.356907 14.422764 2.308820 
-20.824724 9.534710 7.886005 
-24.630348 6.148213 9.998284 
18.718010 15.826756 1.780448 
30.051018 -2.577672 -2.002022 
-11.124417 22.631544 -1.686362 
-19.579926 12.231582 -3.851545 
-17.394169 9.661129 11.877611 
8.138300 18.870462 12.543060 
26.188124 7.407112 -4.764022 
5.251743 23.684841 -2.119673 
-25.786615 8.563624 6.348566 
-14.769300 16.546841 2.110519 
-10.786045 27.881531 7.547859 
19.753405 1.358494 0.296067 
-8.417129 27.530703 2.555315 
-15.358742 10.697858 -2.032555 
19.353024 10.129784 -3.902310 
-15.070707 23.576345 1.568430 
26.382639 -2.889176 7.711684 
-3.130924 28.809074 0.509368 
6.114650 23.995703 11.101327 
30.389647 -6.336791 14.785418 
17.143461 22.288422 12.615608 
16.672173 8.873262 -4.218887 
-24.857588 6.979774 11.395093 
-22.444653 11.893968 -2.127960 
23.756109 -11.484919 -5.354545 
-28.035576 -1.105281 4.807786 
-26.520733 -13.261206 -3.534661 
-19.883484 -2.750655 4.533547 
-26.405670 -6.568386 7.954831 
-5.385666 26.621531 13.237835 
21.902843 15.144888 6.356578 
-21.481211 -2.569514 3.255961 
-15.473819 22.375795 -8.655606 
-27.963139 -13.264096 7.182643 
-6.334760 29.676008 9.047313 
-1.250116 24.522287 9.486260 
-14.761914 19.182241 11.860197 
-20.337063 9.152898 4.674333 
21.847273 12.031322 5.379754 
-22.819237 -6.774571 10.091251 
6.723839 28.952627 11.301918 
14.447356 14.178936 9.034067 
5.522710 27.245861 15.935736 
-21.740772 8.426539 -2.680605 
-8.151520 17.876665 -5.143665 
14.103316 19.478245 0.530807 
-23.453548 10.643610 1.452342 
-27.055082 -7.028783 9.530750 
-22.207186 12.818415 11.404944 
-23.590534 4.563047 5.311344 
5.265356 21.427784 -2.214949 
24.658417 -3.960755 12.381809 
21.003275 13.246428 -11.672648 
-16.575420 12.840238 4.212393 
-12.965156 19.822105 -4.604174 
-0.744730 26.531424 7.220789 
-16.996807 19.144632 1.321092 
23.776470 -4.918407 12.507973 
17.866917 13.207230 -0.463404 
24.027304 11.060347 8.843906 
19.460308 15.714595 3.663058 
2.693783 25.539757 -12.049682 
-8.864671 27.484213 7.512920 
1.295738 21.637199 12.613714 
-9.759692 25.165480 -3.155559 
-11.458522 24.497789 0.776332 
-15.180998 8.994581 14.273881 
-18.292364 7.920586 6.105033 
-9.850210 24.335663 1.226706 
-2.393708 29.308508 3.396211 
-1.817118 22.334742 11.962993 
-23.446251 10.737670 15.238313 
4.189479 22.614296 13.316893 
-15.851748 19.611755 18.237818 
23.758377 -4.041367 6.596095 
-12.889685 13.084818 -7.569569 
9.851035 22.386433 -4.307337 
21.612520 2.252452 -3.201002 
16.043383 16.218105 7.147956 
-26.668892 1.821865 12.713923 
-12.125948 25.615969 3.822467 
-19.164391 14.379320 -3.201934 
3.829186 26.036568 18.376421 
-16.509447 19.068958 18.202986 
-12.978269 25.977552 4.954934 
-16.822063 5.721045 -8.863984 
18.697252 11.716526 4.798790 
-22.037472 13.778412 12.015324 
-23.419107 10.665514 5.879211 
18.764668 3.793649 0.221997 
-21.631021 -8.517285 -0.755634 
-23.176691 5.086434 4.774680 
26.205763 -7.189921 6.229298 
-0.638807 29.043049 3.533657 
-20.978426 15.760328 14.813271 
22.692871 7.225116 4.470394 
27.865751 4.569018 2.711614 
-4.203179 19.083235 -8.536725 
-18.206690 17.495419 18.097193 
-3.325534 29.073942 3.200269 
-15.584011 20.887960 5.571898 
-12.899400 21.484917 -4.879927 
-12.468167 26.693233 9.285204 
-25.172871 -13.885150 5.439581 
-11.161885 23.542038 -0.158044 
18.947786 -3.248469 14.077317 
-2.418896 18.969141 -11.065814 
24.270330 7.839709 -1.846436 
28.718218 -3.398709 10.627108 
14.926476 18.033236 4.540810 
-27.008175 -15.215618 11.959633 
-15.127339 12.318003 9.720800 
28.413124 3.376035 -5.321090 
-13.579412 22.538176 13.864509 
30.494164 -6.286535 -0.907305 
-24.750511 -10.425860 13.762006 
6.098578 26.392275 13.926468 
-21.133633 4.927571 10.937251 
-14.254869 12.070949 12.755115 
22.016228 -1.754104 1.976329 
-11.543251 17.065306 12.551858 
1.690810 27.237049 -3.075287 
-18.101370 5.845388 6.946551 
21.348122 11.591008 7.200872 
-18.716105 21.077429 11.619509 
-7.890818 27.515551 -0.288266 
-28.636200 -8.887582 5.083876 
-8.713117 24.148506 7.607226 
7.661673 23.550550 13.127232 
18.792330 0.090917 -3.673738 
-15.536715 13.354046 1.350132 
16.426174 15.697364 9.047829 
28.813879 -7.241033 12.834555 
-18.194967 19.028881 3.882836 
-4.935615 26.676184 -8.358887 
18.709518 5.425275 7.491773 
9.802943 25.514763 5.320127 
-9.565512 23.133411 -4.460860 
21.315039 -9.261652 -8.124436 
24.089388 -3.508394 7.736794 
-17.010529 8.896409 12.375057 
-28.781849 -11.768515 6.716816 
-18.944542 -2.480200 7.088008 
-11.853528 20.770031 2.729836 
21.239950 -5.876164 8.361550 
17.246235 14.721604 0.827750 
-11.382406 26.020697 11.868849 
19.935467 -5.634794 -5.498188 
-19.369696 10.057875 8.621965 
-7.968783 24.472198 17.727203 
13.139572 24.674273 11.319898 
23.512068 -0.823014 3.923226 
24.755733 -12.693895 8.727016 
29.019674 -9.875312 11.581559 
21.402576 -2.262814 1.847253 
-0.984011 30.161976 7.404208 
22.377211 -6.355886 -1.243461 
-28.172829 0.009687 6.109473 
29.671316 -1.525746 -1.846983 
-12.457438 12.405856 17.496431 
-19.566235 8.277436 9.409576 
-17.345642 21.351431 4.413911 
13.044064 16.610497 12.004015 
-19.124304 12.694777 5.624539 
14.795891 15.384430 -4.078793 
-8.537590 21.346205 9.779952 
-23.034142 -13.912101 9.436306 
12.329670 26.214722 4.535890 
15.220946 18.890680 7.275206 
-21.071520 1.023811 9.460906 
23.989573 9.686932 2.016669 
22.615133 10.120966 2.338854 
17.015928 16.866890 10.105389 
20.454725 9.274848 -2.090683 
21.399218 -10.226313 -4.024719 
-29.599722 -5.971873 2.414416 
15.072231 22.671644 15.883945 
-21.220705 0.599409 12.795507 
19.511669 -1.097371 -9.419329 
23.541958 -2.720509 4.863695 
8.478138 24.504467 -2.724720 
13.442270 19.768196 1.087844 
21.848034 12.124182 -11.491879 
24.325319 -1.063958 2.044214 
1.476492 30.212101 9.147081 
29.252918 -8.788860 4.126455 
-11.470924 18.133799 0.386383 
-10.526801 20.021383 1.152472 
18.201962 6.832235 2.936514 
-28.652700 -10.843161 6.958138 
-1.157202 30.161119 6.575055 
-16.760979 5.185689 15.005556 
-23.670328 -6.663356 7.567637 
-19.868883 10.569138 9.384360 
-26.427956 2.204069 3.881687 
3.346175 30.308678 8.923223 
1.891492 28.848639 5.068887 
25.581728 -1.204928 4.963376 
-18.003508 11.240626 4.692041 
-10.234689 22.117741 14.127850 
21.861191 -5.134313 8.519910 
-28.397692 -10.217798 9.107264 
-17.381226 9.809700 0.350306 
29.326593 -6.888297 4.945740 
-19.141813 -11.394727 8.121590 
-28.433655 -10.781238 2.811111 
23.625191 -10.909651 8.705972 
-24.867064 -13.086775 1.437754 
19.225641 0.313645 -9.643003 
-19.957573 -7.937574 10.945786 
19.887281 -6.023954 -2.268033 
23.946804 9.312832 3.823622 
18.805397 -0.005900 -4.875754 
9.024603 25.954445 -8.046488 
9.419470 28.482462 6.904191 
2.136338 28.015949 15.206827 
-23.486977 11.538317 2.112571 
19.736437 -2.522596 -9.193701 
20.251625 16.073246 1.813871 
3.473040 23.448606 14.316088 
-17.029293 12.212070 4.222568 
9.741801 27.390266 4.907960 
25.667004 1.525286 5.436847 
-20.129417 -0.901296 12.665867 
21.912243 15.429046 10.301176 
-20.919203 9.903674 6.839314 
10.230489 25.844147 15.006463 
-24.526896 -6.265682 5.528597 
3.587366 28.772306 13.243299 
-22.983923 7.325464 4.240644 
18.364225 10.827274 7.622130 
-20.657263 3.951815 5.637862 
25.647224 4.385097 11.580682 
13.470378 19.041676 2.315035 
-22.232292 -1.414448 3.966141 
-14.906466 12.869938 -0.829450 
8.047141 28.215183 0.931479 
-0.715903 30.056261 8.215611 
-2.485409 24.807484 16.574835 
-18.858284 20.231331 4.074351 
-4.010452 23.060169 -3.174556 
5.577909 27.531200 14.258285 
23.813522 9.518211 12.238891 
24.309265 -11.650332 6.896062 
26.695835 4.505743 14.763430 
-26.172287 -2.156559 11.411587 
25.547867 6.861685 -2.414230 
18.351324 12.297317 4.508833 
-4.891582 26.126593 -9.830905 
-11.616759 22.122864 -4.019708 
7.187571 25.761261 -10.246948 
8.784664 20.642366 10.328989 
14.086092 13.745137 -1.765615 
21.479111 -11.100470 8.674428 
-23.004572 -12.139099 -6.121170 
-2.904384 26.502340 -4.735523 
-15.229862 18.067520 2.777972 
-20.537149 -13.469851 12.009922 
-12.005893 18.882071 -1.993685 
9.419422 20.931034 14.338675 
-4.555120 22.525114 14.827609 
-12.025934 24.415550 -7.803138 
-5.462882 25.328829 -11.401229 
25.060783 3.226835 -3.229189 
-2.309558 30.251474 8.065770 
25.018847 8.655810 7.377088 
9.688386 20.597496 10.226515 
25.590143 4.065444 5.237755 
17.498480 19.820801 -5.942163 
13.893993 20.596827 14.190656 
-21.910965 9.314560 10.108231 
-18.488293 -4.858582 12.686806 
13.676534 23.588137 7.730937 
21.585012 15.998723 2.729138 
-5.919199 18.934380 -6.889758 
13.304105 15.331414 -3.457366 
-15.840083 20.927185 -11.155543 
-12.763153 26.121489 10.651666 
20.332035 11.378856 -2.449270 
-12.853540 22.492380 -3.031845 
21.305363 -7.720585 0.803926 
-24.792336 -4.715292 -2.564155 
15.835030 21.113295 13.086092 
-20.291040 -0.069346 12.605032 
-6.824349 29.616238 6.433057 
-28.630516 -5.515008 4.236743 
-19.707798 18.629131 1.531968 
-10.296368 24.633648 14.628713 
17.777514 13.661602 0.785782 
25.690264 0.057206 -1.177009 
24.746777 -9.100347 5.820019 
-7.411593 19.399408 11.971992 
-8.201118 22.128540 -4.932041 
-27.964588 -12.325868 9.842314 
11.036632 17.469698 -1.869758 
15.556926 22.031687 -6.677531 
22.404274 -0.995448 3.791820 
-17.475544 12.694625 2.585823 
-15.589667 10.143737 11.273560 
-21.373119 10.325357 6.345047 
30.453272 -6.143676 13.674629 
-19.290195 5.349101 12.704299 
-27.962328 -3.994465 6.800206 
22.173506 5.652308 10.224916 
-25.027136 -9.566873 6.054672 
10.853009 20.619595 -5.355045 
21.093330 2.397159 0.137268 
19.990870 11.273087 5.620085 
6.059493 18.607134 -7.031564 
-21.573814 10.328712 11.420520 
-17.932966 17.941994 -1.741885 
26.312273 7.588669 3.156665 
-27.761045 1.875160 11.412606 
-17.711834 22.168001 11.363479 
16.853359 11.091064 12.111645 
-23.578907 9.167479 -3.120916 
20.507162 -9.982643 9.065505 
26.929155 6.457860 -5.881942 
7.576057 26.027525 7.870615 
-22.973516 15.246589 6.609591 
11.002270 22.017822 -5.461629 
-28.099569 -6.489491 0.802636 
18.126602 18.876984 6.074229 
-23.252504 13.896445 5.156394 
23.585009 2.643670 -3.379466 
19.112785 -4.885098 14.027878 
-18.865057 9.028149 -4.309543 
-21.391369 15.901333 -5.833966 
30.421774 -4.462669 0.654141 
-2.255643 25.576950 8.410323 
29.379988 -7.264837 -8.401578 
-16.984249 20.659960 4.368214 
-10.181346 25.817696 1.405455 
25.159222 -7.449092 -1.212741 
18.381563 14.008414 -3.807613 
-15.838140 13.839476 5.973561 
-24.811041 -14.882263 6.282043 
-19.848452 11.484393 5.336834 
15.000273 21.261456 5.906274 
8.832026 25.956812 13.954506 
-12.782456 25.361320 3.356422 
-21.334684 10.815934 5.144786 
-9.872314 25.368376 5.709383 
-15.355697 13.204144 -0.303802 
23.042526 9.803474 10.017998 
8.670133 19.784496 11.579011 
23.230293 -3.962044 7.141144 
-9.925617 21.227314 -0.582788 
1.008699 25.979681 12.391270 
-8.484265 23.177662 -5.431874 
-26.246426 -13.871564 12.180395 
2.985671 28.108427 -1.591884 
-10.521186 27.770401 8.358293 
-0.459575 27.525616 4.588987 
19.610771 3.143184 5.614231 
27.201010 -4.783799 -0.906446 
-11.178486 25.194414 3.160847 
17.263041 19.429922 5.407516 
16.842060 20.487577 -3.847068 
11.946318 23.965860 5.112331 
13.199470 20.260914 3.648869 
29.659954 -5.556557 2.025626 
2.473614 19.182955 -8.935789 
23.874069 10.140502 -4.088171 
2.764337 28.845242 13.095695 
-10.153901 27.516253 9.156713 
-28.152412 -11.162512 -0.087066 
15.099385 9.316724 16.578085 
5.580622 22.171097 -3.935323 
29.463503 -5.350767 2.974547 
26.206936 -1.907490 -0.412388 
-23.004057 14.613010 4.808041 
21.562864 14.402445 -7.424212 
-29.054718 -7.047191 4.578648 
-18.526627 -0.119359 12.659987 
-26.769087 3.465248 6.290232 
-8.459146 16.548225 16.479309 
16.287823 17.094893 -2.327534 
-18.782131 9.848733 -4.402572 
20.334608 5.013992 8.619858 
8.757471 23.591484 8.968410 
22.377995 13.158278 -6.882859 
-1.889372 24.846336 -5.463283 
15.853107 7.828280 15.114128 
22.071194 -11.091670 -1.889887 
26.733276 4.951308 -2.699068 
25.961172 5.720978 15.997207 
-26.438156 -11.825645 13.546252 
-25.656666 7.779651 9.626580 
7.276874 23.718374 9.502505 
-2.906770 29.013332 4.899926 
12.929321 23.332039 10.964173 
2.344871 25.012714 9.173459 
-12.317307 15.261434 12.424866 
-14.366408 19.247229 0.485584 
-25.998543 3.744722 6.812902 
-22.250185 7.056289 11.322750 
1.869961 30.529045 8.499722 
-17.317169 8.612365 1.757575 
21.445940 14.082006 -8.658516 
-21.367254 -4.840433 0.148866 
24.921885 8.721151 0.204935 
-17.887234 14.042493 -3.434034 
3.440356 21.146700 -3.303947 
-20.520508 15.313530 11.894370 
30.581322 -7.331415 12.043379 
26.851665 6.485994 0.703569 
-20.459951 1.506510 5.349973 
-20.131527 19.118254 8.319474 
12.781777 18.819624 8.484556 
-24.421989 6.812140 17.256800 
-17.233995 17.207264 5.373537 
11.824244 18.717308 -3.248037 
-1.241354 25.206367 1.259091 
11.347217 15.116701 15.096621 
4.830357 24.415625 9.667469 
18.717134 14.917733 -0.836303 
-19.883770 -9.455064 10.081139 
27.459362 -3.978763 -0.649621 
3.256438 21.861605 -1.755923 
-20.091236 17.706184 6.738791 
-24.323347 -13.299890 13.138742 
18.309914 0.765207 12.418833 
8.008836 27.372583 7.294054 
22.758871 -10.353691 5.476174 
-0.886781 23.220972 14.180343 
-21.047260 -15.223078 7.968009 
8.833557 20.364788 -2.643315 
-7.733978 20.902275 14.507561 
-4.988983 26.406824 -3.259277 
25.379204 -10.749484 5.354714 
-7.856006 23.554817 -5.531999 
-26.644102 2.783320 13.916276 
5.517538 24.933542 0.536214 
14.785541 21.942734 -3.980095 
-26.580706 -4.022593 -0.215030 
10.174015 26.552896 1.549103 
-21.191204 16.534857 7.421061 
-25.648422 -7.254838 10.587032 
-20.440853 16.292498 -1.756264 
-28.002380 -3.203865 1.138407 
22.467033 -4.442131 7.115593 
9.442797 27.328665 0.595775 
2.498034 27.289869 13.892612 
-13.162966 24.390873 12.703607 
-21.429829 8.043269 -0.346101 
-4.228662 29.802410 10.558830 
-20.765711 8.813268 -2.529581 
19.962343 9.732801 -3.727556 
-10.179738 25.779276 0.671505 
-21.041824 -5.709065 10.427723 
12.715598 20.864302 9.690380 
7.753565 23.435961 -4.870375 
4.688375 26.464884 4.463812 
-22.127270 -3.467106 13.207649 
23.043751 -0.787107 4.547329 
-11.069413 17.694002 -3.163262 
4.847836 27.491112 7.842934 
-23.887112 -4.145899 5.083007 
17.667349 11.410911 1.632004 
-8.878210 22.947897 -2.594927 
15.764149 17.926453 -2.341904 
16.542530 18.534081 6.624701 
29.384512 -2.624299 1.512790 
-25.096561 -16.684490 12.401481 
26.824120 -3.058742 -0.678154 
1.829682 28.770725 2.118005 
27.969313 4.961960 -2.851836 
15.265225 23.621666 3.659017 
-3.080997 25.330666 16.762289 
-28.354048 1.217730 9.119640 
-25.285543 5.598217 -8.759672 
-27.089458 -8.219588 12.407740 
-18.608126 8.172791 -2.113390 
26.624626 7.078842 1.299243 
14.480694 22.900318 6.194641 
-22.181622 13.198070 -1.330489 
-4.111629 22.219236 11.636147 
15.871704 21.971838 -2.694538 
-11.793627 21.977499 13.424117 
-25.418880 6.839156 13.304502 
29.633568 -4.264403 0.937459 
17.663509 12.987144 -2.441161 
26.886517 0.887687 0.354581 
5.922126 27.187551 1.315504 
17.176556 14.621654 3.584937 
6.218436 22.446672 -4.416353 
20.903376 0.167112 9.849169 
-5.676004 26.897671 14.306314 
-22.587360 15.625967 8.901855 
-2.022292 22.643049 -1.563027 
-18.946285 12.494777 4.879719 
15.846143 7.730363 16.414883 
25.549675 -4.608536 12.820844 
-19.709566 -4.802154 -3.251014 
-21.840574 -10.942890 13.077637 
-20.169817 -10.547002 5.302833 
-28.346684 -8.636545 6.929968 
-0.970991 23.232861 10.864369 
-4.971069 27.514912 -0.670742 
-23.606001 9.531859 10.386078 
-19.157148 -0.745628 9.122647 
15.453690 20.615726 -10.824411 
12.558301 24.248756 12.975772 
7.885879 28.450834 3.124954 
-21.571934 3.760309 8.908395 
11.552592 22.632549 15.280412 
-3.882248 24.526148 0.655200 
-1.439666 25.597097 -1.478467 
19.061464 1.839813 2.859423 
-30.660858 -6.081315 -1.579652 
-2.737603 24.704411 -13.588586 
4.104487 24.230825 -0.353220 
26.519156 -11.669992 10.659822 
5.960602 26.639030 -0.365632 
-0.750053 27.061390 1.376810 
22.456949 -8.931364 0.332220 
-12.313345 24.937170 0.508643 
10.125188 18.550230 -2.558761 
-17.338045 14.859707 -3.675622 
-27.965939 -7.577072 14.207926 
-1.774705 29.890940 5.492778 
-27.224413 -11.595432 1.124540 
-20.464312 17.569387 2.334590 
28.680788 -5.428835 6.724904 
-19.657728 -15.551805 13.977765 
25.229084 -13.056780 14.285577 
13.256279 13.114683 -5.162126 
19.561367 10.811403 9.267595 
-18.223246 1.457195 13.316091 
12.243974 18.221771 10.368338 
-14.154836 23.499010 5.569825 
-26.009483 -13.266558 10.176875 
26.526587 -10.005010 3.612035 
-26.523418 -11.706280 2.627757 
-12.141361 20.801153 -4.777954 
-22.778187 3.974814 6.779090 
-11.208320 14.545257 -9.963443 
15.972042 21.979364 -4.752252 
-19.866812 18.437088 -2.649103 
9.224586 21.176731 0.090143 
6.691537 18.137991 16.293526 
12.749907 14.914321 -3.012486 
-27.896671 -2.782470 12.026041 
-28.403326 -4.054676 -0.584020 
27.377100 4.311716 -0.591093 
27.965912 -10.023139 3.897655 
19.811672 -5.281819 10.909935 
25.754164 -4.021340 5.958726 
-28.203386 -1.972083 -1.739938 
27.800751 5.116441 -1.491226 
-20.795683 6.245123 4.164437 
23.989868 -5.148599 5.407390 
-22.637074 -7.090988 8.026917 
14.393711 11.253349 -9.120979 
0.954882 26.976011 2.138803 
15.741442 11.392991 -3.702218 
-15.435676 22.810411 6.273620 
-10.372039 15.800773 14.959609 
19.599930 17.224327 5.496464 
-20.030466 15.754748 4.734981 
0.956302 26.690277 11.120628 
-28.308882 -13.121178 12.936182 
17.476372 7.529189 5.433217 
-5.499706 25.354761 14.326803 
-27.388271 -10.642953 4.858853 
-28.095850 -11.016243 15.700240 
-20.731911 14.470826 17.876879 
-23.768360 -6.332602 -2.989908 
2.545854 27.314957 -3.481455 
-22.210756 9.272189 -3.731245 
-22.882862 11.706402 4.736419 
-6.667986 25.802580 -1.459200 
19.434818 16.188644 11.739357 
-21.577291 -15.621898 10.062365 
-17.918446 10.817861 11.348758 
-25.414236 -14.117000 12.717029 
-17.137598 10.326876 1.906464 
23.455496 1.173547 5.348587 
18.075779 3.325548 -2.191262 
-10.268728 25.388445 4.502260 
-22.446026 -4.569533 4.486423 
-24.812872 -0.738746 4.835491 
21.885071 14.408978 -3.879475 
9.651317 20.376961 -4.798237 
13.555271 15.001957 -2.711183 
18.741556 8.657550 10.783363 
-5.081282 27.151474 1.321646 
-20.778934 -16.627747 13.765041 
-15.461648 21.194405 13.184218 
-20.004951 16.864586 -3.133181 
14.815562 21.687025 -9.831136 
25.962599 -7.778119 -0.952687 
1.465454 30.101213 5.376919 
21.367489 14.817386 -2.375957 
19.063475 -1.092739 11.542593 
-21.997290 7.657019 2.680539 
-15.626106 10.993751 -0.952450 
-5.335775 18.286623 16.327606 
17.759493 21.775616 12.399716 
16.203569 20.474482 5.405183 
20.724291 10.275252 4.296602 
18.628399 -1.589094 14.215569 
-1.413393 21.832386 -2.859846 
14.920125 17.417862 13.572515 
-13.369301 17.736837 9.900581 
-6.352159 25.157656 -1.053144 
-27.277164 -8.730529 -1.816540 
13.787797 24.811018 7.197103 
-30.184141 -10.137781 -4.280599 
-24.238701 3.581129 4.483641 
-24.569849 3.535925 7.163635 
-19.523565 -3.937566 7.862686 
-19.994806 0.674550 4.861926 
-16.673878 10.772900 0.553100 
7.709627 24.229807 -3.042905 
21.147793 12.117245 5.781304 
-21.282454 13.709285 -0.294194 
18.677757 18.402981 4.641215 
13.646196 15.777705 1.052155 
-29.471058 -11.311934 -2.120719 
-21.208879 -5.125749 11.995450 
-29.736094 -7.979066 -0.499558 
15.861882 12.243509 12.494357 
-21.750219 -3.006382 1.210145 
-30.064575 -10.268361 -0.177879 
13.715444 22.921179 9.413633 
1.425681 23.909676 -0.177110 
-18.936922 -4.885842 11.670444 
20.704489 5.544352 -1.113975 
13.019690 21.598433 9.768225 
14.393913 19.227381 -1.941388 
-19.940348 -4.293190 11.412440 
6.327178 27.129255 -0.792688 
-22.005917 -14.648084 12.037303 
-16.160751 23.076899 6.760099 
4.855913 19.104235 -7.393209 
7.813114 28.471724 9.768074 
19.087406 6.202218 11.984328 
-20.005081 12.230272 11.653984 
-25.759274 3.400301 -10.338614 
14.607656 12.853839 12.098167 
23.235508 7.050075 -2.568295 
-26.517340 -14.456845 8.863648 
13.269896 18.247246 1.911261 
-5.523320 27.284657 7.313120 
22.632217 13.785343 -0.610810 
-27.548756 -3.660968 15.356247 
-18.131874 -11.237465 12.907061 
16.424370 14.256796 3.036908 
21.676601 -5.148851 7.709661 
9.339498 17.675579 -2.944632 
7.995225 28.127953 0.179047 
22.401850 11.491977 -3.183171 
-25.354410 6.081459 -7.223089 
3.655582 29.870007 10.526880 
9.667235 27.195890 6.264257 
-18.961351 17.748531 -10.409566 
-2.823463 24.051249 -3.162091 
-15.372464 14.028761 -3.079881 
20.152475 -5.828170 -6.977356 
15.972878 9.936653 -5.251710 
-9.768911 20.713545 -1.178118 
-20.608028 14.092466 -11.999498 
-17.531818 8.923159 0.318291 
-21.691927 10.844596 -4.155340 
-28.479149 -12.135031 8.720470 
0.350645 27.903198 13.519465 
-15.688906 23.051228 -5.739344 
-4.801691 24.697998 -4.113437 
15.461236 11.335287 6.392314 
-23.210623 4.790388 9.081687 
-19.933184 -6.433320 11.091451 
9.672027 23.875608 15.723031 
3.708960 27.224281 -2.227468 
-3.704654 22.416847 -4.631302 
-18.154940 10.009216 9.896619 
-19.514828 8.449480 4.647110 
15.597857 23.121830 5.266062 
-17.615871 8.871750 -0.465740 
5.764093 26.063984 -1.075223 
-22.462713 13.808342 12.851232 
5.547164 26.259819 8.651272 
-20.903912 1.575042 -1.342000 
-21.014523 -9.615078 -4.532613 
-7.138900 26.760992 -4.163332 
-29.723415 -7.870209 2.251735 
-2.994808 24.154314 -6.133774 
-12.061715 21.592674 -4.748131 
5.043101 20.830841 12.508336 
22.542799 -0.411631 5.002032 
11.518763 27.624805 7.952006 
-1.395143 27.012877 -8.261527 
27.522940 -10.200869 6.178078 
30.288773 -9.652243 14.482553 
8.282373 23.960529 12.318893 
-20.821474 9.984662 11.430979 
30.417929 -7.630884 10.397289 
-12.694548 17.940599 -3.322871 
-22.323223 11.659188 -3.170847 
1.699837 28.844532 2.951642 
10.812060 26.230547 4.950643 
-18.114456 -10.305169 12.786247 
14.479194 21.694046 6.376878 
22.705128 -11.862573 10.400410 
27.709354 3.297891 4.773955 
17.889336 1.607954 14.578014 
9.229391 16.755165 15.897470 
1.637100 23.730755 10.620256 
-20.932962 -2.828796 2.696398 
-22.214884 1.702546 10.130646 
12.411906 21.873251 -13.071998 
28.110956 -6.681289 13.064911 
27.087238 5.960598 2.642589 
-21.449181 16.137566 -3.694925 
21.751638 -10.839060 1.220373 
1.542000 23.429564 -4.029570 
-9.602249 18.535570 13.746222 
26.200306 -6.283100 -1.254575 
17.520031 10.924247 -2.090943 
-18.509842 14.806128 -3.549799 
20.606163 9.043908 -0.391633 
-21.820637 10.555423 5.629782 
-3.364027 21.512306 12.138323 
19.151728 11.962001 -4.305532 
15.553465 15.565142 6.640484 
-18.528728 18.853464 13.868114 
11.135860 24.202902 -9.660261 
-12.387048 24.461208 13.671021 
24.185234 9.046362 11.792500 
15.189836 16.828074 13.133904 
-18.139616 20.852686 4.141887 
-20.058065 -9.350563 7.630127 
-17.293961 11.455415 4.199570 
-2.173393 30.166964 6.091327 
13.835617 21.914978 11.817130 
21.849558 -0.660342 4.671937 
-5.410480 25.977282 2.045889 
13.132644 14.123203 -2.853739 
8.916551 23.852444 1.108786 
-27.398602 -12.083090 3.065562 
-16.819687 11.096457 4.679167 
19.632439 9.191332 1.080732 
9.651001 25.609163 -5.109482 
-4.292802 19.587103 14.093049 
0.802550 19.466774 -8.569680 
-18.015871 11.968372 -3.481327 
7.185314 27.590652 -2.298492 
-5.242981 19.742844 13.358676 
20.462303 -9.195467 7.757422 
-15.297912 11.238555 11.062112 
-20.029850 4.887814 4.399253 
-24.976341 -16.634504 10.537805 
3.818681 25.721878 -3.607548 
22.089254 15.509062 12.892567 
-14.848354 15.811801 2.781810 
18.276321 14.448478 0.471028 
20.693647 16.897593 14.911649 
12.716157 21.284979 3.326153 
8.256469 22.306719 9.917906 
15.621589 21.113928 5.308641 
10.793804 26.584158 5.864374 
14.430253 23.530931 9.631646 
-22.831360 10.170506 -2.271198 
-19.112700 8.930416 5.363428 
2.872452 24.025639 9.746202 
-24.370424 10.063277 7.722330 
9.282176 27.598593 1.916054 
-8.935920 26.573191 -4.644548 
12.887197 22.016386 10.733184 
-20.086504 -7.166780 11.012388 
5.679512 30.257309 6.528732 
-15.446925 16.361128 -0.569431 
15.161299 22.548845 -2.724939 
21.964285 8.319425 -2.094997 
19.439064 -2.798957 -5.177288 
-29.128307 -4.316181 2.394633 
-22.642336 10.260900 7.329412 
-21.647940 6.749540 4.512607 
-26.591175 1.700301 -10.074603 
-11.677339 17.694185 -2.716857 
-21.176098 -4.432498 4.523282 
16.085667 17.568537 10.203779 
7.131794 28.698383 4.817553 
13.932765 15.131612 10.453150 
17.183943 15.533030 11.918379 
4.932016 25.586123 -11.489443 
14.332712 13.922945 6.763327 
13.161834 16.485582 -1.173029 
11.046121 19.057096 0.447439 
-23.975817 -6.733959 6.003818 
25.568323 -8.988054 6.171975 
-0.560676 24.860989 -13.603132 
-17.624372 11.940671 13.466995 
23.254984 -11.661625 -1.623391 
-22.633533 10.595962 -3.254250 
-9.861245 24.049383 -11.730810 
-20.181122 16.125448 11.559464 
21.941669 0.029534 -2.285312 
3.138019 30.092634 9.853932 
-12.054567 23.711767 7.206435 
-3.566510 30.551298 6.974773 
-28.286127 -3.352673 7.433185 
-22.423830 -15.782263 10.550702 
-23.605110 10.672344 3.088157 
-19.864946 -4.819118 -9.016007 
11.027738 18.502434 -3.199252 
28.234106 -10.418921 9.076605 
20.964014 0.770990 -2.506320 
8.458225 26.145409 5.502013 
19.207594 8.267509 9.647614 
17.906149 22.787369 5.396457 
21.520357 -6.196578 -1.011291 
7.926561 24.958376 10.997821 
13.430830 24.104462 7.089234 
22.471443 0.851205 -2.778301 
21.272619 -5.110541 -0.344438 
-19.276564 10.910069 -0.561079 
5.433048 26.635759 4.556799 
-21.099083 10.330075 -4.356274 
-20.712273 17.461018 -5.169759 
27.464211 -10.890606 -7.839150 
-10.596645 20.424969 10.297032 
12.618792 23.101147 12.401203 
-21.058912 -12.679250 12.521269 
-13.636206 20.275530 8.171524 
19.183363 8.674939 -1.378573 
-10.928631 22.411875 2.707323 
13.226748 25.717152 10.228415 
-19.348654 12.745543 -2.743433 
-23.444935 -11.297953 -0.346332 
-5.890876 25.703007 11.898211 
3.131598 23.694433 11.341808 
3.208122 28.935310 2.631003 
23.430897 -10.082230 12.053642 
2.049096 20.982473 12.889205 
9.178361 24.860390 -0.434201 
18.672230 2.539761 4.163930 
11.354042 15.294610 -5.446033 
25.418715 1.645681 10.460509 
-1.031057 28.604816 1.722322 
-22.115065 1.231019 12.854293 
-10.062050 19.745443 0.437730 
-10.731792 24.698061 2.823578 
9.200462 25.287781 -1.283736 
20.974188 -9.964209 -0.284340 
-21.601564 -5.554290 11.389390 
-19.591400 -3.022527 -3.105026 
18.367537 20.710461 12.052950 
-25.160934 3.794859 6.654738 
19.003878 17.091423 0.592454 
26.866661 -11.143051 2.247136 
-20.517443 0.638633 10.483639 
27.031235 -6.079263 6.279205 
-23.636683 -11.209008 -1.425290 
20.192286 0.192270 3.141761 
30.130686 -5.843942 11.378593 
2.673326 26.144056 -10.642792 
27.263134 -11.064195 8.435658 
-23.306355 5.355087 11.833038 
22.827452 7.254142 -1.755287 
-11.427586 27.498091 6.186475 
16.439745 22.081892 13.498258 
2.982284 24.681829 9.333138 
-7.940395 21.021286 -1.057369 
25.527327 8.514652 3.951776 
21.295954 14.761406 11.621206 
-27.501463 -12.926525 10.359633 
25.000652 -8.325056 -0.907715 
14.505902 19.101950 -3.532216 
-0.706482 19.889322 -6.811108 
24.498905 -1.427547 1.206599 
-22.853758 -3.627973 13.305645 
-13.887153 11.266057 -11.522862 
20.643318 7.727474 1.686680 
-2.072175 25.848345 -4.346574 
14.283079 12.371686 7.786477 
13.992164 20.372438 -4.400393 
-20.434206 14.341238 13.611724 
-19.299070 3.941211 8.395059 
-5.758614 25.862413 17.041746 
-19.969294 9.579135 6.148968 
-14.146895 18.807344 -2.670310 
-15.549048 17.331953 7.231501 
-20.798332 11.422869 11.233335 
5.467468 27.085773 8.156724 
-16.699217 9.496541 12.044947 
-3.379409 26.011391 16.534086 
25.121628 8.038203 -3.810204 
15.509017 9.383230 -11.089449 
-8.409665 21.046907 -2.911940 
10.252548 24.597620 2.952953 
7.159307 29.313396 5.592032 
7.441342 26.603577 5.539142 
-14.819793 16.295422 10.855375 
19.870676 -3.063534 -2.418210 
22.679260 -8.915522 2.206635 
19.367317 13.712867 13.053823 
-23.224953 -11.392627 1.203781 
19.581486 11.737200 10.432101 
29.620573 -0.980347 -5.031155 
-8.109537 19.865513 11.607447 
25.942373 -11.815758 8.528402 
13.740173 23.580271 15.975655 
-22.424801 4.954723 12.822785 
24.648870 -10.937533 11.741378 
-16.555885 15.373322 11.738422 
-23.624548 -17.105612 11.347942 
20.081860 5.055844 9.467760 
28.378164 -7.982884 10.788054 
-8.940588 18.805204 13.969517 
21.481632 16.374065 7.335206 
-20.775202 7.764568 4.284431 
17.623516 6.680398 6.255857 
-22.734684 -7.630032 10.964718 
-19.195835 -3.395974 8.353630 
-18.834936 -8.258943 11.953143 
24.111778 0.132333 -2.306089 
-4.626025 25.484306 -5.802846 
20.894886 9.712943 3.775252 
13.568996 17.203224 -1.085726 
17.056664 17.831825 -2.666025 
11.121277 24.246429 -4.178119 
-24.039131 5.829106 11.307886 
-26.587196 0.042136 16.683443 
-19.813623 15.261826 -3.166876 
-16.210600 7.171099 -9.196364 
-12.088006 23.856167 14.795223 
14.806664 22.860321 -6.292385 
25.998596 -10.444480 4.064591 
6.194015 24.756491 1.990247 
0.459545 27.678797 8.940399 
18.383795 14.646551 4.581141 
11.122758 14.663620 -11.941919 
-26.471066 -8.306056 6.102011 
-21.447878 -1.500852 3.937619 
28.426260 -2.231323 0.589633 
18.638052 20.326973 11.299431 
-18.335831 15.575043 -1.174578 
-22.856583 0.429210 13.237820 
26.478697 -12.881322 13.067197 
-18.375858 -1.692998 11.942611 
-2.708885 18.670393 17.848793 
-20.560888 6.977547 2.113688 
18.948515 18.672375 1.283619 
-17.961325 -0.528962 15.266416 
26.376192 -7.837053 13.191490 
8.488759 25.853613 12.015763 
-22.412813 -11.091052 -8.039543 
24.306870 -0.596709 -1.411237 
-7.065838 26.650778 -6.718551 
-14.087397 25.398474 5.453312 
24.173624 -2.291640 5.140565 
22.282040 -8.555809 9.593964 
18.652390 7.904623 5.037982 
23.885672 4.564099 5.003179 
20.662466 6.550229 -0.241755 
-22.873198 10.820092 12.452070 
-11.268580 16.595650 -3.125083 
-18.051556 -2.101970 14.459192 
-27.900803 -2.568850 13.985255 
-23.518785 9.392165 11.961901 
8.156005 22.877495 -0.496076 
1.904065 23.004246 -0.753925 
-16.699968 5.991450 -7.319305 
1.317961 25.272005 10.929627 
20.405033 2.587018 5.582414 
17.818071 9.309119 9.715147 
5.892147 27.639265 7.300931 
28.353504 -10.522065 11.024413 
28.353077 -0.214766 12.596469 
-17.641508 5.320805 -2.862364 
19.308357 -1.622126 -7.305672 
24.927612 10.246525 6.804944 
-19.885712 17.420050 -2.490505 
-5.421888 26.177732 4.719352 
12.978806 24.517050 6.577229 
-8.219050 19.200684 13.891987 
-1.915236 26.674091 15.549896 
8.401060 26.803782 -5.416306 
20.980675 -9.209641 -6.211990 
-20.946781 3.746554 9.575482 
-17.231953 22.892725 7.898818 
-18.969511 7.239323 -0.581979 
-24.896563 9.927540 5.234880 
1.354940 27.848310 15.422245 
-14.382042 21.909964 -11.629649 
11.197710 27.746696 6.564130 
-2.990834 26.231899 -3.202420 
30.503752 -5.061379 -2.125912 
24.488724 -2.842390 1.069765 
18.126789 13.863386 -3.066787 
-1.917747 29.318554 4.395920 
-3.131209 18.896803 -10.741879 
0.569245 27.221397 16.777536 
-21.697538 -8.108490 5.714868 
-2.087067 28.183880 13.791004 
-11.932139 14.748283 13.750931 
22.795265 10.337753 1.484928 
-24.912231 -13.362990 0.131057 
5.626528 18.153801 -10.560374 
-24.311375 -2.753400 0.421301 
-23.615721 -10.513069 -1.825981 
26.657259 -9.932405 2.814709 
22.669168 12.546947 -4.303535 
-5.136035 24.933496 15.640237 
5.507163 25.281431 -4.607678 
-29.329931 -2.934703 -5.983372 
-28.402702 -2.804020 7.912843 
-28.006672 -7.350662 12.845313 
10.536902 24.561207 1.269562 
8.320867 26.772223 -3.539219 
-15.344890 23.077745 0.999834 
-18.913343 4.769449 5.825551 
-16.079443 21.454311 -9.586235 
27.502949 5.764608 -4.800568 
-17.846394 12.915380 1.350372 
19.098707 12.641770 5.512208 
-14.362367 19.467751 -4.095073 
-1.972684 27.542042 -6.185052 
-21.303967 1.151784 11.254084 
13.432971 24.895737 6.105281 
-16.505484 14.588045 6.462382 
-7.490229 24.882111 -5.334388 
-21.707605 2.805270 10.592483 
22.463655 14.857560 11.960168 
9.616589 25.773916 15.887722 
13.488075 22.795841 11.229900 
-27.422482 -14.178107 10.396343 
-4.639603 24.648346 -5.539748 
16.454790 15.226089 11.647223 
17.073412 5.022484 13.257631 
-16.640488 19.486052 5.395222 
8.718023 22.630146 11.932704 
-22.381102 11.130904 -3.839085 
-13.123146 21.422777 5.351927 
7.820725 28.361856 5.159509 
22.943995 4.176106 4.747966 
-4.224035 18.434723 -12.607538 
15.789806 13.092256 -2.175650 
26.266376 0.565327 2.543330 
-26.845091 -15.200897 10.602129 
16.771341 7.323578 -7.256351 
-10.840131 24.921316 -4.469739 
17.207882 21.156376 4.394127 
-16.722643 18.830454 5.849654 
-27.438360 -2.733580 4.668281 
-10.627424 22.031168 -1.741646 
8.987594 22.781361 9.591226 
-21.391308 14.255002 12.730526 
8.082656 25.920811 4.657326 
13.203979 16.855749 2.251116 
-19.841789 13.809923 3.270597 
20.313904 15.569597 12.310684 
-13.925149 23.875528 10.938612 
24.068558 -5.996375 5.424619 
20.327515 16.288269 17.099527 
-5.744117 19.887943 -4.657312 
15.560990 23.474062 11.251712 
4.750747 27.098532 16.660175 
22.155508 3.485733 -3.504931 
9.394011 19.547640 -4.324149 
-21.840786 14.111907 -7.663409 
-24.626297 6.383428 4.128715 
-11.107597 16.280672 -3.853360 
-11.583366 22.910631 4.780597 
21.414936 16.492495 11.050927 
-18.788080 -0.878918 -5.849526 
26.412144 -1.801312 1.496826 
-17.534277 2.871108 14.452899 
-9.192595 25.374109 11.847277 
-26.618282 -1.830503 3.398393 
-4.601419 30.742098 6.758332 
16.321266 10.447675 -3.394708 
29.048338 -4.951387 0.293024 
-9.577229 19.898726 15.394518 
19.527510 11.999543 11.695928 
2.465166 24.222691 -2.516293 
-14.526114 19.479036 2.204064 
18.987148 11.576095 11.249343 
-8.925483 24.571125 15.447397 
-18.722023 11.394744 -4.070889 
-27.599796 2.546551 5.282852 
-17.717846 6.004298 -2.483302 
-4.039981 21.519091 13.937990 
5.708122 24.660450 14.666312 
24.217939 11.206788 7.910870 
1.047130 26.050386 11.492238 
-19.033010 16.920717 -1.781474 
16.242338 19.018877 5.803216 
-20.942879 -13.815428 5.374466 
-13.728133 18.779556 -0.788657 
20.677036 17.212845 13.138685 
-6.510739 23.623430 -3.713814 
13.083285 21.201628 4.003748 
1.511307 25.190689 10.164310 
6.907324 21.049593 11.520495 
-22.643066 -0.325992 4.206461 
3.040455 19.572996 15.464306 
-15.015503 10.082295 -4.897574 
-21.160480 14.961300 -0.905751 
-15.057583 8.848440 15.118778 
10.438976 26.986197 4.396641 
-21.597504 -10.929555 -2.811923 
-13.809696 19.489355 9.979427 
27.345255 -10.635761 6.849430 
-25.574327 -6.258203 9.584018 
9.294143 16.050306 -12.168936 
-22.959436 10.837645 -1.744392 
-20.975748 7.561176 11.169622 
7.125479 28.339567 1.117555 
-14.135254 17.827326 11.090034 
7.749360 19.976698 11.384546 
10.406085 27.483959 6.334338 
26.654034 -4.906999 6.175046 
18.689613 6.071716 1.380276 
-21.767317 12.215675 -3.388755 
18.107216 3.261347 -6.356675 
-17.042833 18.153370 5.280393 
-21.435530 12.986550 -0.855421 
-22.004929 -0.321834 3.786933 
-13.832943 10.500607 17.352699 
-22.938221 -2.210801 4.221024 
-2.499915 23.333027 -5.715322 
-3.331722 27.482008 14.739020 
2.793302 23.028299 13.658006 
24.726812 -10.465757 5.097079 
-22.532093 3.985504 5.951961 
26.705936 -3.828535 12.081900 
-20.482384 7.507685 -0.250543 
-18.694786 13.365754 1.123935 
10.343678 18.610312 -1.778862 
-11.848324 15.903809 -3.992429 
-19.338453 0.220787 8.101067 
3.389797 18.562908 -12.592325 
12.665053 24.603666 -5.955220 
-24.688229 7.657915 -7.702543 
17.382597 5.508557 11.442885 
-19.722225 15.320627 11.521195 
5.960418 21.636833 11.694601 
26.781523 4.334578 -10.241468 
1.142719 24.618307 12.303041 
-18.139719 -7.620877 13.578851 
11.482709 19.252411 1.089904 
-21.509293 -9.841980 1.784998 
19.710575 -4.678244 -4.000015 
13.801661 25.378458 3.641621 
-10.071335 15.412346 16.192646 
20.897453 -3.562766 1.314986 
-1.968483 19.256454 -9.336407 
17.523149 6.620120 -3.941614 
6.469194 23.410547 0.939493 
-23.388615 10.968737 3.799751 
17.278463 5.975957 -10.544312 
-0.247235 24.909203 -2.283020 
-10.473822 23.984634 3.351607 
-14.326076 21.685076 8.046992 
17.354261 17.819801 13.666636 
-25.487074 6.595094 8.434093 
-24.234364 -6.302546 8.986537 
23.767321 -0.843810 2.520659 
26.996508 -11.429713 10.142109 
-25.762028 -2.071872 -0.294675 
12.963754 20.569181 12.768337 
-18.793688 -1.765338 6.874177 
-26.510366 3.294945 9.285646 
24.942034 -12.120884 9.794726 
21.473307 -11.172878 9.700749 
-16.555103 13.834441 -0.367055 
26.450375 -11.259827 -7.785685 
-27.287395 -11.408320 12.911606 
-24.433853 -10.807375 -1.622118 
1.280248 21.081360 13.282214 
5.819992 20.496439 -2.825543 
-18.537973 12.947709 2.898395 
26.785309 -9.886804 9.850716 
3.886394 25.884909 3.304939 
1.882685 25.507362 2.953460 
-17.071075 10.203860 -3.659099 
5.633865 27.518635 15.095931 
10.732869 21.443254 10.648306 
-26.894722 0.724607 13.014402 
-28.504089 -11.849781 12.329717 
24.386654 10.265034 10.472814 
-15.147203 12.653547 7.425708 
-20.654999 14.286985 4.282895 
-23.301140 9.544959 17.482567 
1.785761 30.050882 10.043424 
5.045594 27.520893 1.888474 
15.168965 21.938635 -3.325306 
1.423412 23.704416 -1.204782 
-2.119609 27.599697 5.450032 
-28.153803 -10.964216 10.626782 
-13.454232 24.677505 4.754031 
2.157689 28.463745 -0.359668 
-26.504122 -3.712738 11.951342 
-12.244413 19.335169 -4.417116 
10.344002 27.441294 10.633785 
15.591528 21.858959 16.809340 
17.841734 18.107473 -3.564152 
29.921722 -5.267845 9.259958 
-27.940628 -0.888595 11.966407 
-5.551116 24.522448 -2.783105 
20.238836 -5.918565 2.519598 
6.412885 21.445999 -2.970905 
25.394794 -3.630389 6.496997 
-24.907171 -14.866727 12.268425 
16.467543 16.536026 11.764888 
-5.408078 27.190105 -4.910275 
-21.900909 -6.872409 10.247646 
-16.794245 15.464587 8.821740 
-3.421352 22.207075 -3.225256 
-28.434883 -3.207718 2.947304 
-17.176018 10.101275 11.295770 
20.099289 5.996781 5.494913 
19.689150 15.827106 0.918890 
-1.986410 26.911901 4.034886 
-18.408972 4.803922 -2.292659 
18.522520 12.600361 12.854854 
5.042836 23.813019 -4.104164 
-27.906584 -8.753845 15.040740 
-13.012553 22.263428 11.041104 
-23.266937 -5.261901 -2.377481 
16.873396 7.900827 -4.786365 
-22.871405 -6.906897 7.354629 
22.331469 7.370560 -0.842895 
5.463926 25.474276 -2.706643 
-13.540756 16.346777 -2.082505 
16.421061 14.921792 12.610575 
-19.890135 7.116739 0.905135 
-23.519062 -12.722578 0.282010 
29.899317 -2.861400 0.936168 
14.181808 13.628608 8.312369 
7.113009 29.556231 9.757360 
-1.177713 28.899075 12.025290 
-14.328037 10.827387 13.151587 
-21.688000 3.786706 6.275124 
18.531101 11.306454 5.954740 
-25.352556 -9.491994 -2.134313 
27.929438 1.249909 0.317791 
21.989286 15.181074 7.225179 
4.528945 20.322559 -4.363834 
-19.604237 6.778031 2.161520 
-9.044627 16.758776 -6.708626 
-4.922058 18.828882 -8.723173 
-7.622404 23.261555 1.585017 
29.535879 -6.093574 3.204082 
14.675886 24.042433 5.450143 
27.897665 3.891083 4.029094 
18.233519 19.642784 0.900121 
-5.018937 30.683044 7.445069 
-18.536602 8.858161 11.718309 
-19.383472 17.797812 10.494292 
18.364687 17.889343 7.323735 
26.521135 -8.609371 10.277136 
17.936729 15.045430 5.388869 
-21.392767 16.170786 -2.860915 
-18.342579 7.147246 11.491817 
-26.047121 3.904273 -8.349715 
-8.131086 22.301872 0.782404 
17.963177 6.358832 8.977272 
-1.275240 26.188574 2.398206 
-15.521109 18.159092 1.858446 
-24.861826 -11.594215 3.634231 
-11.918487 21.025154 9.846063 
19.213892 13.075254 3.986750 
17.742098 10.853299 -1.369729 
11.949528 19.626957 -5.005356 
-0.997268 26.932369 0.504914 
-22.178997 -9.947180 -0.543597 
0.998528 26.804642 12.556399 
25.566608 7.647989 14.233445 
13.044936 19.495523 13.691960 
29.801970 -5.801991 1.027300 
7.286009 22.121239 -4.011834 
16.565744 14.074666 12.844660 
16.954714 11.114284 5.861935 
8.222819 27.404961 -2.546613 
-15.446412 22.268854 2.669322 
-0.674024 18.998613 17.832190 
21.813122 14.642620 5.615833 
-26.945274 -1.960870 13.297784 
21.326874 7.376351 1.682166 
18.205675 16.421398 -2.241211 
-19.478411 18.633564 3.372989 
-25.769537 -1.837649 2.200110 
18.423481 3.353473 2.421364 
27.733692 -1.390792 2.849284 
-23.545197 9.484449 4.160231 
20.391848 12.276919 4.980699 
-16.911192 4.349579 15.776614 
14.827190 10.449380 -11.260622 
-25.591566 -13.223403 5.554622 
-20.629908 -4.221395 1.289578 
-9.838460 25.048546 13.258200 
-17.610914 1.949796 15.351716 
-23.309841 8.255425 11.528680 
-19.243067 -9.725937 10.627012 
-19.020512 -2.804564 8.810769 
-19.241863 13.351311 3.112818 
-22.187920 -7.904826 -2.680907 
18.646732 1.179451 -2.196529 
-16.070107 16.211912 -1.023769 
19.107491 14.486571 -3.529793 
11.145481 23.436649 -5.097497 
-6.458968 27.725691 1.793061 
-28.177546 -9.189545 2.355271 
-17.900818 15.022766 8.676237 
-20.747663 -5.168448 11.211625 
15.564226 10.817604 8.956766 
-19.897444 -4.233726 6.975262 
-18.582832 -9.190638 12.020247 
-11.457721 24.479351 -4.351645 
-13.700324 19.004465 2.071245 
14.021641 12.027546 -7.293162 
28.357777 -4.734382 -0.229509 
-19.770218 -2.520812 12.534394 
-29.656052 -5.434275 1.592604 
23.878456 10.052040 -9.324799 
28.739849 -4.790919 11.895233 
-6.526502 27.385195 0.935878 
29.085978 -9.250103 8.757452 
7.567216 24.161079 1.749773 
-8.241464 25.773094 8.691435 
-8.752909 19.647018 11.175249 
29.259706 -8.413339 -8.221159 
28.036398 -8.430308 6.200262 
28.033680 1.394058 -9.772285 
21.597275 15.626538 0.558982 
14.095204 20.833908 -5.061435 
