18.252592 26.047302 19.966255 
18.506828 21.725512 3.698356 
13.013388 18.061655 0.166066 
30.009691 3.963200 17.965893 
12.230330 30.801527 8.702378 
19.697830 -2.912642 -3.622584 
-3.047729 35.075874 14.637871 
27.742937 8.559704 18.964148 
-22.964033 12.588001 13.298701 
12.402308 18.714445 13.942194 
-22.894342 -9.869909 12.363570 
2.094092 28.015171 0.779903 
23.739372 -10.018372 7.970163 
4.945920 27.473385 0.584422 
-19.237637 19.417063 11.457958 
17.239058 7.495084 13.746502 
-22.678596 7.282961 4.963622 
-15.353104 19.864717 0.854878 
14.575012 17.889156 -0.727504 
-17.581179 7.293495 7.681109 
6.603145 29.742767 10.644539 
-21.189884 10.302311 0.633794 
-26.018599 -2.983194 -1.473666 
-30.974520 -10.170896 14.099346 
9.496578 18.160999 -6.782386 
-12.798430 22.850904 13.012560 
-20.405121 6.481648 10.764223 
22.888546 8.834846 12.838149 
-23.043388 19.237551 13.149200 
9.752770 24.499853 3.207451 
-8.120524 29.332415 -1.346436 
-16.583294 26.903761 12.989297 
-16.496321 16.307720 -1.494781 
20.853331 -2.025583 11.518318 
-16.589912 15.921749 1.406820 
23.181263 8.256288 3.025606 
-20.668144 2.734957 6.556711 
19.963934 20.538122 15.605532 
-12.821324 26.963282 14.900643 
14.262928 24.493572 6.296515 
-3.129271 26.593212 3.088318 
22.825874 18.495676 16.214003 
17.706167 11.882010 6.378294 
-30.392727 -3.603929 13.631878 
-14.468798 14.294732 19.892496 
27.969154 -3.103961 5.053648 
-18.784519 6.358610 11.917206 
-19.779743 13.618330 12.340823 
-25.530910 2.939438 7.926545 
-30.632223 -10.493883 0.239362 
21.061371 14.145877 11.878956 
-17.450407 6.221570 11.914767 
-9.752878 32.587002 11.861149 
10.143176 21.969170 -0.823259 
14.890332 28.998625 15.147292 
30.024174 2.662755 14.640837 
-13.588957 13.332780 4.106042 
-4.070861 24.933800 19.406586 
10.914392 29.416311 17.333735 
-11.875906 23.854794 -1.898872 
-2.641228 27.714071 4.754254 
-34.314121 -10.512866 9.527559 
14.415318 17.693222 0.300850 
20.603025 -7.541336 19.845686 
-5.284414 27.067446 -1.796584 
-17.577587 21.696604 -2.057295 
-4.186275 22.461018 -0.342831 
14.438352 19.060072 7.147959 
6.104909 20.806080 -4.758823 
23.022573 6.480135 8.236561 
0.252230 31.505783 13.631190 
20.934797 9.372499 12.753074 
-26.511967 -12.372494 8.708690 
16.728441 5.543159 17.835175 
-10.745983 31.545757 13.519205 
21.234867 11.906118 5.471355 
-18.931868 20.185488 10.703261 
-14.633278 9.604921 0.148978 
-1.803525 36.639206 10.737006 
-26.405596 -12.566495 -0.783179 
-27.007799 -2.910371 -1.056390 
0.159046 35.425121 7.726431 
24.384108 11.098504 7.693045 
17.594393 4.472536 12.713280 
-8.872846 26.140863 12.681993 
-30.863468 -3.008289 11.973271 
14.768343 16.108179 14.650229 
-25.613300 0.297647 0.067187 
28.394705 -11.774802 21.419056 
25.451664 8.288508 14.255661 
17.131954 15.370637 14.658515 
-16.275925 23.354155 7.418238 
-15.402569 3.992297 -6.480290 
-18.936131 24.779551 6.881856 
15.950132 27.779482 7.760198 
26.421329 -14.226345 8.136787 
-25.662745 -0.994194 5.593475 
4.724642 32.274818 21.986637 
15.639915 19.830885 7.901594 
-15.150501 30.848820 8.759433 
19.058035 6.052033 12.833304 
-14.671904 5.853979 -6.572251 
20.777302 17.431175 5.095911 
12.260464 31.541567 9.498354 
26.333040 -1.626554 8.573667 
-4.909900 30.452927 8.057331 
-9.866645 17.534727 -0.785908 
-17.984167 20.493053 -4.148141 
-11.693592 21.163074 1.531594 
-14.967737 20.590792 -1.346180 
-6.629364 25.332165 -1.753233 
-24.888508 3.490339 12.032889 
-28.983992 -10.030869 9.337009 
6.594050 27.604427 14.462297 
-27.955629 6.403992 8.547959 
-5.537183 26.145689 4.335863 
-23.008417 -5.847390 -1.956816 
-15.943721 11.588810 21.507513 
-12.594665 17.280539 5.558055 
16.852957 15.192987 13.400407 
30.930126 -0.709659 -1.862812 
-8.286287 26.479437 0.373207 
-13.004526 11.949668 2.364261 
-13.600277 17.654049 14.259337 
28.429571 7.755355 9.635466 
-4.580972 30.115715 0.268904 
-28.150845 -0.316343 -3.104360 
-16.163109 19.134106 10.665065 
19.033485 12.221465 -1.605214 
-16.833614 6.251412 3.173079 
18.418312 21.824005 2.765671 
-25.997896 -1.002320 4.671308 
29.437740 -8.344783 13.248846 
22.751791 14.578144 1.711746 
-23.950451 15.378839 12.756253 
-26.710516 -14.282093 1.463370 
30.254297 -2.747975 2.814137 
19.566113 13.782784 7.510319 
-29.718351 -12.969986 1.514996 
-27.372681 -7.675825 4.781741 
-20.767002 11.601818 1.241148 
27.955164 7.636442 7.678333 
-14.673272 28.780062 22.490400 
4.314519 29.012476 13.151193 
13.568399 18.199764 12.284354 
-25.039669 -7.032689 5.768142 
25.138306 -0.936922 -0.426656 
18.566038 13.261423 0.832004 
22.576487 12.392208 14.991051 
19.553267 19.095976 7.206183 
15.692308 17.474836 6.874964 
-20.447395 24.484837 12.422761 
5.652050 26.694529 13.675430 
24.424202 -14.512702 1.381212 
-33.431637 -6.066963 6.624947 
14.805906 18.064182 -2.498209 
5.919492 24.248165 0.073673 
-33.032421 -10.069845 9.979623 
-8.526705 27.819355 11.889670 
-8.049207 28.839443 13.590230 
23.838560 -11.375138 21.317736 
13.506119 26.318192 -1.507024 
-4.929704 29.148544 11.701100 
21.547844 7.801042 7.695606 
4.730035 28.517872 15.796554 
-2.105917 31.227314 12.133467 
16.457335 18.777214 7.874701 
4.396746 23.724016 20.713909 
-29.819666 -12.468869 13.143385 
25.503813 -10.335488 8.739706 
-20.714264 -5.708145 1.358935 
17.647131 9.415173 10.595140 
18.370623 24.824030 9.385879 
-7.183107 37.569260 8.654531 
18.153534 1.730503 21.886871 
-1.609446 22.022747 -4.082086 
-23.390903 -12.315784 0.547396 
9.326400 27.628645 6.482370 
25.545073 -8.664249 7.359295 
-17.685677 7.208076 3.024065 
21.676184 -10.722042 -0.776170 
-3.427657 30.960480 5.706518 
23.789587 -3.152337 2.197661 
-22.096701 20.690334 8.744448 
-26.609280 2.234427 2.325363 
15.898390 21.324335 5.001287 
-14.217755 19.297918 1.628284 
-12.229107 11.779583 -0.619533 
-22.301517 -8.028531 16.119381 
17.832472 13.424347 13.139224 
18.193169 0.665480 19.946735 
32.575863 -6.512917 17.281704 
5.850745 24.574574 1.414077 
-22.254347 -9.496451 4.858623 
13.091394 26.577595 2.109196 
19.894373 7.435027 11.871215 
-27.718899 -3.271064 -1.592587 
-11.359385 13.024906 -6.916226 
-23.381460 18.128859 12.506406 
17.460159 3.058843 14.460752 
-1.974404 29.506744 -4.495164 
-23.917994 -8.240020 12.047066 
-19.682348 6.591706 13.336199 
-18.049614 19.934517 10.405658 
-2.573352 29.926706 12.399326 
2.110452 32.518761 18.451906 
28.367994 -3.428857 15.829776 
-30.379612 -5.524287 14.414844 
14.241333 17.376997 14.633932 
-21.170084 15.496078 15.407619 
-12.697652 23.206682 11.326333 
22.291794 -7.415663 8.526625 
18.508244 1.492119 2.260833 
-16.418970 0.000610 0.390903 
-15.338103 16.055252 -1.672118 
-22.637091 -7.793438 2.897342 
18.053917 26.710539 15.701458 
9.426543 32.901600 11.379111 
17.862528 15.594224 15.656641 
-13.587115 25.211178 -1.348232 
12.060608 30.553511 18.827972 
-11.593516 20.399132 2.811730 
-35.174023 -8.228496 17.246080 
21.830751 -7.250055 13.925735 
22.010519 7.218555 11.849902 
6.772477 28.086517 2.010080 
-19.061356 7.203602 0.076464 
-12.449570 21.218454 12.326101 
29.745947 -3.549863 4.053623 
30.437485 -9.342524 10.638291 
15.691816 22.267040 9.655608 
24.272964 -11.001971 5.389680 
14.957434 11.354693 -4.553197 
4.213841 33.053078 20.218540 
13.598587 21.578495 12.326174 
-19.836853 22.437250 13.170883 
-1.706385 23.457329 0.292712 
-13.757449 28.635921 8.404089 
16.973629 28.841883 13.636774 
24.368732 -8.957039 1.664661 
20.635740 10.951035 7.207037 
4.912265 30.701427 6.871905 
-23.700367 16.267298 12.013609 
4.336503 35.587193 10.575906 
14.704730 11.236861 22.317980 
3.363937 29.553162 6.765688 
-8.140492 27.563414 1.611316 
-28.578501 -6.997921 -2.465799 
-19.525288 1.859441 20.873737 
11.213756 22.908253 13.522727 
12.960205 21.870003 15.053018 
19.893896 20.862106 3.538774 
-22.035835 -3.873235 9.574750 
21.928671 -6.414709 3.641249 
5.218408 26.440174 1.642013 
31.023315 0.046592 15.099834 
18.748051 24.860003 13.067840 
-23.527922 5.729079 10.968138 
-18.092821 7.314458 2.229649 
20.078222 16.541201 14.645651 
29.005211 3.865989 0.275023 
-17.703522 -0.873072 5.113144 
12.502755 26.954998 9.568002 
20.368753 -0.756767 10.312305 
9.652377 24.880432 -1.754628 
-19.451908 6.195873 8.285936 
28.777847 4.690921 22.337887 
-30.474785 -4.404379 -2.496833 
-20.644382 25.150530 18.218103 
25.948935 -8.696774 11.899837 
-22.150684 22.285101 16.808018 
-18.465717 21.138231 2.242146 
-0.812893 27.128323 4.162538 
-15.447791 22.730772 1.991437 
-2.635916 31.096798 7.662465 
3.472050 34.182545 8.559172 
21.476727 -10.678415 1.297611 
-24.646875 -7.315877 -2.544494 
21.715023 6.806221 15.361109 
-16.777039 0.923473 5.833773 
-10.673731 28.105242 11.070085 
-20.225645 26.174366 16.006353 
-14.306761 18.807295 11.986999 
-15.500426 12.107203 -0.520232 
-20.418451 -1.909870 9.995675 
-25.498201 3.623875 5.522528 
3.809783 29.866762 -1.607250 
16.914375 9.828699 1.312036 
-0.149377 22.203762 -4.136779 
11.829087 25.558113 16.188383 
-14.006446 7.850576 2.260370 
15.514682 21.551136 -2.168218 
10.595397 21.957809 -1.980194 
-20.353285 -9.783733 -0.419767 
-26.077168 -0.281203 5.469666 
-4.027910 32.607403 10.707070 
-2.333331 28.312601 5.295178 
24.249544 14.411244 7.749347 
21.964375 9.531849 12.416604 
-0.213335 22.858208 -1.783725 
10.570523 29.795300 10.013584 
28.333984 4.372742 3.888208 
-11.603996 31.603809 19.703184 
-24.338160 8.226646 7.767463 
-19.930893 17.887373 15.885427 
15.459389 20.441858 2.965789 
20.787703 21.585096 14.158745 
31.216372 -11.368299 7.252707 
-23.780991 -12.438886 4.953929 
-27.731745 -12.479335 12.809089 
-16.382683 14.237983 6.615812 
28.710686 -0.086585 3.037047 
6.844116 31.185434 12.417826 
-23.519625 8.552455 -3.092548 
0.656564 32.160385 10.809597 
22.352842 5.750253 -1.130762 
15.356200 22.927841 -2.980179 
-25.213848 -9.631223 4.836175 
22.871862 -0.183182 14.728170 
-19.280781 16.705664 16.006207 
15.537962 10.074339 -6.193374 
11.516057 19.991030 1.667263 
-29.843832 -0.338010 8.363718 
-14.801629 22.671366 8.933305 
-15.000770 23.176361 14.859691 
-26.920607 3.031221 14.920056 
-21.664738 9.614857 14.389305 
-25.151266 14.371174 16.035954 
-24.763235 -12.309805 14.436465 
-9.211296 28.190905 14.646385 
9.476493 28.282759 -3.219642 
-20.176052 0.084588 20.758192 
12.514137 18.204176 12.735033 
-27.553535 -2.968947 9.565866 
-23.035803 -3.669009 4.910500 
8.980807 31.866644 18.845015 
-24.077204 -12.584290 -5.706071 
3.109708 33.014858 17.798250 
0.247908 34.977856 14.426536 
25.200226 0.369840 6.862432 
-22.339010 -11.405849 3.527394 
8.285848 32.137756 18.371836 
27.778706 5.217553 -5.662459 
2.314867 27.108070 3.931842 
-20.586487 11.753598 -0.937327 
-16.410120 21.793970 5.936952 
-25.248056 -8.060109 5.500932 
16.085758 29.404598 12.980539 
-30.071115 3.215212 10.278854 
21.375278 13.358661 0.152211 
0.046642 28.741821 13.437688 
26.617825 -7.157013 1.431418 
27.599098 6.629237 14.576719 
-25.458595 13.655643 17.751108 
29.278677 -1.028683 9.005433 
29.841396 -8.527267 2.552642 
-9.820288 28.404011 -3.063379 
-17.858080 28.451683 10.708593 
-19.774010 9.209311 5.299218 
23.718643 4.622284 8.014352 
15.250896 17.487833 0.870137 
-7.060541 30.447161 6.241961 
-34.116837 -8.037854 14.121226 
-30.235550 2.691547 11.197110 
24.893347 -13.607750 5.926495 
-1.597276 34.745220 15.329032 
-18.363390 18.574953 -1.013518 
20.445765 4.048069 12.210387 
-14.502843 4.944123 -2.831584 
17.532095 12.808683 13.664132 
-19.233219 -5.961204 1.441626 
29.704369 5.132178 16.280197 
15.619645 16.618809 0.783954 
-34.800797 -11.044970 10.357225 
22.412609 -10.842153 3.337817 
11.691504 29.961679 21.998127 
-22.440977 -8.554240 -2.071119 
-23.554943 4.437725 14.910233 
-17.044266 0.407641 -2.441072 
-23.639872 19.129005 16.744188 
13.002260 23.280920 12.951948 
13.500909 29.940378 17.844002 
-24.558435 15.566373 14.888072 
-13.548783 19.476458 12.463245 
16.789469 27.368135 16.447903 
-9.119314 22.687271 3.556017 
-12.772541 18.660887 -1.851500 
13.396940 24.969234 13.846281 
-23.877682 -6.612318 -2.324486 
-34.815735 -8.645069 10.590493 
-22.559675 12.356005 14.012136 
-2.476496 29.342331 -0.966474 
-15.545532 11.633545 17.300295 
22.131403 -10.502461 17.735785 
-10.052488 25.868641 1.391498 
27.069275 1.480137 1.833288 
11.967316 30.417690 19.786417 
-21.775354 -3.114958 13.612364 
26.132406 10.535581 22.588720 
22.689169 -8.203346 8.424645 
-25.812263 2.587019 -1.055646 
32.229218 -6.925496 -4.873050 
15.919639 20.667501 12.728635 
-13.807729 22.891319 1.088917 
-0.351520 35.927731 11.356754 
21.280617 -7.694188 13.474995 
4.779653 27.551065 4.494445 
17.829693 1.691999 -0.148826 
26.704348 -2.368838 4.215883 
-32.033379 -0.367083 17.168499 
23.361216 12.819370 14.776566 
-23.671301 -10.942076 13.637502 
-13.036048 22.034018 13.309221 
-8.919736 30.978359 9.905272 
27.498156 -13.628497 7.579077 
30.401011 0.348522 -3.717378 
-21.088316 8.295749 5.211334 
-3.702917 30.294239 0.251439 
1.919156 33.091465 10.054727 
4.438161 33.074574 9.636920 
-13.639343 25.536667 11.371375 
19.164669 2.074139 8.738194 
26.834299 -11.316469 11.474113 
12.226416 27.681835 9.855520 
29.838047 -1.314531 14.619230 
-13.544217 18.656561 -2.137854 
24.558130 10.028167 10.101809 
22.242275 16.476608 12.796465 
16.680519 19.438749 -3.399626 
21.730972 -2.977837 9.871213 
12.618601 15.529383 13.985748 
-5.489125 33.626167 20.041689 
-18.690285 19.848246 0.106989 
11.145663 30.701267 20.144894 
28.730785 -8.715490 15.255567 
20.712795 5.680670 6.851596 
25.665890 8.793170 7.952670 
-33.756050 -6.058010 20.051577 
24.726389 -1.009205 13.938273 
20.528252 -2.332941 3.928107 
-27.991739 -13.247779 3.581474 
-15.653591 2.787512 1.446373 
15.834173 25.319574 0.103727 
19.725460 -6.526045 15.624583 
-17.545578 6.056814 -0.273400 
-19.715122 14.589210 1.035991 
17.175699 24.852863 15.367395 
-6.202671 27.742540 5.735958 
-13.196137 12.668950 4.639679 
22.649879 2.347396 15.495729 
-0.114328 28.314926 -7.563632 
-25.643070 -13.221830 9.240903 
2.490428 26.340143 -2.020235 
-10.212044 30.027748 9.560577 
22.450138 19.042822 21.474119 
20.912535 1.461560 5.797867 
-24.237619 -7.727798 6.976393 
24.328890 -11.516294 11.385566 
-8.894871 30.243071 14.400620 
-8.551394 30.150171 16.210857 
23.267212 9.097207 4.731220 
-18.290840 8.909818 2.171719 
-24.554834 -8.083488 4.891350 
-5.100443 36.954948 11.022593 
-28.611015 0.999175 14.384489 
-2.382766 30.515789 1.398105 
-17.277710 7.217515 19.487907 
7.824480 21.608351 20.479328 
-18.049192 8.297074 -0.151473 
13.819191 18.832424 1.097371 
22.845913 14.519375 11.627802 
-17.707222 26.275589 15.362746 
-17.318233 5.229074 -1.950252 
25.866961 12.364114 16.776365 
-29.332439 5.888643 15.554797 
13.104579 29.209269 12.572920 
5.172238 21.771744 -2.910197 
-0.164722 29.425032 -4.803184 
5.488383 23.504953 19.479982 
-24.529953 -1.012864 14.647162 
-14.766796 25.267824 5.522225 
-8.479829 24.250093 -0.742753 
16.270000 18.088678 5.366783 
-18.066669 10.384409 11.227733 
-29.443260 5.715668 16.616188 
22.209055 20.512339 10.247685 
28.913965 -9.589359 13.428392 
-0.147614 28.938160 -6.118412 
24.619116 11.316628 1.721046 
11.559171 19.664278 0.819483 
5.607276 29.674210 14.068825 
20.243578 4.626901 15.147769 
-20.838936 0.526045 -3.080239 
-27.891674 -8.689395 4.842897 
26.300932 9.205052 11.198787 
-9.983974 28.009396 15.171679 
26.025654 10.157917 9.446488 
29.354021 -4.238780 2.865721 
25.948412 8.369359 13.534341 
11.245914 21.569925 0.188123 
-19.713902 -8.051046 2.208678 
-26.182392 -3.353702 9.811994 
13.891312 16.930664 7.709826 
-21.582827 21.677618 12.325541 
21.647182 20.520851 13.071283 
28.428782 -11.446116 9.442402 
-23.844501 -8.833138 10.791145 
30.055830 -4.152393 4.544725 
16.323099 11.163903 8.369963 
5.998782 31.510717 23.200806 
20.749260 18.327429 -5.111541 
-2.794887 25.045237 0.810640 
7.908473 30.396606 15.940248 
15.305517 10.504451 12.933910 
-22.263363 -3.617622 2.417150 
15.308525 10.914857 -3.237751 
-8.164393 31.088415 10.831588 
13.758911 16.545994 8.588819 
31.022261 -11.032144 8.205402 
19.862741 2.849817 7.590021 
20.923014 18.358793 -3.471072 
-19.904032 -2.339921 10.959170 
6.511624 25.667627 -2.306325 
-14.274521 11.422614 0.999469 
-8.219849 31.877026 10.390792 
17.985548 19.848646 -2.869037 
11.106849 29.097403 9.866615 
23.395054 13.154060 0.127590 
16.810936 7.247024 -6.004702 
18.435383 23.468744 10.638717 
6.912377 28.272867 11.634452 
-12.583595 12.205475 1.269134 
-14.895340 29.291634 20.932795 
-32.862347 -2.751516 7.607553 
4.491769 25.160717 1.560196 
-24.440805 4.316360 14.977444 
-14.411493 29.723986 7.755997 
31.075434 -13.237342 2.310228 
31.279631 -5.910920 15.592860 
20.216347 14.529783 7.546166 
18.248301 1.391748 -2.991403 
-8.328405 29.527519 5.255099 
-18.254921 16.155144 15.931765 
19.369736 -0.683452 0.651979 
2.626997 27.483511 15.079797 
-16.015747 22.199320 4.729108 
27.029116 7.040205 -4.445946 
3.252892 28.115572 15.886074 
32.293575 -4.773554 1.971468 
22.265045 -2.905897 0.483625 
-4.490295 24.149151 22.510630 
-20.924057 8.571177 2.874643 
24.535692 8.968234 0.645995 
20.512516 15.895908 0.323965 
-15.821390 14.218490 2.315288 
-13.733159 20.779114 0.919684 
21.641502 6.980860 7.555511 
-31.936016 -14.222278 9.957608 
25.487514 -2.262810 15.203487 
16.497726 6.988888 16.188353 
-26.141111 -10.735881 4.795249 
1.455120 30.000185 17.420563 
-8.050238 37.097775 9.593926 
-31.364550 -10.013079 -2.479069 
1.943081 28.209377 12.430358 
21.893627 17.793577 7.623887 
-25.181063 2.006521 7.481906 
31.212481 -7.617551 7.959148 
11.801024 27.389227 12.160320 
15.441815 15.932720 5.411985 
-22.071716 8.775021 14.155855 
29.377819 -10.527490 12.528344 
-10.881182 33.063591 11.152660 
32.194263 -5.074205 20.717798 
-15.552900 8.866619 -1.096973 
9.787755 31.219711 8.821445 
19.582956 10.041866 14.582121 
13.352526 30.035156 14.895997 
9.503264 28.401909 -1.786145 
-20.744722 4.231452 12.267445 
-28.870726 -1.360554 12.050154 
17.699852 8.967147 3.235358 
-5.361289 28.210859 12.385040 
-5.688581 29.105421 -4.632130 
-6.481539 26.993725 5.296402 
5.164784 28.973640 13.484163 
10.843892 22.889105 3.060799 
-18.899809 20.338467 1.750217 
12.017665 16.961241 14.950322 
9.999609 18.296152 -3.628248 
17.519175 6.380999 13.760192 
-23.504000 -0.070352 5.741600 
-16.889954 14.983340 5.100377 
-18.731947 8.252188 14.154968 
-0.297406 34.443073 14.807231 
-5.471339 27.416470 5.116684 
-20.656322 12.950683 11.328977 
21.892302 -9.507606 -4.937288 
13.097496 14.815092 -3.142233 
-9.766888 28.871609 11.747801 
20.211800 -6.232684 -1.535670 
-18.653830 7.269526 6.684437 
24.842997 -9.758277 1.780486 
15.233616 13.011024 11.665229 
-13.021276 28.753742 15.743183 
3.045599 35.298859 7.729490 
9.184678 30.534372 9.914289 
-28.593607 -2.813776 7.374937 
22.976849 -5.224261 11.905805 
-15.091202 12.932901 19.495659 
-20.669491 -4.265687 13.798855 
17.698181 22.681335 9.751262 
-26.817047 -3.473761 9.260342 
28.354614 -9.093645 1.954010 
20.259474 -2.214090 4.999068 
-13.403293 10.420740 5.896881 
-4.542304 30.088343 11.360263 
-27.123102 1.868649 -4.475876 
30.597921 0.877723 15.011852 
9.305158 28.300476 11.718305 
-25.752869 4.471749 3.331228 
-25.878248 -2.172681 3.124282 
5.451182 21.223890 -4.330886 
-14.539935 26.144655 5.545948 
24.199097 8.434583 1.342859 
30.375618 -3.919140 15.751246 
-24.135281 7.356071 -1.631115 
14.765413 18.922455 1.885888 
8.961557 31.142513 9.312885 
3.555166 24.155428 -0.412921 
-19.440533 10.309635 14.386682 
12.903736 14.599974 -5.275947 
0.731584 31.290773 6.731590 
-19.923840 13.923271 2.156847 
-16.319231 10.689050 13.399556 
9.426865 21.592016 16.318750 
-8.004664 36.728909 7.564554 
-15.768602 3.061716 -6.434339 
-18.148827 22.832216 14.914737 
27.825470 -1.983346 15.471332 
21.202303 17.195099 12.419636 
5.650708 29.331867 -2.737641 
-3.683933 27.887918 0.680035 
19.457996 19.575491 -2.539915 
-14.128315 19.851229 5.761538 
-26.787338 4.364214 12.366142 
14.767164 19.828554 12.491736 
10.092567 21.645420 0.208377 
-12.918119 27.922300 4.421689 
-31.536251 0.559287 15.103878 
-31.125584 -6.604165 2.139761 
17.478241 14.584919 1.128944 
20.301950 -3.818715 2.624017 
-24.145151 10.662740 5.818213 
8.016549 28.641769 14.023432 
-21.451735 20.919292 9.854218 
-22.968719 12.744088 5.759239 
23.102476 8.613619 8.271532 
-0.687952 35.357975 7.855287 
22.484274 14.881844 4.112469 
-15.727788 1.806152 4.643036 
-26.575022 -14.108638 -0.704911 
23.098446 9.686997 10.242290 
-13.682783 22.895378 14.167775 
14.043353 28.845619 8.705607 
-19.396748 0.905824 8.716092 
-15.718861 7.669258 5.908553 
1.299514 27.245754 13.398625 
-29.282881 4.833502 11.208808 
-23.613335 -10.927273 12.436574 
-9.739120 26.524147 6.268661 
18.691668 14.707101 4.858980 
-12.341018 29.528910 15.979787 
14.976951 10.028399 17.138601 
27.959518 5.383754 -4.479665 
-8.057216 29.084682 -2.970675 
30.354567 -4.759703 7.471396 
23.175041 -9.571533 12.610879 
-6.990229 29.729801 8.354876 
-29.976099 -11.579089 3.672035 
3.419039 27.382662 14.795605 
-27.651552 -7.314223 10.378141 
27.439909 -0.174458 -0.026425 
8.804426 20.248173 -1.638170 
10.724383 19.895065 -0.650965 
-12.604484 10.566235 0.344740 
-27.985023 0.468758 5.905298 
-7.077641 25.008400 2.379343 
-31.313498 -10.575814 9.299157 
23.591553 13.041017 -1.366163 
15.586384 8.605537 18.622463 
-8.706040 33.688236 17.147112 
-17.577976 21.520720 -2.897276 
20.462502 -7.380161 -1.662742 
-5.588397 25.323828 -1.659083 
-5.718304 36.695789 11.544126 
32.166748 -6.758228 11.264383 
23.669916 9.867831 -0.344122 
21.609980 16.955648 -2.989544 
6.567310 28.294645 13.545302 
-21.203438 -10.878386 0.303051 
-17.582817 -3.282835 -1.304425 
26.998320 -1.297306 7.026166 
14.511558 16.032272 7.906994 
-17.846386 5.381073 19.085348 
-17.116438 12.410749 6.970424 
-26.363491 6.759057 11.376189 
19.582924 13.247089 4.935456 
2.365844 33.394039 20.245655 
-23.292934 -2.272270 14.174187 
-21.398512 -1.873170 6.750321 
22.912109 15.114792 10.640238 
15.175954 28.314579 7.909613 
-16.992973 -2.193741 -1.696372 
-2.737278 28.517845 -1.893777 
-5.072830 37.573357 9.413157 
-1.590068 34.371151 18.012394 
11.123206 27.610142 12.971627 
23.300262 16.234810 14.759935 
-23.016218 16.727961 14.870975 
18.715649 24.790247 12.202760 
-8.682019 22.513866 2.873852 
-15.300360 26.782906 13.720355 
-24.055540 -8.864430 4.879157 
-5.094637 27.618649 1.497931 
14.955930 15.661013 -1.280621 
24.872589 -2.821726 1.589289 
-2.124244 24.998701 20.403322 
16.786875 8.766801 0.760445 
-11.658001 26.350096 -6.303893 
32.449837 -3.182336 15.460832 
-19.835787 23.097347 9.712066 
-11.696560 21.374319 13.611110 
-14.476424 21.633848 9.646813 
-2.115165 33.145496 13.876528 
18.594193 13.723496 13.796543 
20.850470 -5.600722 10.652934 
1.117197 30.740618 17.710794 
-10.984684 21.909132 15.086410 
-15.825955 8.612203 2.475526 
-31.021557 -12.518941 10.503956 
19.119337 15.864635 14.196804 
22.550524 -1.466707 6.825505 
27.754873 5.735350 3.808325 
21.967260 10.495139 -2.517037 
8.790204 18.724451 -6.829298 
-34.418335 -12.282354 13.585623 
-31.328503 -7.358312 2.448405 
12.499953 25.988762 1.984674 
-10.902663 32.769886 14.330075 
-10.022705 26.194868 -0.862115 
-30.565506 -6.867826 -1.986076 
-22.292109 0.917134 5.128245 
-21.412090 3.153071 -0.171148 
-30.378576 -10.621022 6.829943 
-1.855066 35.757725 12.036959 
29.101351 -5.791606 8.087673 
6.787525 26.000303 0.776040 
-18.506811 1.660259 12.365682 
25.834269 -2.838717 5.020214 
-30.470646 -11.074029 0.915377 
-14.667174 31.363663 8.306361 
5.668496 35.246239 11.213757 
-25.265684 5.155543 -6.750028 
-14.802870 4.040098 -2.807062 
16.534927 19.975306 -0.732159 
12.404591 15.287157 18.882116 
-1.718970 33.852867 10.450932 
19.003197 6.003370 5.888208 
-35.497437 -9.546377 15.313794 
15.068322 21.472260 13.647403 
-26.289225 -12.219500 7.756685 
15.406157 15.968848 15.726062 
28.871243 5.502172 9.536019 
14.958923 20.908644 -2.304729 
26.350128 8.615626 7.513710 
20.713179 18.243572 5.389733 
-7.806098 20.489105 0.262656 
27.088179 2.642194 12.928859 
28.763176 -7.265474 1.959234 
-10.236924 29.976883 15.043894 
-24.152426 15.906878 21.523479 
23.019606 -9.089212 8.652421 
-14.689238 4.889794 -4.552438 
-23.728031 8.487730 -4.262463 
-26.112038 7.971937 11.783432 
8.933904 33.167362 9.467136 
-11.813189 23.313883 5.262971 
20.422230 9.455143 13.749584 
23.431719 -7.373446 1.709408 
-15.144319 24.625824 -1.549784 
-20.268417 -1.336600 -2.640689 
14.593515 19.167677 13.633931 
-7.011573 34.482632 9.741871 
13.096802 28.296928 13.202468 
-14.793802 11.751854 2.230961 
19.837711 20.858381 0.539732 
28.659933 7.103447 18.217243 
23.636589 8.379037 14.517099 
-7.778535 27.265745 6.397983 
16.256983 11.071620 9.297424 
-3.900532 29.567118 3.346737 
-0.286918 31.976028 10.438645 
-20.857992 -2.535399 9.595155 
26.064127 -3.893949 8.253278 
19.103844 1.381794 9.622153 
-29.738720 -12.638539 12.273288 
15.643919 25.350153 3.253823 
19.795336 12.630363 -1.796123 
-21.492260 5.453123 -2.858443 
29.244766 0.696086 12.756180 
-6.714079 19.092779 -5.713094 
-16.431423 26.288504 15.305077 
-20.983179 9.592847 1.152756 
-5.454502 33.257923 20.902605 
24.247629 10.128894 4.232279 
-19.489183 14.823456 7.023524 
-8.555083 24.660671 0.269082 
14.520725 16.500208 -1.213058 
-26.191236 5.156633 14.744523 
15.002864 18.386658 15.985309 
-7.852343 29.348076 2.114903 
-23.691095 2.912839 -2.953635 
9.778393 29.871315 10.296875 
-30.901072 -6.533947 7.220539 
7.582419 31.116304 14.216401 
12.128717 28.686802 9.921696 
24.632074 13.048645 7.522701 
15.600697 22.022654 5.669937 
-18.689457 4.325743 12.183637 
25.016314 -2.855351 6.453368 
-4.624573 29.177822 3.475134 
24.108702 -4.718984 2.151844 
24.616346 11.965417 7.766206 
12.082792 19.504555 14.022367 
21.740002 -5.697659 14.092899 
16.443871 22.527777 0.716260 
-9.811439 36.037395 11.022458 
-16.595741 21.178993 8.463160 
7.536371 28.977829 10.669679 
-24.206903 12.230447 6.728746 
-18.492987 10.051513 12.569111 
18.661644 14.974981 10.497788 
21.474581 7.879565 3.588145 
-18.366968 26.677074 6.190847 
19.988100 0.669685 13.993307 
-15.151831 21.026333 -0.530032 
20.163387 22.326782 11.134703 
-28.649309 6.281630 13.257461 
0.795677 28.522177 15.993536 
-18.789862 17.547489 3.962436 
22.631746 13.999919 0.580198 
14.169272 27.288618 16.495842 
9.687988 25.478071 14.855344 
3.509520 28.944906 5.844951 
-5.667439 29.740473 -2.209277 
-15.787699 0.167107 -0.524069 
-12.495026 27.823975 7.818892 
-4.140895 29.795675 4.916973 
10.410387 18.729313 20.450071 
-23.139448 19.654261 8.992965 
-20.491653 -7.018527 3.226760 
19.010586 -2.415943 14.751591 
8.158600 26.429338 -3.049824 
-6.115079 29.317266 12.796616 
14.629662 16.428234 7.196877 
-14.790185 31.267687 9.722436 
-20.999336 -2.998017 1.988888 
23.335773 -11.585728 17.447861 
4.350529 23.208246 -0.605740 
-8.646569 32.222855 15.010136 
7.260977 27.170986 12.538453 
-17.704992 -1.322263 2.571478 
8.855404 23.828657 0.830952 
17.900267 8.729193 4.147507 
-28.209654 -5.901907 -2.364033 
-25.304956 0.285486 -0.704657 
21.581512 8.325670 0.249717 
-25.125082 -5.093815 11.230303 
14.512263 11.275092 20.077732 
-5.092676 24.409641 -0.884020 
31.710398 -12.249306 5.553022 
-23.529490 7.984477 -1.630683 
-24.331854 8.359495 9.456773 
23.915550 15.132642 14.629344 
-16.429571 8.892893 16.584061 
12.917920 20.374674 -2.113723 
-6.878265 21.376919 0.008010 
22.719891 10.061960 7.318541 
22.235201 -2.447102 13.957511 
-20.330360 5.964409 9.053922 
-10.082376 23.560715 -1.525779 
-8.704255 18.937622 -0.964503 
-19.255272 21.875446 9.621449 
-15.103676 29.930038 8.918633 
10.000674 30.298065 23.242262 
-33.824432 -12.379777 9.212732 
16.262117 24.162882 -4.688141 
-1.478691 28.048836 4.948262 
16.401373 25.759991 16.178963 
10.854533 26.311716 13.905803 
20.560474 7.956468 7.687161 
-28.083197 -12.204366 5.592883 
20.885777 22.294859 16.253569 
-27.513245 6.753532 7.779783 
24.502733 1.734342 6.274023 
25.664249 -5.815899 7.517898 
18.361834 11.278206 14.887360 
31.644880 -7.780343 7.266088 
-16.023298 25.344143 6.743550 
-26.519938 0.673802 0.008400 
-17.799862 19.099108 -1.903482 
22.160500 -2.609720 9.253045 
5.652503 30.303505 6.946599 
-19.653812 8.426556 4.885789 
-14.595657 25.195086 -3.034506 
21.744440 2.037288 5.335419 
26.567522 7.851194 -4.529214 
9.309427 32.851318 8.552310 
31.388401 -0.420239 20.341091 
-21.650560 -4.695557 -1.130658 
-9.009706 34.096729 14.833775 
-13.718952 31.911522 11.256313 
25.367771 4.330581 -1.185800 
29.479849 -6.623531 2.337341 
22.039564 -9.287951 3.339008 
-20.174431 20.943932 6.418631 
-21.717300 14.592390 10.411017 
8.134212 33.092941 11.749935 
22.800461 -2.491549 8.298274 
-19.661629 9.165203 1.080656 
20.989979 11.776559 7.433048 
-29.845451 -5.057248 -1.864890 
-6.239727 32.737659 16.247252 
8.883006 25.881506 -2.964414 
6.663590 24.543453 15.440162 
-21.535000 -3.206799 3.064457 
23.175610 -11.580752 15.919113 
19.691204 -4.173894 13.207922 
5.683925 28.044264 1.118437 
-12.438116 20.744114 3.970523 
24.861715 -4.386592 2.118080 
-3.803261 37.569126 9.341582 
26.047834 7.824046 14.940873 
10.523426 31.522289 8.539792 
-23.032125 15.895226 14.600865 
-33.219139 -10.804714 12.742589 
-22.009205 5.465676 5.822451 
20.479267 8.095077 0.003299 
26.089151 -13.805031 4.036336 
6.856783 22.727278 19.202736 
23.230478 5.630091 1.336892 
12.716668 19.544884 -1.416802 
-16.784046 16.991011 14.802152 
-13.078373 24.706661 -0.010619 
-13.765977 6.744419 -1.766372 
-26.900087 -11.864491 5.804366 
-21.122993 -2.707891 13.207564 
-20.154408 26.198301 14.863317 
13.484680 20.156195 3.997618 
21.868504 -10.704713 -2.008442 
15.535038 19.454657 15.222810 
-13.240450 25.028963 -6.418720 
-20.158201 -3.220158 15.566589 
-17.378332 27.215315 5.865608 
23.915852 -13.252288 6.366263 
10.213103 17.695093 -5.469306 
18.084156 6.778496 1.813106 
20.468409 -7.394784 12.564218 
-6.831884 27.770115 13.502283 
-16.608242 3.149371 -2.414588 
-8.934627 33.020283 18.948450 
6.414854 30.223871 11.588880 
-24.841984 9.062505 9.648941 
-14.494645 28.285263 11.183969 
-8.120658 29.326822 -0.193384 
26.577675 -14.368133 -4.561574 
-2.247576 33.619473 9.750343 
-18.319862 20.768747 4.628268 
18.755779 25.515665 13.731198 
-7.391961 33.266464 19.879169 
-24.320007 -8.719249 12.725457 
28.104443 1.063385 10.530978 
10.886886 17.092295 -5.176291 
-19.537134 13.316287 5.716954 
16.763172 5.384105 19.776781 
24.231806 -14.554227 2.821009 
14.343392 29.368975 12.799490 
17.353903 11.560260 5.264225 
-23.726992 18.570047 10.643296 
24.392931 13.700362 13.790909 
-7.432173 25.860762 2.135396 
7.516103 26.447599 12.937778 
-27.793713 6.549884 9.417019 
-31.248533 1.692004 17.785133 
32.817574 -10.671090 2.553204 
16.499308 23.348560 0.016781 
-2.191713 32.226345 13.873574 
-23.269718 1.660380 -3.011214 
-11.652688 32.823345 11.790933 
-18.262760 8.265887 1.287491 
-20.748447 11.236837 2.013813 
-16.843012 5.558269 0.448299 
-31.562683 -8.972064 -0.895702 
10.733641 31.990692 13.572672 
14.772362 19.241812 2.644178 
23.607397 3.770707 7.558231 
25.541056 -5.413202 15.640601 
-13.129077 25.517950 10.548745 
29.141512 2.487238 -5.477514 
28.839106 -1.016823 14.802116 
-9.029481 28.782595 12.888933 
-11.157356 21.349686 -0.451581 
-29.681545 -3.123116 -1.524169 
-7.377160 25.211233 -1.387207 
-18.622488 18.291725 -0.124251 
16.630482 26.855898 22.076248 
-12.676699 31.005270 7.743493 
9.608860 32.309776 13.757970 
-11.532051 33.337917 7.759754 
-24.027365 7.807626 -3.449375 
9.472021 31.344336 16.176107 
32.620312 -10.595690 -2.490172 
31.527851 -3.695682 1.992199 
29.266169 -0.050737 9.316094 
32.416035 -6.528965 19.245029 
18.507765 23.856947 9.890346 
17.137598 14.166590 7.703329 
-6.566679 30.671762 7.060000 
18.000912 7.321316 12.888126 
4.251620 23.391937 22.705563 
-20.762091 14.459016 -4.500090 
10.683388 23.696520 3.200194 
17.229898 14.495345 2.016398 
0.886764 25.174744 18.464979 
27.424509 -1.607426 3.031164 
18.194839 17.005325 6.010931 
-15.588374 20.795847 10.734287 
-34.318756 -12.344575 12.130630 
-16.141344 22.289097 3.825083 
16.470079 22.728123 3.079288 
28.807903 3.339900 13.580377 
-18.753603 -5.412735 -4.033092 
-22.858555 20.738525 17.099562 
-9.498911 27.379513 5.701178 
-14.641809 13.545420 15.200996 
-10.935984 23.724854 -1.794345 
22.470533 -10.572926 -4.864170 
-17.178085 21.423738 0.094766 
-18.327488 18.746559 6.228436 
-13.474160 18.844267 5.832083 
24.990927 12.967006 22.691959 
23.147882 4.166423 5.658033 
3.493852 24.068516 0.785838 
-9.654864 15.655842 -7.032363 
32.955738 -9.290902 -1.058850 
22.635889 -8.958789 9.374092 
-28.793692 4.476826 7.882497 
-20.034031 13.143134 4.883320 
-18.809782 6.910234 5.781029 
19.368565 24.651863 15.764688 
19.760830 24.171612 17.172239 
-17.251028 15.137655 15.578276 
-2.498500 30.721077 14.593204 
14.109375 18.448687 13.543371 
-13.119163 27.988420 15.451182 
30.367317 -1.873761 1.882599 
-15.043736 10.890079 -1.054173 
-29.000984 6.318754 17.570707 
-13.874851 26.782415 2.357262 
-27.713970 -8.089616 -2.632468 
17.317722 16.386114 0.130535 
3.770589 34.801403 7.937522 
32.871689 -6.253431 1.030009 
3.662774 22.811068 -1.218626 
-25.594017 12.847086 19.523207 
6.961815 21.749659 -0.675977 
-19.060909 8.603092 5.731864 
17.243650 23.053236 -4.957480 
-19.272406 23.019899 12.423400 
-3.139186 33.427952 10.146107 
18.454592 -0.460500 14.231147 
-9.543768 19.118002 0.459720 
-33.767929 -7.185542 14.250990 
31.592260 -1.823732 11.891257 
29.966200 -4.317014 3.573984 
21.248640 -9.602156 -1.910062 
-26.438448 8.579498 12.582317 
-22.553623 -2.937022 6.092591 
11.272237 21.848112 13.080981 
-27.704395 -12.745738 10.091479 
-19.312805 7.003809 1.964787 
-10.821221 28.996531 12.588973 
-19.101582 16.539042 -7.277442 
-16.270319 8.124301 0.423291 
21.957468 -11.980275 4.293417 
-16.442310 9.060407 14.270522 
-30.119493 0.421158 11.613479 
17.980598 21.459978 13.218205 
-14.766476 4.445585 -0.098603 
25.409271 13.139658 16.181591 
-3.807126 32.000767 17.701738 
18.538614 14.941612 -0.293586 
-14.283877 9.547626 1.113273 
-16.391724 26.532110 5.786345 
1.584011 27.356380 3.350658 
-27.901295 -3.218436 4.884690 
-29.844467 -0.206606 9.717701 
25.053297 6.771955 5.826719 
24.113571 1.294214 -1.230660 
16.110884 7.300494 19.966881 
-28.595320 -10.209785 4.557374 
-20.036495 6.076779 1.015878 
29.861013 -6.872674 13.867255 
-17.157045 4.631752 2.139923 
15.631367 13.403308 0.568856 
-21.916174 -7.030872 15.983472 
-32.793236 -2.399050 17.091841 
-25.403473 4.653295 -0.387449 
22.881092 10.965163 7.046576 
-25.597273 1.287216 15.044177 
17.389221 16.180630 11.749911 
-23.060133 -3.205194 1.560600 
-30.227816 2.571280 9.775130 
-29.590927 -11.074347 8.483891 
27.189177 -13.772781 6.607483 
-25.436852 7.043067 10.916149 
2.406254 21.821054 -5.725640 
18.911251 6.345415 4.040648 
23.652950 15.209723 7.637936 
-21.327972 0.343004 14.618415 
3.788226 31.462290 10.809079 
-0.943076 22.265249 -3.442852 
6.375137 30.078363 5.578380 
15.867902 15.085994 -2.928984 
-17.590076 16.002167 3.714504 
20.243114 -7.618178 15.876493 
0.440722 27.689884 3.492960 
17.993717 13.636066 2.031675 
-29.913441 -12.744288 11.096896 
19.665636 8.602337 -1.999431 
7.163155 29.619549 6.880769 
16.589806 16.822304 7.299623 
19.187489 24.693678 20.263788 
25.814562 3.896984 15.806187 
12.631554 16.457945 -1.552161 
-24.509859 6.734381 -6.825217 
17.688648 22.607386 -3.769050 
-7.048590 22.350859 1.239782 
-22.611977 -0.132765 5.290339 
-1.943911 29.184258 -5.433610 
-19.485561 1.953152 12.657300 
-1.512065 33.054707 9.630281 
-25.269777 -1.204016 6.716592 
18.302248 23.996185 8.944530 
-17.938379 19.084631 11.030451 
4.223242 26.896202 14.051545 
-10.044365 35.177864 11.744256 
-19.076380 7.539179 0.972954 
-15.228013 30.565659 9.905606 
21.547743 -10.712020 0.325820 
20.201393 20.679934 6.795149 
24.563591 11.029390 11.307489 
-5.259412 22.391605 0.443864 
-18.970631 12.926760 7.677260 
-22.942375 -9.926708 13.510870 
-26.027115 4.095276 -4.234786 
17.691427 1.824690 14.219167 
8.893513 33.161091 10.457316 
17.951700 9.513927 5.927282 
9.419212 24.712147 13.225880 
21.582624 19.074394 1.423252 
14.928890 26.182661 0.553194 
-23.886465 -5.599219 -2.123068 
28.363417 4.860345 2.920067 
26.558220 6.090357 -0.585982 
-4.790761 30.866629 17.402508 
-3.490918 32.551014 17.036631 
-8.671792 23.362246 3.307695 
9.515208 18.303137 -5.529711 
29.949188 -14.193551 2.508816 
-12.189627 27.996105 15.687069 
-19.478489 -2.294992 13.832640 
-5.972432 29.948065 -0.320028 
30.805815 -2.735411 2.069539 
17.862926 20.444750 5.191114 
-18.516867 2.371471 13.433111 
-34.323315 -7.293124 13.548691 
12.256240 19.859102 2.058193 
31.618849 -0.925540 15.635813 
-15.201437 3.437571 2.042194 
-21.261074 -10.898078 -0.651957 
-14.978208 12.944812 16.071589 
-30.504694 -11.115730 3.030627 
15.850804 20.899944 8.144453 
21.199909 -1.178134 9.867222 
-30.010069 -11.301179 6.290957 
-8.370045 29.256823 15.328960 
-25.020971 12.206469 11.025081 
-10.306746 14.697429 -6.990693 
-6.667926 30.371702 17.122265 
14.189356 20.040892 0.202071 
28.188707 -6.552993 15.837455 
25.127842 5.544875 5.985289 
30.362434 -12.651814 5.740876 
28.043137 5.564452 -3.437553 
-25.927195 7.362711 10.138077 
-23.059048 -12.283861 3.101931 
22.061546 5.963483 15.558429 
-2.679740 33.100845 15.620577 
0.448702 35.758945 11.715639 
28.497301 2.417568 13.521662 
-11.121491 22.892607 4.562834 
0.876378 25.486429 1.822026 
18.135197 24.738859 16.392670 
2.172035 29.290176 -4.822999 
23.309404 16.843746 16.016781 
14.710845 10.665942 18.391689 
20.816547 4.717024 6.831700 
-2.608363 26.692665 3.799440 
12.234570 30.286156 14.340498 
20.352154 6.818778 2.139772 
1.387219 34.456619 8.449658 
-1.668149 36.626495 8.550051 
24.568850 11.025499 9.782899 
32.215164 -8.039350 18.805880 
-18.765284 26.570877 7.157751 
-23.937344 -8.274475 7.702602 
16.248821 15.343815 14.097507 
-26.459236 6.392181 12.190948 
13.821884 26.722256 4.556526 
-18.248100 5.446099 21.106205 
3.109349 24.741213 18.746042 
-5.906589 24.729721 18.241177 
12.671438 27.644276 13.699725 
-30.330833 -4.314385 -1.544590 
-0.042981 30.988152 3.827758 
-22.528477 6.808845 -1.697929 
-27.668495 -3.707386 5.655755 
-14.759113 17.331005 9.803172 
5.597334 32.589245 8.758167 
-22.759363 9.073825 6.214478 
25.828072 -4.576071 15.693370 
-29.663307 -6.363401 14.450261 
17.836866 14.114937 7.105792 
0.824900 24.924860 19.730610 
-16.267578 28.838709 10.522487 
22.329538 13.222730 -1.056741 
-7.410742 30.167879 4.595631 
-12.978423 15.820410 0.859334 
-23.458841 -4.069033 11.804880 
-8.264309 26.572195 5.803786 
-15.209985 2.216144 -2.006618 
-16.468760 23.043356 15.111765 
25.943199 3.657487 -1.101980 
30.351124 -6.319724 8.876423 
11.461948 29.212936 14.782677 
0.796972 30.220055 4.247946 
15.766801 28.509073 16.262238 
24.507801 13.710028 11.005778 
-14.132652 23.453161 -7.572585 
-20.425230 -8.940960 0.089268 
14.660320 16.177797 -2.078990 
12.347444 23.101095 4.654511 
-29.794601 3.598701 12.541214 
17.192377 17.634197 16.480007 
-24.023335 3.107088 8.109014 
-19.934423 15.060047 15.568648 
17.751316 14.883733 9.968863 
-2.068564 31.147577 5.038912 
19.426466 20.771179 5.026364 
-18.731424 -3.100048 2.856042 
27.324953 9.503804 17.147173 
-17.569128 6.284658 19.286085 
26.465855 -9.949030 8.222903 
18.655918 10.477595 1.501393 
2.899616 28.219645 12.336002 
11.227205 23.643122 12.565449 
27.778999 5.393418 15.223035 
12.867239 29.315062 11.613777 
-21.879423 0.155935 5.541022 
-18.554470 27.409992 13.183811 
7.525793 27.599566 11.877693 
10.326509 20.839315 0.712498 
-27.939800 2.695743 14.707655 
26.680979 -4.221778 8.828588 
-23.517334 -8.917404 -2.356677 
-24.545891 -12.392246 5.405092 
16.115061 21.080347 3.041709 
-8.246799 23.886969 0.498258 
-21.100630 -6.979932 -1.450833 
-25.109510 -13.669624 -2.275362 
11.207396 18.870184 16.588058 
-14.952806 13.674937 3.190663 
-27.831005 -12.707325 11.323741 
-18.177233 17.802832 -0.728999 
-27.597002 8.001826 14.516315 
-5.452458 27.915802 -1.259548 
11.336770 27.608652 16.503138 
-26.146521 3.772051 3.599741 
-30.458431 -2.688736 7.444005 
27.221165 -7.497512 15.601159 
26.165667 -3.799847 7.418856 
21.503574 16.228003 -0.274654 
-21.146357 -4.806714 3.028962 
25.445501 -3.395036 7.884120 
16.261177 12.403475 7.738773 
-12.291834 24.556660 6.449048 
14.516190 18.840527 3.448350 
-21.771715 6.560259 10.445090 
-17.812300 -3.277048 0.877440 
-21.845585 -9.672036 -1.788596 
-13.795403 6.793945 -0.573546 
14.947715 11.235008 -6.272220 
5.013916 35.878010 8.703133 
10.346886 23.122732 13.164315 
24.302937 13.811722 7.134369 
-28.281404 -0.378602 12.144430 
7.549305 27.787388 13.230805 
-1.513027 21.764874 -5.553668 
19.438721 14.256802 11.105500 
-12.991885 28.821783 8.801455 
-27.710455 4.783691 14.571571 
-4.658830 34.897133 9.642533 
-24.837770 0.288493 -1.732413 
28.880512 -4.975263 2.388906 
-1.956138 25.261326 -0.925588 
-23.280695 -5.923203 10.138076 
25.416248 0.065910 -0.738237 
25.095434 -13.370250 8.021843 
28.971344 3.766271 -3.548886 
-28.588989 -12.565434 12.943275 
-0.117110 26.853838 3.618607 
19.514221 -5.606003 17.981932 
-19.152430 -5.290921 -6.023919 
18.167547 18.584167 13.599360 
2.045994 27.019964 13.944896 
-24.311201 -12.727957 0.773739 
13.924932 12.816893 16.114298 
-21.779634 23.072672 15.538720 
22.493322 -12.176950 6.714366 
29.259247 4.116690 12.548553 
-2.076289 31.010180 3.502078 
25.544455 -2.432604 0.862729 
29.082542 1.001389 2.581219 
-21.911505 11.654634 5.736703 
29.657011 1.336625 -5.400785 
-15.739916 2.087562 -4.719149 
18.565107 27.120579 12.265107 
22.485441 8.644981 0.825953 
-29.797285 -3.192619 12.501160 
-9.077252 31.700287 9.499272 
18.222530 27.880651 12.787645 
-26.275274 -9.112971 5.343706 
-8.851441 33.824883 8.712267 
-16.228710 17.078732 -2.012384 
19.880167 21.261160 13.903358 
15.019063 15.451395 4.768631 
-14.742030 24.689102 15.027893 
30.734230 1.811131 18.754494 
-19.220510 20.962473 10.282586 
12.600244 19.845615 13.099973 
-5.357709 21.858130 -0.507508 
6.428448 23.108910 0.286883 
-22.834352 15.631514 8.600907 
-13.951157 19.748604 11.659142 
-4.866314 29.966038 3.767671 
-23.649357 12.143687 5.927071 
-24.265488 7.409926 9.682143 
21.403923 18.920506 7.216111 
-25.955601 -0.788534 6.911593 
-0.130988 26.429991 0.814888 
19.948994 14.720827 12.193066 
24.290287 15.175169 16.697933 
25.200195 13.073552 21.054218 
10.206952 27.455427 16.812048 
8.316153 33.276600 8.807999 
19.066820 13.696298 4.367167 
-34.871548 -7.837670 9.114349 
-26.956997 -8.574711 4.912807 
26.219215 -0.374559 9.489701 
-6.033866 31.133316 10.815523 
-12.230913 25.796616 12.357447 
11.816226 28.533005 15.512690 
15.341966 18.867083 -1.868673 
15.984682 27.400940 21.974592 
16.009781 13.475539 10.699604 
20.625040 15.815860 1.178260 
-29.823381 5.112342 15.119455 
-34.814472 -6.773375 16.913734 
16.458900 13.319971 7.708513 
-24.494362 -5.658865 10.166778 
18.618307 9.203688 9.621972 
27.300314 -8.022902 1.540746 
-21.206730 -6.608405 6.005266 
5.908187 25.273476 0.065967 
-1.671692 27.269403 -2.066699 
15.034955 15.413707 8.574670 
-16.551178 -0.065477 1.380667 
-28.693478 -4.964974 -2.075813 
19.114231 6.728066 8.610050 
6.659548 28.603689 -4.607721 
28.390663 4.568911 -4.497508 
-19.012486 7.711672 5.653550 
-9.504542 26.600172 2.402061 
-21.067232 17.794292 5.274962 
-16.464512 28.671810 7.111870 
22.092730 -5.726402 7.692524 
8.848575 20.568611 20.726540 
26.253122 6.402465 7.753490 
-15.799405 3.826695 1.433721 
-22.282879 7.630494 13.680058 
19.084414 18.660492 -3.529342 
-18.109905 2.817595 6.583953 
20.715578 15.761698 2.360101 
-2.093788 25.526363 18.528576 
-31.241810 -9.625009 -4.634851 
-21.476854 -0.319550 -2.916444 
28.541521 0.851024 5.697045 
-19.125633 13.171741 6.420839 
-22.659468 11.883296 5.404019 
-18.927080 24.579498 15.222271 
-19.824511 20.188667 12.286751 
24.708410 -12.288328 17.193041 
17.320341 28.648928 9.754638 
6.205598 23.074984 -0.949408 
25.488588 -6.110953 12.591055 
1.693379 27.767380 15.389110 
-21.305937 0.513135 6.350950 
-33.576481 -11.249749 9.578822 
-1.756091 36.804596 9.905572 
-3.780540 30.603977 4.886133 
21.504168 -5.377637 8.449927 
25.347719 -7.632909 7.538507 
24.537235 -13.441734 7.360275 
-8.712326 24.484341 15.358605 
24.791843 2.699145 7.669494 
18.812737 -0.212886 5.071676 
8.645393 19.852501 -2.659119 
-22.817881 8.628866 -1.070629 
28.357634 1.389835 11.560596 
-29.782040 -4.346055 7.200252 
-10.863284 27.359951 0.484062 
-23.012547 9.287590 13.990023 
-33.085579 -3.649464 18.682524 
6.354921 27.127066 1.905737 
-26.074404 3.833512 0.569982 
22.613886 8.541426 1.866190 
15.922019 23.922234 5.500243 
-16.123365 10.509510 14.552647 
-0.309574 29.945467 12.346976 
2.664689 27.757694 0.104864 
15.948833 9.966375 -1.510832 
-17.608280 16.897091 -0.197847 
-24.067955 -7.553036 12.683214 
-17.575392 26.043768 5.448282 
21.160103 0.279945 -0.809425 
28.642403 2.678172 7.774796 
-25.706226 -8.119927 9.366556 
-30.651676 -14.809782 12.779131 
17.991425 23.252335 14.616451 
6.278455 28.153833 12.570621 
-26.207159 5.109052 6.787802 
18.597359 26.038731 10.507707 
22.943739 16.135447 13.715211 
6.105008 20.623501 -5.819968 
-25.054787 -2.310500 2.860598 
25.263807 -10.497252 9.510815 
23.978500 -9.140065 7.738931 
-12.146680 25.855915 7.855844 
-12.264461 21.511423 0.854273 
7.811128 24.965694 -0.234842 
16.301609 21.605534 2.394186 
-24.067949 -0.065130 6.837282 
19.387156 24.799894 17.786839 
30.457809 -3.581306 8.691334 
23.049129 11.970308 12.940939 
-26.403545 0.024424 4.478632 
-16.762651 17.870417 -2.120099 
-25.481304 5.118212 2.643843 
31.331051 -3.211906 8.531367 
32.257431 -3.753402 12.956882 
-13.332478 24.555771 -1.884080 
-34.893719 -8.746346 9.533487 
13.053649 25.597309 6.219056 
29.478086 -9.531105 12.541130 
2.951871 32.280804 16.556505 
-15.250671 22.258648 -7.526935 
-20.113447 -3.472784 12.415884 
-9.292716 28.889124 -1.143840 
-7.998196 35.081532 14.398400 
32.119831 -4.715382 10.242700 
-16.863714 24.266712 15.430117 
-21.117002 -1.310936 14.188787 
-9.344995 31.792601 12.546406 
-24.811296 11.877112 12.605929 
16.726452 10.283956 9.172842 
-9.747802 21.141972 0.079190 
-9.479193 28.345623 5.574229 
25.463545 -10.573069 10.818334 
-21.757811 -2.814103 6.659154 
-20.282904 10.294111 7.788890 
-10.204420 29.130108 15.559149 
-20.899157 23.058723 22.006157 
-14.908960 15.511420 0.392044 
-1.587629 28.857187 5.652470 
16.319817 8.300505 14.353440 
13.816393 22.490263 10.507961 
-14.550172 21.206501 10.382104 
-29.758656 3.878314 11.739883 
13.340596 27.542477 15.114465 
14.024667 26.813944 17.178289 
26.345108 9.290754 12.427776 
16.406231 20.213600 11.973834 
14.062827 19.945480 1.089001 
30.345530 2.854866 16.479565 
31.780685 -10.545073 4.738658 
-12.337642 26.368586 -5.333368 
-20.204342 24.767843 10.807379 
-14.571885 30.793230 14.807715 
-24.796419 6.542026 11.886440 
-19.196745 -1.080892 15.356551 
13.988543 19.821625 9.938980 
9.479623 24.062471 2.390594 
1.577376 27.433517 2.359294 
26.595167 -12.700860 7.428095 
16.753113 12.339582 6.756866 
30.294565 -11.161287 3.723183 
16.662197 14.943932 11.846300 
-24.979275 6.090541 12.885388 
-27.126463 -4.783154 5.826012 
-15.188525 24.513750 12.091732 
-8.518358 29.559023 13.263476 
-0.313018 26.802382 -0.400225 
18.886740 9.575456 1.756224 
-29.262302 -10.998076 -1.486210 
22.486288 9.535525 8.092499 
27.591238 -14.400570 8.057058 
18.258974 14.782248 0.468367 
-15.572050 22.121706 5.615040 
-12.692197 22.198032 -0.986243 
-19.755207 -8.744765 -1.284011 
14.414164 16.736292 -0.280216 
16.037529 21.678877 10.182795 
10.765023 26.602613 0.365899 
29.517876 -7.621234 2.307946 
-5.592562 30.194830 11.123393 
13.563203 21.294344 -0.147133 
5.850978 35.527000 8.282429 
-13.954570 27.396048 11.317059 
-0.827428 34.608406 16.257580 
-6.459593 31.174120 17.671772 
17.498489 10.364057 0.924385 
-31.425901 -8.390163 -4.914819 
-13.976757 26.419735 1.559201 
-25.652325 -4.348617 7.790258 
27.925730 8.502809 14.141816 
5.292025 30.579485 17.158718 
-30.715570 -5.986518 -6.221798 
21.491241 8.958111 -2.062870 
15.224938 15.045796 3.781131 
