3.522778 26.730312 12.992383 
-22.926292 9.319438 2.760027 
19.650999 -5.406286 8.001146 
2.575144 26.326805 12.066441 
-17.851763 10.030981 5.702413 
17.199028 6.049602 -3.482468 
29.420586 -4.898253 1.402596 
-19.631435 -10.570842 3.876912 
26.412868 6.125420 -4.032602 
-20.950306 -5.578063 2.115533 
18.277975 18.635342 3.409991 
-20.844519 6.633251 -1.565500 
-4.033873 28.422699 -7.236109 
8.094552 24.854382 -1.588350 
-21.946663 -16.290630 10.337519 
-26.252607 5.405673 -7.671207 
-27.767214 -1.442639 6.233322 
-10.716506 18.017281 -1.876588 
-8.902964 28.674475 12.485171 
23.684208 11.305547 6.681692 
-24.058792 7.108587 7.882162 
14.087896 23.184437 2.915184 
19.560215 -6.698680 11.317367 
-11.469138 12.842273 13.970713 
-8.172695 28.548727 13.932423 
21.468317 12.309467 6.337652 
-8.402319 28.279560 -4.009003 
7.488243 27.147030 7.377532 
-16.293161 16.856886 6.877267 
-20.453201 14.060119 9.301981 
17.480158 -2.788719 9.239164 
16.566269 5.249164 6.099521 
-13.772664 15.214680 5.590085 
19.995638 8.214957 3.949003 
20.499012 7.573465 4.453090 
-19.960867 -7.307415 6.859602 
-7.535126 25.835102 -1.600158 
2.465116 29.532005 -4.918550 
-27.876348 -2.317575 7.804379 
19.083643 -2.555920 -1.251057 
-23.831221 12.921860 -0.613125 
17.101679 22.215061 -1.990446 
-14.592222 17.738770 6.026069 
5.420927 19.098997 -8.114689 
-26.651318 -12.218738 0.903737 
15.519911 2.224995 -5.392028 
-14.636150 24.204412 -2.088166 
29.201202 -9.333981 5.687555 
22.965288 9.790526 -1.623281 
22.491821 15.046144 2.936076 
0.155390 28.354250 17.639952 
-3.967677 27.584988 10.309084 
7.460930 28.195524 13.146131 
23.576475 -7.491199 6.736580 
1.743877 28.953039 1.249541 
10.821302 28.001978 11.141306 
23.960373 -12.219272 -0.668031 
-10.382035 24.765129 4.910784 
-13.220369 23.096794 4.882928 
20.263844 -6.244261 3.129182 
-13.519006 19.807287 0.356494 
19.159777 -1.735019 3.729606 
34.620522 -4.671226 14.288213 
17.916946 8.123103 9.811343 
-17.238560 -3.343810 17.450222 
13.765367 24.469641 10.255408 
23.488272 -12.493745 -2.157349 
17.006330 19.859606 4.957918 
30.293074 -6.571990 1.120596 
-9.816380 27.018236 16.586714 
8.888565 20.798542 -3.015055 
-9.719023 15.976974 -8.092882 
22.810585 -11.788589 -2.464951 
-8.237401 22.973261 11.839343 
-31.010960 -11.381583 11.054962 
-30.922930 -8.568968 10.160464 
-28.996170 -4.806824 12.421139 
-24.322321 9.502438 15.990097 
11.081032 25.854103 -1.259447 
-30.191601 -9.251863 16.466286 
-27.885098 -9.062331 5.437980 
-26.379833 -17.521946 10.432010 
6.699536 27.776030 2.316242 
-16.331530 -4.818845 10.533209 
-17.922825 22.234041 4.352603 
18.746277 -2.672167 -0.495854 
18.862225 19.715754 11.469938 
9.118571 20.886194 10.211030 
24.687716 4.178799 3.679458 
-18.677052 -5.902419 5.807945 
18.063335 0.460168 7.604393 
26.736164 6.582057 8.669794 
23.773380 3.393119 -4.452826 
27.236420 2.996089 6.557969 
24.296120 3.639853 6.957815 
-17.049070 -2.555524 -4.073751 
17.895876 -1.366031 2.940739 
26.489841 -11.825016 5.485951 
-17.550369 5.842991 -0.494896 
21.449507 3.897838 2.688311 
15.535610 3.078441 -7.123410 
-17.081671 -2.379434 17.456978 
-12.671315 20.052982 6.020973 
21.705936 15.992597 10.506093 
25.730797 8.705097 5.008284 
13.018097 23.016361 0.738592 
-17.876692 -3.606529 -7.086672 
21.653269 -7.423366 8.128428 
-20.514618 1.991386 7.207009 
24.700594 -8.056950 4.237188 
-29.586697 -8.992589 6.434340 
-23.730507 -0.600201 -4.074734 
26.460785 9.835196 12.230249 
-20.038462 7.632254 4.294978 
-20.075333 -8.284424 1.090020 
22.145603 18.099302 9.224305 
0.224104 26.004734 8.497125 
27.222593 -13.921271 0.309481 
19.749382 -8.128680 2.010497 
19.509657 14.553533 -3.793250 
-14.060240 17.619972 -3.904680 
-22.803957 -10.872553 6.489299 
-21.994949 -11.959517 4.076325 
9.726850 29.485031 6.684494 
22.190851 17.832523 14.637872 
27.441761 -9.325920 9.532980 
6.489376 29.668360 7.126783 
-22.651745 6.119573 2.389455 
-26.800909 -0.834973 4.649378 
9.864982 26.379507 4.192342 
17.489822 7.736512 -0.896607 
-22.277540 15.247945 15.020635 
-12.749059 18.513912 -0.411886 
23.985224 7.713406 7.780718 
-28.509161 0.554016 -4.013213 
23.753931 7.203115 -3.655790 
27.847357 5.589665 10.827703 
-21.245804 -13.870251 -0.850369 
3.868609 31.311583 10.042338 
1.129877 31.629223 7.302039 
20.642477 -3.764002 10.350039 
-9.652582 23.909586 3.545604 
15.469684 13.182549 -3.510197 
-24.026752 11.062850 14.182034 
-9.360314 24.775063 1.329554 
20.749580 -1.904700 10.632931 
-9.807797 17.120321 -4.230976 
4.764429 29.284723 -1.797264 
28.767496 -11.747756 -0.545377 
5.412115 22.995335 -3.473999 
-16.207542 20.463825 -0.695894 
21.139107 10.389441 0.612864 
-19.829498 6.541047 -2.161237 
-13.298871 22.062792 -4.466026 
26.554169 1.439102 -1.187171 
20.457197 13.799237 3.266863 
34.497444 -7.250172 11.739834 
32.739880 -3.437951 9.036640 
-14.246478 7.832198 9.561389 
24.270067 -10.169350 9.656938 
-18.870041 -3.701402 -2.933721 
16.723135 2.826648 15.425604 
-15.520656 6.060881 -5.256117 
20.902157 -6.001488 9.699688 
-0.520299 29.493555 -5.310685 
25.270235 5.981269 3.819304 
-16.968098 10.827494 5.206027 
-10.324741 25.971123 12.739839 
-20.109159 13.237679 -2.496859 
-17.559824 -2.938422 2.947248 
21.033995 20.038282 13.240115 
-13.793605 24.055637 -4.614592 
-18.440350 3.541150 -3.507699 
-20.017593 9.973596 6.949670 
17.310997 10.149122 6.313087 
16.564655 2.967657 2.092590 
12.212341 16.817318 2.537957 
31.708773 -12.161099 17.255213 
-30.542578 -7.939891 11.067787 
-16.424093 19.013691 7.571340 
15.765378 22.828470 2.448377 
2.451622 28.762482 -7.291915 
-20.602818 12.951776 3.674449 
-11.376464 28.183426 3.381466 
-20.163824 -13.077991 -5.262768 
-9.262754 22.971014 1.286411 
21.831213 -10.078244 11.576695 
-9.403180 21.696033 10.264116 
-14.595618 23.117279 4.078365 
16.743622 16.633343 0.467679 
25.023764 8.771184 2.903165 
-5.289027 19.487289 16.087315 
20.693428 3.884702 6.184269 
24.647518 -6.679529 10.347336 
-15.023604 19.017916 7.878767 
29.796913 -2.216182 -2.670977 
19.620174 -2.857111 -0.724405 
28.854036 -11.489894 1.069018 
21.135492 -3.143630 10.637789 
13.942211 26.455605 13.793961 
9.693830 20.253408 -0.299492 
-21.866793 16.955776 5.749208 
-17.619637 16.861658 4.455071 
-18.191713 12.749458 1.869863 
-21.725378 -6.322801 3.274947 
-30.460180 -12.141869 2.567513 
-26.988180 -0.048902 11.125114 
23.805893 10.425390 -5.057797 
2.124259 28.740614 12.899920 
-16.018532 4.174232 4.234173 
-30.640907 -10.887980 12.120281 
-23.504971 -2.514562 3.947002 
3.654838 28.590399 -7.490000 
-26.648281 -17.408981 17.370508 
20.172300 21.102928 7.697863 
28.634560 -4.309746 2.403633 
2.826899 25.053467 -1.398995 
16.891838 1.011384 11.806457 
22.452597 4.521489 8.909623 
-29.484344 -5.471234 -0.761853 
-17.786022 14.477082 -0.645585 
24.503637 -8.950730 8.462167 
24.725286 5.743861 3.280916 
-18.031923 21.119947 6.191414 
15.311462 5.993480 1.448268 
-4.355026 21.215290 -4.516392 
-23.659424 7.193402 8.924759 
11.372942 13.070487 -6.133279 
19.598478 10.142397 8.441776 
-17.019161 21.694752 11.900980 
23.690266 -12.052056 13.205832 
8.445568 28.524000 6.824481 
-14.826132 22.351175 3.901967 
-20.611061 14.831547 11.297590 
-11.941300 15.166298 9.286874 
19.472548 23.614513 10.719285 
17.479542 14.760602 -0.768922 
-24.261686 12.159170 1.646894 
17.572351 -3.809223 -5.474164 
16.793974 7.006011 1.396995 
26.726561 3.423945 4.979827 
-26.850845 4.599707 -6.265983 
-15.645842 14.037860 2.230192 
-20.920731 -8.066170 -0.797484 
-23.592752 3.109287 -3.784440 
-21.564171 -13.475486 9.682709 
-22.109091 13.947490 1.757158 
0.498211 27.016483 3.567403 
16.087584 5.841286 15.873436 
-7.775588 24.892624 -0.834805 
-30.256775 -8.081264 -6.962079 
18.027758 -4.102056 8.248995 
6.394562 29.176516 15.403763 
21.220299 -10.900874 -2.511667 
4.208291 31.035309 11.087191 
-25.383371 7.201869 14.385110 
28.296045 -1.249322 -1.122766 
19.435631 14.475038 -1.498726 
-9.513082 24.753210 -0.510726 
12.414927 14.665589 -1.201647 
-6.390025 18.509762 17.584049 
8.764289 16.974707 -5.095679 
-21.298367 6.659765 -0.651639 
5.023716 25.624868 -3.821766 
28.085333 -5.482882 6.983793 
19.993477 11.395818 3.888859 
-23.326471 -17.244701 10.237393 
26.317974 -11.875109 0.121499 
23.035887 11.117450 2.957397 
4.981966 28.775105 -6.429509 
23.789696 9.283508 10.260490 
-21.087324 0.900316 4.483716 
14.262924 11.755547 6.850923 
-19.594490 1.067691 3.701682 
-25.550013 6.309752 15.771780 
-18.551016 -10.422486 10.295394 
25.974670 3.107055 1.475113 
-7.795933 28.538822 -2.216223 
21.070971 12.658382 9.819265 
13.078310 11.602641 -1.766604 
-15.642639 5.037903 -6.241793 
29.303261 -0.027422 -5.373887 
-19.994398 -6.828353 4.929443 
11.273049 23.273996 4.871158 
-23.614639 -13.230370 1.494378 
9.213219 25.242775 6.122310 
23.004417 -8.756756 3.038024 
-8.533217 26.967073 -3.322570 
-17.420609 11.004919 10.245800 
-10.810535 19.377546 -2.172339 
-15.855289 0.332177 13.439442 
-29.417900 -12.795250 4.319902 
-17.537226 5.576799 10.231018 
-10.301404 24.444635 6.175743 
-27.846310 -3.489211 9.606701 
3.032289 23.600424 -2.702059 
-25.220264 7.185951 10.105955 
-23.235052 -9.146352 5.035242 
23.810417 4.245814 6.281025 
16.286356 6.542747 1.792769 
12.356391 26.935827 10.339084 
14.147404 21.203079 12.196970 
14.840728 16.377661 -2.691371 
-27.664883 0.003175 -0.107097 
-2.974643 30.187414 11.757869 
-16.090334 22.711828 -4.078390 
-3.537710 25.500080 -1.204705 
-17.249443 -2.900831 -1.066642 
-13.937099 22.195358 9.637695 
24.371147 -10.948743 4.050010 
4.350858 27.010626 -1.388103 
-17.687679 1.596346 2.817920 
8.791090 21.223267 -3.779597 
6.650716 22.591757 1.077945 
-8.222911 24.630590 -4.183431 
21.608273 9.128166 7.618904 
-12.118519 27.399954 3.440497 
25.767212 -11.013744 5.871087 
-17.269905 8.902967 -2.826635 
28.784447 -7.489801 8.023022 
-17.956470 20.525667 -3.523987 
-10.896247 20.741854 10.179578 
28.715866 -7.331941 4.600495 
20.763052 -12.639808 -3.690664 
27.521660 6.724050 17.406727 
16.282114 22.983027 -3.252577 
-24.882648 -15.990359 -2.285076 
-27.501598 -3.488293 0.622409 
-23.517469 11.251942 -7.968589 
-29.873978 -10.735204 -0.929034 
25.674831 11.081425 14.120975 
20.915359 -10.028583 -2.528141 
-29.582352 -11.754231 5.052558 
22.464325 -7.664662 -3.236773 
33.499580 -10.385549 17.263683 
-20.032852 -10.550609 7.869949 
1.953451 26.191776 9.941067 
-2.913754 28.524290 -7.456925 
-20.973909 10.595703 -1.927046 
-22.060274 -11.808124 1.659977 
-3.201343 24.912636 7.964270 
19.231432 23.512892 11.476553 
-30.979105 -13.320571 8.806129 
-21.306158 -6.371899 7.329122 
33.927227 -4.453855 9.019608 
20.644070 -12.575377 2.708446 
7.496797 25.608440 -4.301798 
17.917799 20.178761 -6.971343 
23.931854 -11.320165 9.409245 
12.131094 25.999424 -5.088017 
7.763515 28.983744 14.554008 
-15.102160 22.865143 12.423561 
-27.590349 -11.995197 5.865071 
6.650575 24.667986 4.231661 
-17.653952 -5.260343 6.984820 
14.719204 13.614444 2.745335 
-9.566224 28.415880 3.615499 
19.091175 10.905363 -3.969743 
-11.875307 26.508259 -4.268814 
-16.150530 7.455633 3.714512 
-14.450521 23.122215 -3.213900 
-23.729252 -2.799080 -3.691041 
-2.514702 30.062460 13.847592 
-28.660898 -6.855905 3.578893 
-5.158601 25.674072 1.115639 
-8.980664 27.174435 12.005426 
-24.691494 -6.270655 8.356854 
-27.591345 -6.156971 6.487102 
1.385877 27.265501 -0.469484 
-22.508545 14.656597 5.136675 
-23.109306 13.538882 0.323336 
7.690598 30.717010 11.374613 
-20.302162 6.699280 0.411627 
-10.369082 27.433495 10.939449 
-2.099298 26.685753 12.860284 
9.515097 26.286266 11.925466 
9.917107 25.394970 -4.416658 
-20.402359 -13.005757 2.220478 
30.756908 -4.494124 15.375925 
19.320173 1.462685 1.830413 
-19.012272 19.159548 -1.398239 
17.512594 -3.837033 -4.348523 
6.494496 26.664289 8.527611 
-24.355827 -3.062133 11.489094 
-27.331991 -3.790477 8.846119 
-24.843555 7.688665 -1.368039 
-3.561118 28.093029 -2.125406 
-8.788836 28.181999 10.363130 
18.451925 11.194058 5.251450 
-15.369114 2.052060 11.843192 
1.846364 22.398981 12.466252 
-1.172826 29.062750 -6.546495 
-27.549778 -14.549442 7.805937 
-21.727528 -13.681458 -1.489786 
19.103342 18.863132 -5.512162 
-29.111977 -12.854443 7.795721 
16.930763 19.136148 -1.292719 
8.678329 21.544067 10.856224 
20.329811 15.587646 -1.032848 
-6.464969 28.949341 5.914251 
25.736153 0.391889 1.288626 
11.699841 26.456711 17.595312 
-21.249641 17.915186 11.819187 
23.315006 11.231544 -6.325974 
-28.717495 -15.279849 10.785935 
-13.721442 14.393516 0.895528 
-7.005060 28.849106 -1.844818 
-16.262260 10.603260 8.643515 
-24.720650 9.506882 -6.774431 
-25.643211 -3.872823 1.553032 
-27.517237 -2.631963 5.021850 
11.411524 24.705305 -1.432608 
6.236769 27.691101 -0.218152 
18.306890 23.990282 12.268776 
-31.090088 -11.106454 10.305086 
-28.190458 -8.874023 6.518579 
-9.536680 26.087046 -8.652693 
22.452272 -2.590291 2.394232 
-26.267370 -10.970779 4.223348 
20.093369 7.165623 3.868782 
21.296942 -4.617797 2.960635 
-13.855893 25.683552 8.930975 
19.951859 -9.065681 1.916331 
-5.180595 29.796709 10.814675 
33.018440 -3.699036 11.374336 
-16.956444 22.756107 15.539685 
-23.835922 -0.863598 11.600904 
-27.209145 -4.426476 7.189070 
8.921497 30.146347 10.482862 
22.763592 17.163754 13.593423 
2.086832 28.585148 -1.330032 
7.949509 27.506001 7.991545 
-13.288542 13.903174 5.321819 
26.496672 -3.002725 0.793232 
29.261244 -5.391963 6.806684 
15.325902 7.266499 12.427780 
16.054077 9.955179 -3.609796 
-10.611826 28.542549 8.558257 
-24.208271 10.488376 -6.945844 
-25.793556 6.216117 -1.930322 
8.530735 22.635458 8.154544 
-5.957938 23.618864 -2.190873 
17.157682 14.760079 1.897880 
16.876772 7.711610 3.977940 
9.346848 23.113029 7.381473 
-16.741678 -2.978550 1.434545 
15.093931 9.373334 0.731492 
18.076384 25.677975 4.238039 
-17.677538 -1.558014 9.783868 
21.697294 -3.581609 2.820272 
31.431236 -10.475776 -0.300057 
22.379963 10.385629 -1.185226 
20.574385 -4.136621 0.510819 
-18.882645 19.378464 7.483220 
-7.445007 20.465357 -2.672935 
30.526917 -11.538911 0.615831 
-11.963839 11.754008 12.029173 
17.921289 13.951068 10.796789 
16.052696 7.778713 7.585812 
28.970625 -12.219005 2.675276 
17.396515 20.954409 4.163288 
21.773764 3.969715 4.756911 
-30.296055 -8.769312 0.945966 
-29.646198 -4.556318 -2.501562 
18.783730 0.490117 4.927407 
17.325407 -0.951479 12.201199 
7.976284 28.660765 12.365976 
4.660429 31.448000 10.011861 
22.653809 4.765971 -4.682699 
22.960894 0.030074 -0.763372 
18.482655 -0.650626 9.492693 
-13.370385 17.477137 -0.890643 
26.473305 -12.088230 8.550882 
-27.382250 -13.077935 13.051739 
21.939096 -0.294085 4.221932 
-21.559946 -10.335700 1.118385 
-23.121189 -10.735384 -2.986076 
15.884495 9.083009 8.243220 
23.121799 -3.629188 -1.202425 
-28.230062 -4.289741 9.971622 
11.363764 20.328859 2.799982 
1.535728 26.743790 -2.478705 
-26.297758 4.788316 14.061557 
26.070404 -12.189572 -1.761945 
19.841246 6.655332 -4.695535 
23.238976 -8.046278 -3.242899 
-12.878770 25.697777 16.116558 
-14.401024 6.604931 17.516703 
31.056032 -6.661448 8.236394 
24.270790 8.956307 -3.114340 
6.721560 26.674686 0.928991 
-8.948162 27.500654 -0.399722 
-4.232540 29.383219 -2.702737 
-13.962724 25.077011 -3.183145 
-18.728228 3.381061 3.895780 
26.266993 4.995622 -1.259440 
-11.139215 23.927887 10.948024 
-16.193769 -3.648376 8.295304 
21.742739 18.829649 9.729129 
-18.826437 17.211258 8.726441 
-21.284145 9.903241 -4.356155 
22.455801 -10.495649 -2.864722 
-22.895569 13.422972 1.806587 
10.313813 26.080544 3.283199 
-19.284840 -12.336135 11.965474 
-20.071634 -11.749348 3.750357 
4.967023 28.314980 11.414877 
-30.237715 -8.476205 -0.225545 
-28.639448 -7.078380 12.326137 
-20.404570 -13.079165 0.781189 
-0.391145 26.301867 12.222750 
31.152905 -10.794481 9.841499 
4.448155 23.352430 9.685410 
14.633387 21.699320 7.138672 
10.128740 28.365152 6.869472 
-29.037138 -7.852824 12.715576 
22.693979 -14.045104 0.126633 
22.200939 11.383595 2.791858 
-12.128650 25.282635 -7.502629 
17.862404 4.114827 8.461118 
-20.734367 17.561605 4.173316 
20.339426 4.783310 3.242432 
-18.363401 10.380300 4.696374 
-10.923084 28.654100 7.348901 
28.743568 -6.278137 14.763488 
14.980596 4.320234 -4.152045 
9.213392 17.601372 -2.935954 
34.550182 -4.743210 17.302864 
-17.372688 -3.625228 -0.352297 
-22.137852 -9.367012 10.418728 
-12.805865 26.047739 6.595099 
2.947472 32.498932 5.774395 
-27.679857 -12.467719 7.625285 
0.129806 21.107138 -8.279236 
0.899188 25.795837 0.060558 
0.225534 29.044592 9.596562 
-12.249574 15.321802 -1.466857 
8.045038 32.869938 4.650200 
25.978819 -8.211282 6.799153 
4.155661 27.346491 13.525764 
-21.885475 -8.055857 9.490448 
-14.986283 22.593220 -8.513181 
33.032845 -3.470240 9.895220 
-12.149744 27.382109 7.994850 
-23.900648 3.398481 3.991162 
-24.863337 -7.515594 1.178602 
-20.310244 -6.571578 4.016396 
17.983671 21.731476 13.081319 
24.781036 6.928968 2.431414 
34.249397 -5.149567 10.691251 
-29.864193 -6.750819 10.466662 
20.547058 -12.615789 -2.608170 
-15.754364 12.991889 -2.198937 
-29.152880 -8.533722 4.015645 
21.259529 12.053069 4.768991 
-16.742514 -0.214208 -5.588813 
-24.379055 -1.198548 -3.739987 
20.715946 -6.406315 -1.768433 
-14.515647 13.157325 1.685825 
19.288723 24.239660 9.675118 
17.637678 5.864280 -4.346207 
-13.267415 25.817276 -1.494304 
-16.399536 1.321305 -1.542441 
-7.639155 18.561245 13.692116 
-31.113632 -8.853626 7.436636 
-18.916796 -9.628259 -6.762568 
2.105029 29.393333 1.838376 
-17.717817 13.658393 11.310464 
-25.284491 -6.163019 7.392759 
-30.472130 -13.178458 7.755515 
-28.745041 -3.810575 16.015760 
-4.956973 25.199512 7.738585 
28.744425 1.152663 -5.601473 
9.130368 24.016560 12.498725 
26.027794 10.390596 14.355358 
-24.399689 -3.865159 11.338330 
5.779363 25.992954 -0.712908 
-5.288821 27.193851 12.255406 
-17.854324 0.101561 4.629034 
-20.270651 -7.796640 3.232410 
-24.454933 9.212988 1.269154 
3.517401 30.252466 4.146161 
7.121213 19.748613 -2.135633 
-20.188248 9.340942 7.472160 
1.143899 27.967642 3.691167 
-10.205064 27.399633 -2.804905 
31.484787 -11.427529 12.021925 
-14.430943 16.832130 6.289612 
-25.170532 8.100024 11.256340 
-28.417238 -8.887118 4.854574 
18.519016 -3.014900 15.713735 
1.991313 27.151293 2.379823 
5.991344 28.432123 -0.563469 
-28.728718 -6.117811 7.607895 
23.677860 1.007666 11.000216 
25.003826 -1.936794 4.805309 
29.417084 -4.572789 7.049742 
-14.806770 21.018768 3.384800 
-1.498602 27.090727 9.416199 
22.005968 -3.063609 0.629871 
18.086323 12.762815 3.509333 
-15.768262 24.337921 10.075442 
17.396410 -1.532896 9.465235 
28.166565 2.329962 -5.831656 
11.622002 21.984358 9.618407 
-0.077015 26.512844 -3.172409 
-27.764719 0.411354 -1.578538 
30.171701 -7.446568 2.316596 
-18.822224 -7.953200 -0.979533 
28.708754 1.019592 -6.877105 
-19.432692 -10.838608 2.518148 
16.195768 0.787101 -1.494119 
20.268995 17.540550 2.079126 
-8.796823 25.093977 -1.416997 
16.509987 16.649427 2.879571 
6.102530 22.295063 0.241962 
4.766113 20.446997 15.559369 
6.061034 28.967237 2.983372 
21.297245 4.871539 9.791984 
5.576293 26.010611 -1.613036 
-10.047915 27.109306 11.706111 
23.948561 -6.717308 9.369870 
18.334345 -1.003029 17.373560 
17.137569 22.337421 -3.235204 
8.862970 23.305395 12.159008 
25.954693 -11.795657 0.857391 
-26.268627 2.677001 6.773767 
-18.488548 18.492090 7.293613 
12.307400 17.237835 11.034675 
8.626994 32.902729 6.179621 
-20.067856 5.194585 10.468468 
-29.014215 -12.505007 5.458945 
12.349851 16.275427 -3.264741 
-17.162941 8.762409 -1.950855 
13.126103 24.905655 4.199479 
-20.231251 -7.346951 6.059335 
18.923296 25.269743 5.830259 
-17.118103 -3.270352 5.372501 
-24.991411 -5.510364 0.397086 
-14.598774 23.486900 -7.469693 
20.066502 -10.371355 -0.304443 
-0.072761 28.807297 12.398041 
21.761797 -10.232459 13.123947 
31.546644 -4.780492 15.298329 
6.186264 28.409172 16.794680 
22.868767 16.498211 5.459585 
-11.171404 19.222654 7.527878 
29.247511 2.629317 11.827192 
14.944971 3.880829 -2.643677 
18.795380 11.019720 8.370947 
31.972233 -9.957806 10.161874 
-8.631400 21.885571 10.658054 
24.250914 -10.439598 -2.830960 
-26.097401 -13.493016 6.069400 
-18.731037 -3.159292 -3.660078 
3.548099 28.219957 -4.698986 
6.532424 27.898722 4.950868 
15.183719 23.336027 0.745407 
20.094479 21.108149 8.629742 
0.281054 27.890720 -0.015004 
-19.421898 20.435822 13.120084 
16.900877 20.698198 6.092542 
-1.441308 25.196516 7.899720 
16.989920 6.105016 1.853250 
0.679447 32.468185 5.010277 
8.103927 24.227655 4.486263 
-14.217723 9.038459 9.113194 
-7.789991 28.470821 0.204538 
22.449135 -13.842701 -6.114160 
-22.288574 2.221064 10.845406 
16.080748 6.836321 0.014019 
-27.069447 2.199464 16.064339 
-6.846715 25.978880 -2.055439 
23.112457 4.227298 4.081298 
-13.322134 21.454433 11.932454 
-20.942024 -14.130751 2.215890 
-8.360658 28.101053 -0.203227 
-27.616749 -6.138303 3.238524 
-24.624271 7.832463 17.552868 
17.731506 21.279318 2.547699 
20.689329 11.967249 7.818348 
6.592844 24.206396 3.189444 
18.793167 24.830822 9.864870 
-22.330626 1.263890 -4.500921 
5.544242 25.991880 12.907498 
-19.488113 -3.878186 -3.472625 
19.052492 9.104048 -1.471857 
-20.298073 2.713559 10.146345 
3.965849 28.289896 -1.922644 
17.824633 14.101515 -4.101839 
-25.810152 -4.797441 1.785989 
16.475737 2.790453 13.689307 
-7.878151 23.275764 -0.204714 
20.995451 3.144140 6.183346 
8.502813 27.177502 1.799377 
17.295044 4.080647 6.959023 
-25.452991 7.243189 13.070151 
15.258490 23.611664 -5.897529 
-18.182930 16.893145 -2.029120 
27.272345 3.476243 -2.203832 
-23.148830 -4.244452 4.054465 
25.293686 -5.988712 12.937478 
-12.215272 21.688150 -4.467554 
-5.751708 26.290220 7.353395 
10.086482 23.158373 -4.287528 
15.906328 4.995714 2.591723 
-3.977195 29.400211 12.408900 
16.695917 0.950660 -3.335025 
-26.982231 3.228530 0.224865 
-21.002754 10.272799 7.252365 
12.893790 19.992935 8.549448 
-15.692201 3.248279 17.495155 
-16.239967 -0.001932 1.786798 
-4.488498 27.478115 1.165290 
-20.634779 12.968004 8.490801 
-19.737608 -4.907184 10.260059 
21.426697 12.779819 8.935133 
21.671633 -10.224522 -2.860797 
-18.636164 19.495302 -0.726685 
17.106588 22.586395 0.648860 
2.856014 20.949858 16.051847 
20.856495 -0.184891 10.592668 
-28.896793 -14.445300 -4.139544 
-27.134155 -5.638378 8.378657 
-6.520885 25.521914 11.181361 
13.667993 26.552187 11.283959 
-10.587358 26.734631 16.479580 
-5.872739 31.811100 4.841346 
19.449938 18.614931 3.969336 
-27.999601 -11.288311 5.620844 
-24.958532 5.663328 0.663350 
17.117907 25.095959 4.408781 
-16.344652 23.407516 15.372174 
8.910045 24.162100 -1.891595 
-24.805796 -17.909229 11.492880 
-27.840134 -0.773710 10.672614 
4.541612 28.441940 5.158973 
-13.215490 9.366032 11.757471 
-11.540863 26.602823 -1.529835 
-20.873741 13.993594 3.018390 
-22.812920 12.035746 8.383835 
-16.871582 8.913890 6.383886 
-25.177563 7.753368 -2.136456 
32.048145 -9.302546 -6.270243 
2.285645 25.575994 8.095094 
-19.447115 18.148907 -0.224490 
23.073128 -2.177896 2.895197 
10.651328 16.816721 15.915939 
21.280535 9.193841 3.577198 
28.211384 -8.572823 10.734944 
12.971689 24.210123 4.677721 
-24.155777 2.522816 4.483223 
-18.635345 18.813597 1.257624 
8.683685 20.857126 -0.316360 
26.012957 5.697792 -1.982505 
8.465293 18.219650 17.542608 
22.905176 5.416717 9.780169 
-12.334062 18.629160 6.717110 
-17.943571 20.311228 4.910233 
-22.715187 6.026234 -0.650155 
8.175735 31.230040 10.332849 
-11.049995 24.732836 11.993211 
-20.205751 14.316381 -0.048558 
5.729007 24.614851 -0.294927 
-23.988560 -13.143646 6.160072 
13.985316 17.656818 3.157093 
-0.050383 31.675898 8.539276 
18.795685 -3.635348 9.519509 
23.226563 -10.913554 3.480710 
-4.680551 28.895626 -0.506685 
30.138214 -2.300003 -3.789107 
-24.040752 3.715352 8.216604 
-7.925449 29.604475 3.462174 
20.646395 3.845683 8.495466 
17.993835 24.864092 4.038683 
21.084410 19.110504 15.896654 
-23.932558 -10.631036 -3.009004 
-24.535147 9.615905 0.342733 
-23.705185 9.121372 -1.999298 
-17.515512 0.450182 6.563365 
11.116452 24.337595 9.382033 
25.216425 7.932318 -4.238818 
-15.065024 23.972952 -4.879058 
19.156336 3.635735 7.402816 
-18.768509 -3.992751 2.764941 
-9.240044 23.738497 1.973606 
-20.237423 1.533097 3.714461 
-24.789595 6.163356 8.425557 
-0.701650 29.467205 15.549478 
20.275347 14.670172 -3.001623 
-11.869232 24.837576 -8.606643 
-0.863465 32.142059 6.375520 
-0.060927 30.371939 4.300000 
18.574484 19.436857 -1.896746 
-20.001299 8.461068 3.046807 
21.689379 -4.947164 3.892883 
22.670609 7.674280 -3.844697 
-14.186298 24.017704 -3.724552 
-13.746326 7.620583 12.092242 
26.099577 10.598371 11.920988 
30.817907 -13.096008 -6.071828 
-20.933506 -7.308260 3.177454 
21.264889 -13.490806 -0.613909 
-24.240608 -12.181160 -2.617723 
21.300987 -12.580434 -6.195782 
17.766939 21.359505 -4.759758 
-16.869873 10.744708 1.493036 
6.013359 19.435333 -4.001468 
-19.671358 2.815382 5.579983 
-17.935226 22.872217 5.283180 
-22.534565 13.810092 7.231521 
24.974417 -0.019280 2.209440 
-7.571950 27.611650 -4.546345 
-29.692062 -8.252158 2.702969 
-27.880980 -1.475796 0.070505 
-10.586955 25.602856 -2.639503 
9.981615 26.745476 -7.338529 
13.876664 13.103127 0.562727 
-17.540972 2.558849 2.771373 
19.793922 -10.216038 0.961844 
16.126467 3.730817 12.553055 
6.373980 20.788586 11.770089 
14.416326 18.407345 9.671767 
6.510118 27.904924 1.321596 
5.769724 26.918224 -1.649605 
-18.144272 3.676416 3.184523 
-22.011164 0.969169 4.695208 
-12.791795 19.222261 0.694816 
-14.204244 21.760059 -2.844666 
-22.304197 6.691370 3.413650 
-28.981178 -1.625943 -3.175272 
-9.468864 28.830841 9.035157 
25.026289 -10.566827 9.543200 
21.281572 -4.091612 8.044938 
31.285610 -5.980989 -1.852882 
-30.374628 -7.415679 0.230217 
-15.974229 4.356071 -4.927832 
9.728060 28.515259 10.801800 
21.131397 19.415033 9.357819 
-20.770958 12.322337 9.256833 
-22.063528 11.762435 3.391994 
-26.825865 -10.782245 -2.475573 
7.843135 28.588087 4.442939 
-27.593948 -12.054345 13.261924 
-11.085353 13.900346 13.479286 
-17.170652 13.727059 -3.439185 
-29.690289 -8.712560 -1.265475 
-25.523685 -10.643906 -2.839081 
19.763987 -6.595710 13.868884 
-23.958275 -13.747916 11.619951 
5.002655 21.552841 -2.030671 
15.906867 13.474988 2.484819 
4.895514 25.391806 12.283580 
29.705446 -6.644864 -0.628093 
8.755666 26.678106 3.500870 
8.005607 28.307127 -2.488301 
-19.247255 16.468109 -1.392085 
-22.698336 7.011369 0.773121 
4.210744 21.477846 -3.163286 
-17.554085 13.830230 -2.328347 
10.476105 25.712078 4.027907 
18.733892 -5.476705 11.749279 
11.718748 22.940134 -0.226957 
-18.860085 -11.415462 10.430793 
0.184852 29.430676 2.965706 
6.391935 28.654455 2.071267 
-0.031613 28.760780 -1.663524 
17.404602 11.278768 2.011204 
21.219824 2.952047 2.291734 
16.319475 11.046930 4.664092 
9.506893 17.452394 17.534147 
17.882111 19.300184 -1.406517 
-13.668716 24.918148 2.742142 
25.471540 -2.751302 0.428312 
-15.717216 2.791798 0.473501 
16.584911 21.345743 -8.127690 
-20.363285 17.912746 8.122293 
28.030474 -6.895658 -1.883040 
-11.794706 23.450771 6.172031 
-21.156647 15.791584 10.867916 
23.147724 -8.931653 8.156062 
-27.716049 -0.398457 -1.608490 
-11.829473 16.059965 -1.408214 
6.273439 21.600073 -3.583100 
16.856474 22.522646 5.972425 
22.291422 -2.130368 -3.180059 
-16.912327 19.558157 3.662364 
-21.154665 -10.186742 4.754642 
19.808958 18.713840 5.178484 
8.926023 29.270422 6.694678 
26.108498 0.493775 0.506160 
-23.455650 2.997655 10.665324 
21.480604 12.050887 -3.201413 
-14.586994 15.749125 8.975992 
20.972591 -9.334858 -2.926892 
3.547476 21.822046 13.191692 
6.435209 25.913567 -1.381118 
-26.433577 -17.618179 11.708629 
-20.073038 -4.615914 -2.486888 
6.971057 21.984762 0.669307 
-16.036077 -0.910484 8.140912 
-21.320307 14.597865 2.657854 
24.362965 5.611979 2.077468 
-0.850158 24.430420 -2.192351 
26.957088 8.232276 10.475878 
-18.605904 14.545279 -0.678504 
3.105545 29.557652 11.805715 
25.718988 11.213521 12.743492 
-6.522924 25.023682 12.012046 
-22.148985 1.528806 8.346843 
13.021317 25.943161 17.587997 
25.007063 -1.530267 8.754065 
17.101013 -2.616585 -4.661659 
-6.911620 29.008137 13.660695 
19.678284 -5.153376 1.147618 
-6.599852 26.402464 3.403638 
-17.581120 15.782440 3.109859 
21.226604 10.791671 8.471187 
-12.937857 15.336336 7.617132 
8.269779 28.092432 11.772830 
15.428347 22.197550 -3.745152 
18.035255 13.891725 -1.265625 
-20.600990 -5.624208 0.253635 
16.553465 17.773262 7.524121 
18.048565 -1.917445 7.629505 
-5.503755 24.244919 -4.439075 
-18.130323 -1.675512 2.063502 
12.496346 22.192982 11.119205 
-10.848190 27.496002 3.681250 
0.966206 27.264242 9.441467 
24.964880 7.737641 9.495996 
16.817036 -0.945190 -0.753315 
22.395416 7.300020 3.575859 
-29.879820 -7.998117 1.356023 
22.337837 16.418030 3.393550 
-8.218528 28.807360 12.899746 
25.168201 -12.265871 4.480605 
3.016227 28.155682 -8.641891 
27.310753 7.542814 15.536145 
-4.152456 32.162708 5.248137 
-3.926806 27.804249 13.076956 
24.789463 8.652979 -4.981744 
-25.716518 -11.559128 5.902658 
15.915524 14.671636 -2.107266 
-13.045090 17.256418 2.227910 
-22.895082 14.371150 10.752390 
-14.044126 14.039664 -3.394176 
-4.951600 31.381790 2.499716 
-18.816799 13.432453 2.100447 
-28.477404 -1.671569 13.071329 
11.484671 22.845600 4.102144 
-6.751604 27.806284 8.481503 
-0.502822 31.891956 7.693617 
-22.422037 5.238676 9.023860 
-11.061710 28.944174 3.979559 
-20.202505 -5.407664 -0.399546 
-4.697775 26.928059 4.175981 
26.655880 -6.019138 6.804960 
-2.564832 29.215181 15.836170 
21.951307 11.047380 6.660661 
-21.477110 -8.836143 9.444527 
22.806324 -6.850405 -3.225977 
-23.294512 -17.509100 13.237385 
11.237922 13.780598 -4.762142 
-25.673758 6.425152 11.606903 
-21.645903 12.097856 -4.235185 
-26.451578 -15.804395 -4.093160 
-16.969868 -1.232635 -5.733163 
-19.012543 -10.196018 8.443500 
9.722746 26.912092 3.562714 
14.394173 22.005119 -3.752680 
22.262297 -3.706127 -0.724648 
-25.905745 -9.618661 5.925212 
-19.742786 11.234435 1.919429 
34.426445 -5.580702 10.034931 
14.192337 25.804096 9.868504 
-18.848778 11.286596 9.783410 
-18.697985 -8.433983 -6.826722 
-20.343222 19.145477 13.055196 
-14.371864 7.221283 9.064629 
23.987959 -2.562185 4.463856 
-22.345707 -11.260589 4.590005 
-9.810971 17.278200 11.146228 
15.353939 18.818802 7.585021 
-18.530878 12.481503 -2.249440 
-27.768671 -14.794643 -0.131856 
2.078370 21.110018 15.771244 
-20.535803 8.789333 10.699889 
1.203446 27.029005 7.246799 
14.583370 23.241571 1.919420 
22.253950 -3.343917 2.229088 
21.170691 11.195241 -3.142992 
22.254389 -12.025931 1.619333 
11.210346 19.290735 -1.664601 
-21.563892 1.886916 -4.593536 
14.964724 15.497351 0.293751 
31.228510 -6.236466 13.371168 
10.745020 26.021856 -2.558625 
-24.330181 -6.557532 1.377189 
30.404972 0.503947 12.318954 
30.829784 -5.508030 15.096237 
22.812344 12.161488 -6.469600 
22.468157 -5.203264 -2.862915 
-23.222948 -15.557263 0.100929 
-26.480169 -2.423064 1.833743 
17.347469 0.631334 9.340359 
-9.485878 18.855593 9.693801 
29.413309 -1.153720 9.164544 
-17.622694 2.185884 -3.780224 
19.776901 -8.700112 1.190506 
-8.675328 22.467789 11.406543 
-18.750212 -2.759700 7.965688 
-13.229740 12.744628 6.519579 
-13.514356 19.178604 2.875253 
29.438402 -10.463740 3.856538 
-14.636053 18.875462 3.579406 
-30.065100 -11.069938 0.012195 
-13.495639 22.708723 5.514642 
-18.149548 -4.789673 -7.023679 
15.083488 4.018850 -6.056065 
-18.977730 -11.339475 9.320362 
16.490089 6.654423 6.545611 
22.929625 1.949520 10.647221 
17.265326 16.330429 -0.427834 
-27.049843 -3.943031 9.666070 
-23.199976 7.487817 9.907611 
17.498806 -1.073920 13.699854 
23.038387 6.465774 3.075428 
9.377242 30.850103 9.430393 
18.355888 20.629709 0.043520 
18.689835 0.075729 7.242586 
-27.011362 -16.085316 7.648654 
-19.714354 -0.974455 -4.833332 
14.401493 19.979471 7.440790 
-25.423677 -1.742877 9.961837 
25.931957 4.080019 6.769101 
16.717537 1.901426 -4.189684 
16.933928 2.185032 9.320069 
-12.404536 22.294792 8.507197 
6.718715 21.509344 0.059471 
-18.298180 10.057899 6.977256 
6.767851 24.468941 -0.912758 
-3.756180 29.080603 -0.466315 
28.129673 -8.023129 12.728333 
1.199695 30.777685 11.261752 
12.324567 16.635998 11.624118 
34.606293 -4.660461 15.136134 
-20.244158 7.278578 -0.196852 
-29.647182 -6.461900 12.302345 
23.293932 -10.032822 8.569878 
-3.797721 26.149118 -0.307640 
18.269100 -4.190506 13.253980 
12.222250 23.246445 11.124863 
24.911066 3.843312 2.601025 
-16.016283 -3.645028 11.005938 
-26.654049 -0.917867 11.277545 
24.447214 6.201091 2.654547 
15.340501 7.326919 11.122396 
-14.992378 6.645882 -7.627331 
-12.498867 10.526753 13.979290 
-15.887521 17.987070 10.460423 
23.021738 0.459505 3.197505 
-28.817207 -4.843161 11.446978 
-21.275837 13.015664 3.027895 
-18.090885 18.527359 4.500750 
-11.618311 21.525171 7.916541 
-28.071352 -14.409588 12.722651 
20.547470 -7.511399 -1.976757 
17.391266 12.574707 -4.374160 
-21.943350 6.306777 0.088231 
16.000629 15.347332 10.392388 
-21.978100 5.284092 -2.872477 
5.589053 24.167677 -1.132147 
13.216003 22.904156 -0.049628 
29.838394 -3.225249 12.043459 
-22.805538 14.583878 13.519317 
-19.367050 15.799874 2.580750 
-12.728076 27.456366 4.705140 
0.991772 28.909351 10.336415 
12.817048 23.224947 6.353885 
-27.599636 -9.862848 13.200291 
2.735403 29.104061 -1.680880 
-15.864478 17.553772 6.329518 
-18.547443 17.823015 2.833015 
-11.577586 19.466877 -1.900396 
-21.846684 -6.374549 1.494597 
-20.780741 -13.094154 -1.062779 
-21.177269 -6.867542 3.823684 
-24.868912 -12.684716 -1.161977 
30.392979 -9.650527 1.518901 
-9.224325 26.195515 -0.772830 
18.744743 -3.928570 5.182049 
16.489050 21.996021 4.264066 
-4.495934 28.028259 4.073854 
-20.691889 -9.054228 8.450635 
-17.329407 7.067656 2.624561 
-12.545385 23.916224 9.877585 
20.513641 14.200301 -3.603814 
19.360044 2.963848 6.244088 
23.866970 3.952436 9.936843 
-26.430506 -8.881787 6.322237 
20.256752 17.453936 8.571272 
-7.901824 29.965086 6.451864 
-16.521564 12.491512 2.701380 
-22.277140 4.775329 4.063139 
-3.556261 29.950693 13.435602 
-27.432985 -11.816554 -1.932666 
12.986942 24.594538 -1.013848 
-21.872570 6.257453 2.423675 
-6.525980 21.725561 -2.105818 
11.282178 26.215321 -1.954670 
16.560650 19.242386 4.533788 
25.896761 -8.640183 4.532481 
18.801308 -0.395307 4.633847 
13.998559 20.700714 8.693412 
-26.803991 -14.133290 7.806557 
-18.263489 7.862253 10.476220 
26.664909 -7.305062 13.893009 
11.742797 23.525436 3.774951 
3.009801 25.810045 0.932881 
-1.822770 24.819420 11.390017 
4.628561 19.553658 -8.147882 
-18.442776 -1.272341 -4.776334 
32.322620 -5.305860 14.608376 
20.465345 8.975616 1.549195 
1.093878 27.455112 8.547908 
-29.502525 -14.702206 11.138347 
-18.424841 19.817930 -3.061085 
-14.864234 20.788790 4.415502 
-4.657321 25.053205 -0.190644 
-5.138353 28.652124 3.421665 
27.384247 -9.668219 -2.082392 
-12.758884 23.649927 10.680126 
2.594983 28.062744 4.473684 
-5.002465 27.503672 -1.244870 
15.649516 5.835694 11.000577 
19.558800 16.147467 0.883860 
15.260464 16.270393 4.298871 
18.858595 8.352300 -1.068806 
29.504351 -7.496818 -0.867095 
-1.730677 23.837984 8.505108 
-0.945748 29.661285 2.725585 
23.771658 0.825487 -4.286000 
-19.489307 -10.753773 1.414667 
1.586865 31.239965 3.851748 
-19.400549 5.946145 10.644364 
19.207031 10.084533 3.546843 
-12.574191 25.492908 7.171605 
-16.701897 10.484942 0.677129 
16.499125 18.039524 5.941921 
28.146870 4.180354 10.010274 
-22.955544 -4.585717 -2.920854 
29.082190 -0.247977 6.015806 
1.753663 22.842825 -2.589782 
13.372138 24.546888 5.364290 
25.545458 -6.125623 9.358064 
21.814445 4.311985 9.383681 
14.946946 3.281766 -0.224866 
14.539771 11.829527 5.030005 
-9.111045 21.752949 9.287785 
7.496847 26.311594 12.679617 
-27.737806 -2.219594 5.741403 
-1.616906 29.359102 15.707992 
16.541603 0.992159 1.714856 
-24.806690 3.768757 7.322447 
16.645182 10.610733 7.911011 
-6.946971 23.054533 -1.101431 
-18.227156 3.518479 9.138494 
-9.424706 19.556091 -2.218633 
15.572374 5.775145 -1.083267 
-2.086225 27.108477 1.813132 
14.307112 14.650768 8.108685 
-14.292377 18.180843 -1.220119 
-22.273695 16.259539 7.992763 
23.047623 3.275419 3.884841 
25.674614 -7.079256 4.924065 
-13.752100 25.595491 14.678155 
20.258299 16.225039 -7.806434 
-11.269287 23.714190 9.001037 
18.014330 18.352354 8.214471 
28.972151 -4.113680 0.747024 
26.242903 4.984035 -2.265324 
-25.128469 5.374049 -1.069956 
16.598848 19.190571 7.443973 
-17.879814 9.714438 4.079232 
-19.433226 10.177732 8.227384 
26.378681 -9.230696 5.380323 
10.272284 21.327459 -0.917835 
-15.813128 1.577699 -0.176441 
-15.913317 7.102342 9.652635 
-15.543197 12.673864 -0.091548 
18.940014 -0.424612 -4.859957 
13.881236 18.457306 9.063839 
-24.374506 11.212191 -1.124443 
-20.102484 -5.817481 3.687780 
20.638273 15.010164 1.620332 
16.811157 16.541990 1.942627 
-19.057983 -1.030586 2.579746 
-5.810985 21.390142 10.212522 
17.349493 20.909847 -7.115978 
-22.336985 5.219265 7.406299 
-27.906494 -10.458434 5.309699 
-6.195146 25.826141 8.214778 
-3.092726 27.427473 -0.938636 
9.948430 20.873041 9.806002 
17.450867 21.145708 12.950786 
17.898600 20.646528 3.196099 
-6.076183 24.738710 7.715521 
0.169892 25.148123 -0.302918 
27.783857 2.143672 7.470762 
13.267840 24.481377 8.338192 
18.789204 18.557775 8.242694 
8.362457 28.073618 -1.594546 
2.796193 29.795341 14.852777 
21.194738 7.300115 10.526080 
8.929482 22.452623 1.616445 
-14.988737 9.769011 7.402530 
-16.444462 6.893795 2.762877 
25.757137 7.982995 4.632676 
24.782990 -12.145397 -0.691221 
-6.001836 28.771952 10.032970 
-20.175419 10.906430 2.584437 
17.046883 4.576438 8.208468 
-20.270149 9.447829 -4.337914 
-20.236776 10.234717 3.234702 
27.548227 -10.655625 5.648633 
7.709606 18.819502 -3.351940 
-15.580157 10.741953 9.160283 
-22.870792 -10.077788 4.658947 
26.487068 3.311226 0.367635 
31.203110 -5.862322 8.088393 
24.970173 7.073349 8.900249 
-26.675623 -5.643313 1.334016 
-13.340592 16.251671 -2.965793 
20.345652 -5.014396 4.600007 
-14.686450 17.390303 10.100595 
-17.583826 1.508525 -4.214104 
22.075964 17.839258 6.179369 
25.820326 -0.151598 0.067257 
0.373677 26.608200 12.017776 
-15.151525 5.451758 5.332788 
-21.919743 3.994570 4.265750 
22.850302 17.276672 9.801341 
-19.667404 -9.893835 7.412510 
-27.256397 -4.106674 5.669751 
19.030462 10.806680 3.027495 
26.305565 0.878408 -1.687662 
6.509145 30.831289 11.734945 
29.236441 -7.959244 11.023796 
-24.266731 12.335655 -0.165860 
23.858194 -9.553804 3.148576 
12.966846 12.551042 11.166715 
-15.164592 7.914020 -4.666807 
-16.525076 23.806871 13.584938 
15.576875 15.064764 3.140204 
21.261740 -5.163342 10.150626 
-8.303207 28.110304 -1.303005 
26.308329 -11.505153 2.520513 
22.458530 13.264835 -4.923797 
13.506824 23.253500 11.910356 
15.785439 23.347996 -4.444078 
15.816985 5.092202 -2.158779 
7.534812 29.078098 12.872161 
7.221572 24.277914 -4.483663 
15.857775 25.246256 14.964971 
4.553545 22.501940 -1.531399 
3.902164 27.543354 7.072454 
-18.656706 15.320186 11.432744 
30.093296 -10.669026 1.841288 
7.629371 20.981661 9.180596 
-19.321926 3.232775 6.516888 
-14.766910 11.163327 5.380739 
-30.796621 -10.596022 7.840688 
28.075603 1.948019 9.328546 
17.926786 7.311674 2.583577 
18.684155 -2.166028 4.220107 
17.780218 8.953252 4.496727 
9.603254 28.550829 12.872312 
19.278624 2.138818 -5.276314 
21.735554 1.422936 2.543400 
2.298615 26.933258 -0.423103 
18.872841 0.477447 6.520469 
-10.804036 21.801174 9.423930 
-11.277040 19.077724 9.597866 
-11.780159 17.751284 8.756672 
-16.738745 24.501118 8.811666 
23.712557 -2.244592 2.095232 
-12.908558 18.554602 2.753690 
19.003052 22.889301 12.483309 
-18.775080 -5.041442 0.841288 
27.460178 -8.110297 13.596298 
17.703697 10.826909 9.426888 
-17.051016 11.602900 3.573428 
11.004650 27.779295 8.034025 
-27.444624 -0.989990 5.380705 
-26.768139 2.067634 6.350474 
22.229490 -5.501627 4.412406 
21.040848 20.050537 11.016698 
-7.145788 23.007607 -2.159100 
-21.200811 0.104079 11.180449 
-20.395803 17.702307 9.220819 
18.705750 3.354765 1.828087 
21.260651 3.275704 -5.135434 
-19.540388 8.904280 10.542521 
26.438078 9.861907 11.255054 
-17.630566 20.752155 -6.154748 
-25.613745 -2.241617 4.203182 
20.657988 -8.862847 -2.376289 
-15.408858 11.673381 3.514481 
-27.253239 -0.336239 1.551077 
-0.859203 27.512991 6.915773 
31.917334 -7.069077 8.514542 
-13.975254 14.520682 3.449247 
-15.826987 3.313112 1.744952 
-26.885250 3.284281 13.143013 
24.750551 -2.826691 -0.060567 
-0.030544 29.816689 4.893247 
22.513939 18.110111 11.496805 
-31.147701 -11.206277 0.559742 
-15.583252 8.208076 -3.146917 
-16.293304 2.399876 -6.123894 
2.280843 27.573719 7.293856 
-19.008816 2.331253 8.155281 
4.391524 29.668570 -3.199699 
-24.999401 -5.433241 10.826324 
21.840916 -2.988256 -0.248661 
19.614271 23.629473 8.641148 
-11.154795 26.030554 17.652578 
-7.446074 24.897394 -4.728809 
12.785272 25.246428 9.983961 
-23.023008 -8.162070 -2.756041 
-18.315237 14.854595 4.599773 
-20.656610 -12.523538 8.816951 
-14.846847 11.939477 10.129041 
17.524916 18.456146 10.147513 
-18.994738 21.069334 12.409713 
-29.143541 -6.188365 10.227973 
11.413048 17.513863 -1.062631 
-21.101385 6.806064 0.581699 
-23.720003 -5.861213 3.793080 
21.247505 9.060601 -0.012244 
-14.305068 13.038624 -1.126322 
22.804020 13.446331 4.683847 
11.105430 18.916075 10.512264 
16.989159 -0.517926 -2.096832 
-27.549355 -9.783108 6.660484 
26.959093 -8.661452 5.485479 
26.928890 -3.392727 0.067908 
15.517913 12.042188 2.461532 
13.764030 22.372511 7.355768 
-6.539068 29.120228 7.615256 
-1.751745 29.785980 -3.888447 
-17.324112 23.206244 11.957834 
7.980602 26.963709 3.476691 
-17.457647 3.530981 3.770708 
30.557463 -3.317232 12.718300 
16.759365 10.743868 2.237419 
18.321814 13.217479 10.636287 
-9.949812 25.398277 1.281867 
-18.918242 21.047041 13.528689 
-13.025718 15.371359 0.956586 
-17.527330 0.736732 8.909488 
31.346586 -3.760726 13.717039 
-21.064140 -4.265906 -3.933626 
-15.276822 22.261911 -0.323914 
-2.649919 24.132145 -2.339340 
23.927683 6.860443 2.050534 
-16.813187 18.166422 5.588567 
-12.026457 28.235670 5.953225 
-20.893208 -7.104285 2.302840 
7.949850 26.934458 9.425967 
21.018038 15.987225 -3.994681 
22.582043 15.369340 9.319623 
8.577737 26.952366 2.628100 
17.953993 8.421550 0.690521 
20.451139 15.572351 -0.145595 
-5.611401 27.436750 -3.969173 
2.422228 26.070673 9.003659 
-30.180977 -10.234701 3.567194 
27.420931 -0.344784 10.893505 
-7.724989 28.988714 8.247581 
18.593498 8.263363 1.824564 
-8.121332 27.747906 10.685158 
-28.662153 -15.647333 8.974595 
-16.919329 -5.002342 7.636110 
-30.384865 -9.128623 15.594663 
0.832704 27.251244 4.252601 
19.218420 6.322693 10.206124 
-23.747002 -13.296136 3.963023 
14.651344 6.158180 -3.836896 
4.697401 30.842884 4.519972 
-29.619791 -14.874627 8.308664 
-16.517962 13.250916 -2.613759 
-14.557113 21.762873 4.639911 
23.882574 5.055692 3.745452 
1.647963 29.406248 11.035113 
-10.953889 28.898882 6.440491 
-17.647951 -4.108645 9.406039 
-3.123279 24.694723 -2.039105 
24.071331 -7.143752 8.072592 
-21.524149 9.771234 7.808807 
27.632526 -11.031205 4.778918 
18.108273 8.753343 -1.163041 
-22.966381 -1.291980 4.074680 
14.228619 23.909376 11.865397 
-2.913836 27.437950 13.154823 
30.315659 -6.295283 14.757279 
22.925013 -6.054787 -3.149350 
-9.933097 25.233471 -1.334777 
13.674588 25.050426 8.814631 
26.807739 -5.908798 14.215098 
-19.599737 -10.983535 7.185519 
23.855585 -10.391319 3.413513 
28.474562 -4.228545 0.041785 
11.362309 22.811268 -1.022312 
19.054861 17.366924 2.981656 
-21.690458 17.147268 11.004694 
21.581764 11.028086 -0.247911 
-19.103909 3.868471 -3.861174 
18.324543 17.633604 -0.194821 
-20.208824 17.256779 -6.160746 
24.072588 -2.133602 -0.250508 
-14.131664 7.106926 10.017430 
-13.153015 9.884804 10.779150 
-19.408043 2.446333 4.794013 
-30.156481 -9.569057 2.945549 
29.678913 -9.748148 6.512383 
15.489533 15.967578 0.752681 
-5.058661 28.138012 0.295703 
-3.608027 27.391262 3.142921 
27.619385 -1.193027 3.712540 
-22.628901 15.305748 12.137518 
-18.480295 11.393005 4.641620 
-22.978178 9.287604 -3.703545 
-8.288917 24.698767 1.810704 
12.938756 12.535529 13.296134 
-13.545730 12.677348 -2.076535 
-12.440817 13.131226 -4.059257 
-21.114626 -2.016094 -4.564378 
-14.910383 24.268509 16.221405 
-3.513085 27.559692 -3.286765 
27.321875 -4.720912 4.864164 
19.700630 22.863319 10.931651 
-21.091648 -3.374626 2.953741 
1.886153 30.218269 5.338526 
26.376402 9.861296 10.409820 
-22.457842 14.129160 -4.035819 
18.109388 3.732082 6.588646 
-25.389614 6.974266 -1.956060 
-7.111963 25.890738 2.803213 
25.617821 -11.187628 4.994078 
-10.084579 27.640638 4.097828 
-22.602779 15.237245 6.034429 
11.723513 24.053293 2.852934 
19.586018 9.710649 9.446367 
-26.448889 1.774347 2.116919 
12.483032 24.461088 3.824870 
-31.201262 -12.309930 8.813450 
-5.729154 22.492647 9.154864 
-20.750393 -7.436779 5.444921 
26.740080 3.178478 10.186728 
-21.593390 3.565830 8.172165 
20.600058 20.681442 13.429061 
-18.202953 21.922916 8.231429 
13.468562 21.894329 11.966569 
15.625723 16.472139 3.084270 
29.312170 -8.754572 8.212278 
-11.002794 22.589842 2.497600 
16.644028 13.603804 2.918087 
-1.772091 30.743431 3.593018 
13.764034 23.439501 2.101307 
32.158684 -4.585331 8.289246 
13.978968 25.567820 7.252894 
-12.298256 20.876093 1.142250 
-23.897282 -4.296484 5.359640 
5.425457 19.208191 -7.006501 
2.692300 30.361969 13.398221 
-15.598530 4.279696 8.236601 
-13.515960 18.221243 -2.057394 
-15.318695 11.773933 -0.966274 
21.250452 3.773196 5.494816 
23.823952 -2.461255 1.304513 
-14.126176 18.046623 3.473586 
14.948940 5.343565 1.147440 
27.684570 -1.367139 -0.489338 
-21.370672 12.394158 8.215198 
15.059244 14.416278 -1.247726 
-24.105419 10.455367 3.171509 
-18.948809 -11.859838 -1.234206 
-14.746426 19.336195 2.734941 
-13.529576 14.396685 4.647400 
-9.258993 27.010027 4.695076 
-25.913694 5.632647 -1.035829 
4.793328 24.709705 -2.066654 
16.810204 14.357120 1.251825 
18.222706 19.187468 -7.991392 
-31.053610 -9.968827 1.830196 
18.283016 18.030579 2.672777 
-28.079092 -4.021327 0.181261 
25.249075 6.637769 7.400964 
25.919138 -5.527983 10.022937 
-7.641696 24.520847 12.571566 
-3.630683 22.163902 11.008613 
-17.290722 -4.679500 8.980612 
15.098725 6.657510 -2.162759 
6.399751 27.016344 4.937296 
-29.340534 -9.917208 6.885550 
-5.526134 22.557327 -1.659778 
6.473670 25.692268 -3.126796 
-27.144075 -3.352714 10.193297 
-13.593216 19.981989 5.526433 
5.146432 29.290783 2.828577 
3.494252 29.458471 -1.709396 
-20.518604 12.528084 2.406895 
-14.514939 24.700714 -4.639652 
-25.599895 0.436445 3.676920 
1.624875 27.040073 9.969374 
2.234779 31.393755 8.311865 
6.834829 25.417233 5.161271 
14.832500 4.911012 0.108172 
-4.324734 24.590595 9.214622 
18.489376 1.335948 1.733871 
1.004600 28.384888 1.533301 
7.786258 22.978960 8.258461 
5.974505 25.534035 2.962950 
12.392312 24.073423 11.348375 
12.238308 21.835472 7.815513 
-0.114474 32.084480 6.930906 
-5.954151 22.434816 -2.957766 
18.400560 19.265774 4.754848 
-14.427508 19.904980 11.809477 
-18.164745 21.760889 6.938572 
28.123323 -9.660928 -1.674234 
-23.746740 4.254117 6.241758 
-30.562134 -9.481425 0.633872 
-9.206391 23.953056 9.036231 
2.553312 23.793671 -1.862166 
26.062487 -10.137613 9.190834 
-27.006968 1.341164 1.615443 
27.584888 1.033088 4.665335 
-17.750023 -4.314093 5.587102 
19.287573 -4.116686 4.343854 
-22.695498 12.712819 -8.041512 
16.108990 19.978497 6.550862 
6.496089 31.264812 4.578889 
-3.751589 29.190500 4.785528 
6.306858 20.602331 -2.976761 
29.473825 -3.862242 7.574980 
21.766068 12.705801 1.728809 
0.356160 29.191111 0.714167 
-23.127188 -6.976938 4.014685 
-17.379944 21.959873 16.417004 
-14.645544 23.876442 17.645792 
0.880236 21.214941 15.498664 
-16.576029 8.269918 8.550647 
-30.228331 -7.174345 7.071666 
13.302190 20.318356 10.953280 
15.488352 19.662191 11.919446 
-8.602965 27.396725 -2.426053 
-7.240388 27.796076 5.156677 
3.631481 28.955261 5.668779 
17.093603 19.036049 -3.268236 
6.441118 24.497032 10.739447 
-1.199935 29.251368 -2.956006 
17.755304 16.529697 1.654812 
