-29.897776 -1.623372 9.988601 
12.471229 25.407171 -2.347658 
-21.055885 0.456908 10.958476 
30.503057 -8.465849 1.599230 
3.004483 24.705618 -4.060072 
-22.274429 -3.515906 6.798267 
12.074148 22.055407 4.978707 
25.679691 6.990494 14.504792 
28.840567 -12.703177 -3.489018 
-23.545483 -5.518494 3.408029 
-2.650512 23.091833 -0.887621 
20.449951 -8.276968 -0.370207 
-5.202919 28.484259 4.711412 
26.036331 -8.153108 -2.767981 
-20.393476 17.737467 0.903142 
-25.743345 -8.811292 12.393105 
-23.304958 -8.666176 -3.843852 
-19.259710 6.751938 -3.431233 
-21.531538 4.635733 11.544219 
-30.980282 -3.242188 8.462380 
-20.265339 8.483417 2.775249 
26.817987 4.935154 11.317144 
-21.982918 -4.106211 6.256812 
17.885616 19.191414 -2.823251 
25.934193 -1.470291 5.296433 
-16.533749 6.293823 -3.103271 
18.858335 -1.950718 6.511451 
7.503066 24.733013 2.803674 
-14.861648 17.175997 -0.870704 
-1.507180 28.766756 9.125366 
10.166297 27.996880 13.639881 
-20.967817 12.144627 -3.521042 
2.775384 32.021069 11.702809 
-11.832710 26.045347 -3.279003 
-28.537697 1.284925 4.561980 
-24.068439 5.532478 2.535893 
18.693762 0.201390 3.433554 
-14.176497 17.074648 1.617767 
-18.692156 9.128337 2.340599 
13.990594 26.435415 13.788449 
17.030792 14.458096 10.339484 
18.115171 18.325777 -5.063337 
19.178137 3.937201 12.320420 
-2.974001 28.343119 -4.014862 
-26.989170 -13.580293 -1.090719 
-12.385206 13.377777 -6.936419 
14.172602 14.630315 -2.562241 
-19.023140 -1.589464 1.894276 
25.091801 -10.146358 6.416935 
-26.518147 -1.675829 11.516418 
14.003646 21.626465 3.142392 
27.489040 3.168654 0.524651 
-22.685099 2.121688 -5.071983 
-18.468353 1.556878 13.924354 
-16.845341 19.310501 -3.634850 
23.797693 -0.587377 5.655076 
-20.482658 6.922784 -3.579681 
-14.716608 12.987954 -1.983360 
14.959689 10.022920 9.049611 
19.961157 9.244486 11.591113 
19.481564 10.931613 3.607710 
-16.601061 5.065694 -5.994423 
-20.503105 15.248022 -1.427298 
8.972719 25.366779 -3.972660 
28.643503 -1.616489 11.349100 
-21.022524 20.377190 7.017984 
-6.064956 24.221703 1.365231 
-22.984522 -7.047396 9.698086 
0.786990 31.273466 5.582320 
19.348818 13.268508 -1.755688 
1.999327 25.058792 -1.940172 
-22.381540 7.179361 0.831503 
-10.947952 27.520405 16.267471 
20.867514 3.352755 12.656298 
15.563335 8.206610 7.559551 
-23.922812 -12.288260 -3.175601 
23.949043 8.102155 6.010723 
-11.107050 27.937197 15.378080 
-21.381657 6.205988 9.987217 
3.071712 22.080462 -1.957239 
-27.415581 -4.894650 12.991977 
16.526270 3.975150 -6.894429 
-25.415987 4.159822 -4.336895 
15.687531 20.077463 6.953086 
1.251812 31.789251 13.592362 
10.356436 17.241817 13.777217 
-18.853863 -2.460412 -3.015628 
0.259421 26.463009 11.735693 
-0.811110 31.200129 8.373755 
-19.657833 -4.166028 13.352933 
14.365651 18.849691 -0.030949 
-16.999632 7.176644 15.154561 
27.179754 -3.470990 2.915941 
-29.340511 -11.383166 1.122436 
1.719616 32.213608 9.617331 
-15.802691 19.996925 2.722639 
17.814280 12.162294 4.178053 
5.523528 20.083714 -4.559871 
-29.135109 -6.481039 -2.322644 
-4.681031 22.211601 -1.705250 
-19.802113 -3.338421 -0.776140 
-18.292580 -0.039038 -2.199968 
15.391748 11.290058 8.800987 
-20.569965 -2.820065 -1.804444 
-13.430875 24.428556 9.521896 
-19.374374 21.232098 10.949265 
-24.897537 -1.838486 11.290220 
18.752710 5.186978 4.652278 
-17.068188 19.508844 2.477551 
-8.783349 22.291929 -3.230704 
-30.283215 -12.462525 -5.063200 
9.411054 26.488537 5.197813 
-26.184980 6.475697 11.288560 
-20.176855 6.378906 -0.642256 
9.032347 27.605446 13.556119 
-30.108419 -1.918343 8.421562 
13.548386 13.305666 8.636249 
24.387341 6.715985 11.039724 
-29.077150 -12.792450 2.623930 
20.220728 -1.639589 3.784992 
-21.225042 -1.111038 3.715908 
-18.307795 -0.412174 -4.986697 
-22.678087 -2.871974 7.799335 
25.480894 -1.690151 2.259130 
28.405603 -5.225755 12.755438 
-11.040051 23.345608 9.728359 
11.360344 25.609547 11.691243 
-18.024137 14.343241 -3.676585 
25.775614 0.848861 5.246688 
10.132715 26.941469 -2.917826 
-22.530794 -10.216836 -3.635784 
-13.751521 11.363328 -6.565088 
-15.528100 19.080767 -1.079949 
-19.514738 -3.203788 13.387201 
10.032652 20.623009 -5.614846 
-18.296505 2.812153 9.775004 
-15.669567 13.853064 -5.086372 
-19.166281 3.336157 10.555410 
20.626900 -1.427498 -0.484557 
25.647179 3.811572 2.780582 
26.285059 4.737527 -3.019265 
6.464736 25.573957 -1.835314 
21.269188 -6.662900 12.289809 
-19.479990 11.644241 2.463175 
-22.474131 4.296241 9.292867 
-22.940170 -12.489372 -0.887275 
23.284655 3.823063 5.707790 
24.317652 -1.311811 -3.063300 
11.559133 28.340002 13.964837 
-15.464371 23.297203 -2.285009 
28.249599 -3.323570 0.692537 
-9.756289 20.260696 -1.603751 
-10.679187 22.628168 9.239167 
16.612255 25.372375 5.141706 
-5.648248 31.220831 3.931080 
17.957684 13.795117 -1.547140 
-8.689014 30.358938 9.966864 
-25.353958 -1.530169 8.947500 
13.368651 20.637806 11.649790 
19.663185 11.319533 11.786523 
18.063189 -0.203237 5.298640 
20.098621 19.276512 11.551663 
-19.353350 19.801214 -0.306379 
-31.515442 -10.659326 -3.121578 
-11.253294 22.751942 5.381032 
7.334833 28.616646 8.531630 
-30.198658 -5.134289 5.498575 
11.568932 27.608385 4.987209 
-25.316086 -7.409302 -3.728546 
8.323453 28.707499 5.558604 
24.916370 -12.851899 -0.997016 
-2.992779 28.384716 9.904204 
13.876298 19.345045 -0.586346 
22.617571 7.450412 1.808374 
-20.162497 21.931704 13.333879 
-18.514748 4.058954 8.960524 
12.063704 13.489762 -7.139603 
15.360128 10.191299 10.116754 
-19.307316 6.865240 -4.290951 
-31.423252 -4.941753 9.820118 
-18.006626 9.744702 -5.779825 
22.562157 -6.659997 -3.094114 
-14.695071 24.325464 -0.298212 
22.143887 -11.563876 4.773275 
2.741925 32.130901 9.879309 
18.157253 13.905521 -2.382205 
16.041447 14.315612 4.048877 
15.944343 19.874201 4.491561 
-2.938509 27.374617 9.224437 
15.561832 9.454227 -1.786882 
-23.168167 -1.898700 4.554272 
26.625957 5.985325 -4.949254 
19.519144 -8.620180 10.300726 
4.188979 30.676832 16.227650 
-14.577625 17.184465 6.970590 
17.600557 19.324055 10.100667 
-18.109234 6.204103 1.294432 
7.014929 27.807644 9.757026 
12.535721 18.463152 5.845053 
19.161440 -5.077689 9.749557 
20.708513 -9.776189 3.811613 
-28.000257 -0.922207 6.359211 
14.541989 7.984057 12.945937 
8.363057 27.577122 7.009463 
-27.617477 -4.279552 5.385970 
-1.739823 26.351395 -4.384934 
-19.571840 5.324319 1.032027 
17.314474 13.011852 -1.231630 
0.452019 28.531038 -2.304255 
-24.510450 13.303022 13.523554 
2.637653 24.678288 13.139967 
-9.673882 29.627569 9.344433 
27.046694 4.984915 -5.926636 
14.523523 21.825537 -1.142505 
-21.205376 -10.415299 2.185444 
-21.944073 11.357014 4.828516 
-23.526381 6.622952 0.351923 
-11.969030 25.283949 13.071295 
-11.877907 25.840586 -5.474097 
11.104604 25.337534 8.727045 
-21.006281 -5.927059 3.788165 
-24.090151 -8.670235 2.915992 
30.911724 -9.731434 -3.960185 
21.867294 -11.337627 -5.048078 
17.323103 8.893280 -4.937224 
-18.945791 11.006516 -4.735285 
9.610032 23.505476 0.789231 
26.300594 -2.233678 1.249579 
20.198574 16.903059 4.444533 
20.702059 15.865789 -3.011678 
17.035276 20.108936 10.876627 
22.672440 1.037950 12.329152 
21.389477 13.550090 1.002198 
-23.002745 5.030696 4.139585 
-10.085757 27.004282 1.167395 
-13.730762 21.044163 -4.741858 
-25.546909 12.287257 5.883715 
-21.943419 2.316297 -5.098976 
29.211584 -5.889583 3.494512 
9.804302 26.605221 -0.644715 
-9.641531 24.239403 3.908804 
8.670327 23.740915 -0.436012 
15.582415 9.949965 10.971687 
14.631260 22.796005 9.649456 
29.222809 -5.941163 7.664161 
12.443677 26.427803 5.575507 
-18.015884 23.535185 11.215590 
21.060820 -5.135436 -0.563253 
-14.082527 15.078805 -4.310215 
-3.449203 23.541035 12.303756 
-6.620461 26.516296 13.615394 
-25.272533 9.138422 7.227599 
-18.736591 14.014097 -1.429076 
2.554333 30.926161 16.266865 
9.138894 23.268875 -1.296709 
-12.960089 23.847118 -3.914609 
6.431620 26.190681 10.946833 
14.321389 21.493607 1.988436 
-22.158867 -3.520375 2.071875 
21.303539 15.689064 8.796618 
-23.592989 9.256386 -3.108788 
-10.515243 24.460258 7.281684 
-13.653109 17.471184 10.525333 
5.137632 24.751030 -1.021960 
-24.156321 -11.589475 9.356904 
-22.019527 5.937237 -1.957856 
26.754568 -0.747738 -1.573333 
22.265511 8.740246 7.456144 
23.176857 -4.378931 3.797627 
24.944983 -11.849992 12.665848 
-17.565235 2.606688 -3.163527 
-15.262322 8.940801 -4.568442 
-11.644369 27.886173 4.687041 
9.825999 24.242178 -4.908004 
-19.173168 20.734678 10.204466 
8.659564 29.892717 12.184322 
-12.971169 24.911697 5.126649 
-6.583752 28.150515 4.759979 
0.967182 32.109905 8.942453 
-28.752773 -8.645394 10.245325 
20.979774 -8.675361 -1.754676 
28.961258 -1.894507 13.930065 
-16.922192 8.014517 10.305725 
-21.910072 -3.356433 9.488602 
17.663498 15.213512 10.629466 
-13.989798 15.787007 -5.092192 
-19.043188 13.598364 0.575878 
27.219957 1.949734 2.025084 
-5.268248 27.492506 0.922001 
-25.559385 -10.003140 9.433504 
25.063889 -1.073648 9.240137 
19.997431 2.264392 12.448902 
-15.302170 23.277681 -0.447458 
3.013207 27.000771 5.438224 
0.644761 25.906557 11.333990 
-15.786851 26.014534 13.203144 
22.164915 -8.683419 3.974810 
-30.269033 -8.740812 -1.796998 
-13.659172 20.204466 3.877940 
26.127432 6.575294 12.151480 
29.125168 -3.379563 -0.204831 
18.124376 14.038753 -3.966618 
-29.316139 -4.871660 -0.394621 
-14.030848 15.853824 -3.919301 
11.275510 25.121672 -0.543763 
18.944818 6.645365 9.023684 
-3.444757 22.936811 13.888936 
8.581623 30.387991 4.744363 
24.439802 -0.842772 7.238527 
24.519053 1.778315 12.204617 
14.744323 19.814522 5.531663 
-20.716036 17.056471 -6.656264 
25.856745 1.509220 -0.580595 
-24.790066 -4.281455 12.609328 
-18.531370 0.532181 11.464364 
9.766026 22.965015 -0.533727 
-13.439804 26.985310 4.551021 
11.732747 23.956541 4.000261 
-21.380527 7.258177 -3.498467 
12.423910 15.135889 8.701689 
-19.094683 -1.339057 12.547533 
-3.731168 31.452890 14.054140 
-21.469696 -6.145319 5.712624 
-22.187693 -2.341402 7.442468 
-20.932196 13.301233 -0.110074 
-18.962875 1.772597 8.955709 
-14.340934 26.121599 15.213096 
18.915203 -0.396889 4.350222 
-24.576035 -13.897772 -4.875205 
17.453558 9.598204 -2.481797 
22.832623 13.194607 9.620104 
-11.048293 16.086943 -4.336443 
-25.574064 12.551380 6.751238 
-19.748846 14.190727 0.832003 
-15.478557 13.042134 10.070631 
-10.107611 25.365059 8.262004 
27.466082 -3.544517 1.685074 
20.608730 -3.015776 -1.051548 
-19.951958 -6.039504 12.587169 
21.270845 0.117334 9.594187 
12.693133 20.218094 -4.278186 
10.144712 30.161570 5.250889 
25.400383 6.037954 5.159787 
-24.085428 3.231782 -4.833951 
-0.187791 29.984411 3.147670 
-18.609007 6.142551 0.196632 
-11.337309 26.216091 -4.760219 
-21.717049 12.564897 3.023185 
-27.027393 -1.633088 0.171890 
-0.823829 21.377676 -4.534898 
16.131447 24.043262 14.786843 
6.635861 26.994736 8.166542 
-8.822232 31.330664 6.155030 
-18.730343 8.136284 5.481939 
-20.143724 -7.655210 -3.753176 
1.252748 31.381123 12.724692 
-22.863483 3.086233 2.718899 
5.209946 27.847464 -0.200970 
-24.703800 -12.685524 0.233993 
13.025993 13.161205 9.897367 
10.050344 30.291203 8.417474 
-30.496302 -5.020019 -0.636991 
-22.707376 4.685254 -4.799447 
18.096224 9.160876 -5.466278 
26.677948 -5.507732 5.515063 
-23.548203 -8.383804 3.433174 
-7.873742 26.673323 11.241808 
-1.954659 29.387505 11.147477 
-20.962994 -7.864494 14.324085 
-13.562922 19.610235 -1.674751 
-23.280994 3.975379 12.057856 
0.931859 22.695768 14.830138 
12.862892 21.043169 -3.028514 
-19.841396 -0.807476 7.034490 
22.434223 13.505983 5.894542 
-23.872383 -2.669901 -3.536523 
-23.774845 8.214601 7.613608 
8.045880 27.561386 9.965558 
19.124039 -8.259957 12.513831 
17.854626 21.313793 9.262746 
-17.128860 17.830692 12.406754 
29.720371 -8.507562 3.700462 
-11.846006 19.297857 -1.906181 
24.125383 -1.245989 4.713586 
-26.250963 -3.562472 2.888068 
-23.347189 9.983210 11.825894 
-10.101496 29.470997 12.478416 
8.125353 21.758486 -0.366160 
-20.456644 7.198082 9.732150 
-23.453424 -0.604402 3.559249 
26.731661 -3.691780 -1.152167 
22.943670 -1.725728 4.619769 
-10.571495 28.675755 14.428109 
18.720284 -1.785235 0.700200 
21.743807 11.826424 -4.565751 
19.138126 11.791999 -4.182223 
0.300248 29.971951 13.408378 
23.003233 -10.388168 11.190671 
14.568508 13.594104 6.163270 
-26.467678 7.508835 9.037395 
-28.942930 -1.707549 -1.592375 
-2.640421 27.594400 -4.241156 
4.455289 28.079073 -0.661023 
-21.865171 11.481222 -5.237450 
0.771212 31.018143 16.298994 
20.438549 -9.505385 1.936570 
-20.837324 20.994007 11.250665 
-28.907967 -11.351429 13.225869 
-27.135515 -6.180057 10.634688 
17.521597 -0.665932 10.758467 
-9.443775 27.023165 -4.780233 
-25.041430 9.034415 4.545763 
-11.359858 29.604599 7.469438 
17.495140 22.253286 10.150923 
-15.853413 8.961427 -2.541694 
7.533423 27.089075 -7.339072 
21.593060 8.169915 6.479098 
-15.665289 15.219390 2.208808 
-22.818029 15.417349 6.926323 
28.900126 -4.986553 3.293016 
6.579071 27.883404 0.292736 
-24.230892 -4.392810 -0.861763 
19.634428 -7.856352 7.165753 
27.370146 0.758886 0.857477 
14.423864 8.963589 10.601530 
-13.138502 18.377728 1.430720 
27.431572 -2.438957 11.789111 
-20.605946 4.317853 1.471243 
-22.005772 1.411206 3.675044 
18.624323 9.666716 4.434486 
11.172812 23.138031 -5.776010 
25.790295 7.233228 12.645309 
9.411730 20.754349 10.731246 
-20.890297 20.811451 12.902339 
25.853790 -9.849066 7.060369 
-16.330593 9.170527 15.262500 
26.656675 2.010991 9.358248 
18.699366 9.635345 9.231703 
-8.123917 18.220947 -5.573190 
1.986552 23.147476 -3.284427 
18.447027 6.583995 -1.837980 
23.253885 11.955304 -0.042538 
25.795799 -9.284742 12.577405 
-16.680399 7.902330 14.115030 
5.651507 27.579624 3.038220 
-17.786678 1.815149 -6.734598 
25.113432 -6.098999 10.484963 
-25.613976 -13.356830 4.720415 
25.389658 -2.931767 3.064772 
-9.444558 26.780167 -6.033132 
-13.459556 23.908060 10.611515 
-20.292360 14.932033 0.339699 
20.087997 18.346603 -1.619244 
20.649632 4.086301 5.448585 
-21.502941 6.567221 8.730632 
19.743332 17.236788 10.347119 
-19.516930 20.471661 6.335609 
26.312273 -11.391391 12.702929 
27.130617 4.567305 -1.501211 
3.851399 26.940006 5.344381 
-0.783753 27.179977 5.612135 
-25.866293 1.857716 -4.313751 
23.041433 4.386971 -4.331361 
4.962489 30.181847 13.724453 
-11.239849 25.055187 1.512110 
-22.490410 -11.976795 -5.098922 
-22.734402 1.048991 3.448639 
-12.008415 18.611742 0.935171 
-17.924225 3.392735 1.946834 
24.903002 -0.511099 4.384604 
-18.536390 0.516428 1.445536 
-23.672646 0.269203 -4.740646 
16.066883 7.300000 0.427058 
11.667134 28.498926 12.987110 
1.221183 32.135651 10.291319 
17.114273 3.452350 -2.222798 
-23.547926 9.130152 11.567226 
-22.423481 -5.876262 11.896828 
22.906639 7.366367 1.079162 
24.374397 -4.114814 1.025249 
16.640491 21.552265 9.619115 
-20.209311 15.746642 4.331668 
-26.337488 0.363434 3.416634 
-26.539631 -10.683627 8.371289 
0.615246 28.153971 4.668823 
20.778093 17.967905 10.763949 
-2.229734 30.441343 9.987780 
-28.271313 -3.263094 12.640942 
-13.259470 22.515703 8.588012 
16.627735 13.600265 6.412269 
-11.408944 29.909571 4.671916 
20.083328 -8.906217 -2.063187 
16.480362 7.691201 7.048336 
-28.780750 -1.973218 11.385809 
-7.171943 26.067402 -3.378733 
-15.927688 13.265382 -1.410519 
18.827221 15.971927 2.537197 
-28.588682 0.791753 6.276389 
-1.715359 31.408791 8.797076 
25.340904 -8.781334 10.474624 
14.042796 9.820755 -7.600543 
-18.262123 13.630808 7.972450 
19.239048 16.110447 10.549250 
5.661405 25.534382 8.975612 
18.528320 19.560337 -6.882162 
9.333998 23.177305 8.762972 
-9.866238 26.942753 3.058258 
16.282742 3.662048 8.669157 
23.526316 -6.074758 12.992481 
-16.815485 10.735504 -1.519563 
-20.661467 5.421211 -2.064923 
22.669613 12.864938 -0.177226 
3.044114 23.393185 12.187254 
-14.012516 21.167698 5.575806 
14.079961 16.424480 -2.762910 
-15.710551 21.508858 -2.711816 
-25.801271 9.909384 7.134189 
-11.983212 25.475090 -0.620636 
23.401258 -2.702267 12.286016 
-6.206857 24.970001 11.851791 
2.663387 27.718948 14.539832 
-14.890842 12.676606 15.448362 
24.415234 -3.459681 5.663392 
-21.612352 19.584145 13.087847 
-24.040577 -6.199146 3.623457 
-24.534260 -13.565434 -0.583229 
-24.290236 10.768584 11.490553 
-24.551922 8.640865 -2.743127 
9.261333 25.875450 7.838246 
-9.408172 27.078894 -3.871113 
19.430836 -7.126401 6.883736 
-21.999277 11.771255 3.333885 
-23.033323 16.184074 10.181789 
-31.389381 -7.210186 -4.641498 
5.302974 26.483795 8.520534 
-22.892715 -8.039166 3.758717 
-18.028511 0.468964 -4.937394 
14.759736 14.541036 -3.959895 
26.767054 2.413372 8.682655 
-1.558700 31.209124 5.454396 
23.277246 -10.422646 -2.674963 
-13.789328 25.039322 8.726677 
-29.506317 -9.830958 0.822165 
27.171747 -0.038816 -1.983017 
-16.586382 26.521383 6.326705 
-14.713545 14.190534 9.913523 
-20.801159 -6.127091 9.533265 
-23.954332 -10.368068 5.674303 
15.013760 6.538379 13.572283 
-13.064531 21.417580 11.979595 
-19.711216 25.328337 7.208655 
-8.866224 28.236280 8.939483 
-11.374743 22.691395 8.823110 
20.251778 -8.522622 1.846020 
16.080853 22.233923 -5.034596 
8.361632 25.347481 12.999411 
4.175739 25.289864 11.163066 
24.349791 1.261565 -3.942930 
23.691950 11.710752 9.846645 
-15.330104 21.265270 -3.730092 
-3.755606 28.682756 -0.334005 
27.191456 -0.742764 9.327712 
-14.039387 23.904804 -8.159992 
-9.359658 22.839640 -3.010287 
16.463526 18.985882 4.272519 
4.243665 31.051682 15.215856 
19.389313 6.637257 10.395762 
4.218674 25.491018 13.451547 
27.184402 -8.653706 11.957161 
27.926748 -0.740034 10.409904 
-22.649282 -2.340497 6.550618 
-30.461344 -3.900762 -6.087485 
19.162544 13.076363 4.601643 
19.299803 15.549474 0.498563 
4.696997 27.934792 2.559150 
5.075153 23.575991 -2.152442 
9.127566 27.216038 1.893213 
-17.813215 19.982025 7.183872 
20.100002 -2.977662 1.133458 
-10.044159 24.572636 7.953044 
-25.131088 9.290358 8.656692 
-21.534735 14.648557 -8.279906 
23.583790 11.557712 13.807224 
-12.983648 16.008686 15.616935 
-28.858257 4.397982 10.151019 
-23.634521 12.999625 3.976944 
-10.205613 25.346458 12.789392 
-13.012740 24.334673 -2.546710 
17.293640 24.051857 3.866085 
-24.668028 3.948509 12.201104 
15.692929 24.815851 13.935546 
-14.818520 17.851616 -3.294476 
19.470530 -2.361816 9.434853 
-19.592390 -0.303503 9.952220 
19.975348 3.694611 4.582246 
-8.944554 22.932653 -3.650980 
27.149500 -4.695364 -1.997983 
-23.323008 -12.413013 -1.829248 
26.142344 6.291868 -1.662281 
12.903036 27.550030 12.607414 
22.824980 12.779623 5.015094 
-28.180788 2.915478 -3.315352 
30.240337 -8.561593 2.696371 
8.323040 24.560814 12.470068 
26.278111 2.883162 5.635308 
9.250376 27.145319 0.987921 
24.547071 -0.582059 6.373272 
3.043931 29.600689 14.734298 
13.170406 22.896374 -3.618829 
19.250786 7.554898 10.700955 
-16.368675 5.685797 -7.193362 
-26.044035 -2.004277 3.488662 
-21.144550 -9.512165 2.242104 
10.570826 26.575287 6.235395 
-19.772127 0.527274 2.191310 
-13.265496 28.664574 9.758881 
-24.877808 11.785472 15.545115 
-11.080549 21.714937 -4.383451 
-20.774082 12.509109 10.456726 
23.790081 6.749045 11.635911 
7.507967 24.085909 -4.363047 
25.616001 -9.624450 11.897277 
23.309612 12.358777 13.052207 
-1.211329 31.788095 13.083814 
-19.719429 16.160666 4.924128 
27.410576 -4.141826 4.033179 
19.497019 13.755185 8.104727 
-11.594494 24.351751 1.280178 
12.141468 27.126987 5.169884 
-22.278984 -3.071952 8.515604 
-19.317326 -3.556112 -5.099275 
22.251938 -2.763644 5.876401 
11.397662 22.072325 4.566679 
27.572653 -2.024151 10.648390 
23.784338 5.775469 -1.103660 
-25.183243 -10.467806 5.082774 
-23.076035 5.648945 -2.980300 
-6.921472 27.355913 0.344885 
-19.484123 12.219680 9.819904 
-19.336395 22.025087 15.169103 
-31.424578 -8.587111 -5.529877 
14.450163 15.067365 8.564017 
21.865004 -2.211717 11.577803 
12.822125 19.589403 -2.972877 
-22.936560 8.451057 2.699560 
-3.376621 26.499855 8.276940 
4.788488 22.327206 13.213026 
20.204233 -3.997153 7.217973 
-6.859808 29.150486 5.614581 
29.926409 -5.823355 1.246709 
-9.773355 28.713758 15.309308 
-31.156910 -5.610921 -2.909399 
-18.535406 11.464732 9.920268 
23.522926 -1.460066 9.627913 
-26.699318 3.277654 -3.909694 
12.293710 24.432852 -9.352803 
25.404440 -12.401322 -1.550949 
14.150722 23.257593 -4.254958 
12.104618 20.249752 -2.872968 
14.298402 23.460514 3.707501 
-4.642515 24.815323 11.274101 
-21.880836 -8.054979 -2.573166 
-1.524293 21.430260 -4.217817 
-30.574007 -9.443792 12.196039 
1.418821 23.932306 -3.609775 
22.182867 -2.143029 7.276259 
-20.318171 18.165020 -2.478694 
-16.439716 11.195107 -0.043997 
6.619686 29.525347 4.336184 
25.552502 4.973001 -3.367030 
-28.865486 0.430496 -1.995999 
-29.622162 2.626635 14.207521 
-19.767433 -5.085095 12.443157 
-17.489407 6.922785 2.025402 
21.933825 7.886150 -3.845667 
26.963264 5.622838 -3.503735 
-29.304558 -9.421348 6.349638 
28.404163 0.107440 12.455231 
9.931723 23.951656 1.346174 
-27.433010 -4.886212 -2.669251 
11.354830 19.095779 -3.523247 
26.097385 2.121491 5.074484 
28.889818 -8.022637 8.747443 
17.382622 0.982130 -3.629613 
-3.207430 29.506580 3.567195 
-20.513889 3.981835 -4.559115 
18.325645 22.490065 7.306796 
1.174521 25.001694 -4.011075 
8.423041 28.227728 6.217155 
1.049307 28.501125 -4.490188 
9.221025 27.196392 -0.807647 
25.433279 6.874019 7.370005 
12.457894 24.739506 -5.153367 
-31.322994 -2.922022 12.294880 
-3.144258 30.569918 12.990544 
-26.057085 3.300269 4.947936 
8.544345 19.813601 -3.123167 
9.829377 18.803566 -2.751833 
25.005453 -1.289677 0.911767 
12.347605 23.160940 -5.742250 
-21.631083 9.028785 4.428920 
25.420784 -7.997852 5.212109 
-11.265000 26.360493 6.753428 
1.832684 24.910944 13.210285 
-3.819481 28.399052 -3.922848 
-24.142448 8.947076 10.574943 
-1.073152 25.203732 0.469623 
-17.697224 25.269154 12.517391 
22.520075 13.099832 7.774138 
17.119913 13.867453 -1.325499 
28.472055 -0.878502 -0.938985 
-29.891218 -7.291010 4.912213 
17.918470 6.477217 0.381464 
13.110352 18.855640 -0.691806 
-24.069576 9.173242 -0.702015 
24.539665 -6.451430 13.120001 
18.948765 -8.231084 10.791763 
23.756870 -3.816103 -1.510121 
19.717886 14.473578 5.702105 
-18.690182 0.423006 9.982012 
-7.386965 27.649492 -3.856237 
-7.416006 19.174337 -4.548660 
14.054529 23.874216 -2.893955 
-19.429596 26.075256 7.295060 
22.781517 -10.439813 4.786023 
21.216209 -2.312063 0.293342 
22.061026 -1.811372 -3.366099 
-27.735258 5.247222 11.771024 
-6.696418 27.343626 13.930308 
-7.386472 27.686537 13.783567 
19.483677 -4.345151 10.670290 
-21.184059 -3.445589 8.442803 
29.038372 -12.457261 0.358547 
-21.994059 14.596354 4.741838 
-25.625443 -11.048269 -3.409528 
-16.872032 21.355392 13.671326 
21.276865 15.341526 -6.062479 
28.786850 -3.030698 10.032826 
12.072114 28.480650 9.958346 
14.035061 23.914377 5.782602 
20.361330 18.373892 5.447353 
-21.999605 -9.078457 11.020039 
-0.121465 27.300034 2.130287 
-14.878540 24.085114 -1.046592 
-30.456879 -2.660609 5.523161 
-12.681332 21.812422 8.640324 
17.451653 16.752316 3.258552 
-24.305979 10.122068 -6.865904 
8.103718 21.701099 -4.801458 
20.632887 -4.472603 5.897964 
24.358963 3.145411 4.855095 
7.089975 26.368450 5.794162 
-30.546307 -8.744092 6.984919 
1.602855 28.967342 4.636558 
21.621151 -10.950308 4.860853 
-24.312298 9.416463 0.016901 
-16.273176 15.763525 9.400151 
21.271149 7.627172 7.722946 
-23.616858 1.811564 4.563509 
-14.960896 16.160223 5.332742 
20.929356 7.329898 1.306140 
-7.518041 29.272631 16.319792 
-31.334162 -6.749491 7.865931 
-25.854147 -11.967755 4.958662 
28.902203 -11.703992 -0.269016 
17.841419 3.183752 11.878598 
13.326856 18.974884 4.520121 
14.081617 14.935558 -3.633866 
19.059555 14.026538 7.187071 
28.172272 -2.781257 11.105332 
24.311035 5.291877 3.097563 
-21.074715 5.633590 11.171937 
-0.370416 20.680891 -7.158473 
5.834678 27.538206 10.683106 
5.365684 25.577665 3.440425 
-13.775165 26.930460 5.345472 
-29.024628 4.696088 12.534122 
13.849277 18.577379 -3.091707 
24.783371 -1.980895 3.370953 
-28.296679 -6.843813 4.516106 
-5.941155 23.040401 -2.206586 
10.594688 24.549671 11.238168 
-4.697858 31.350046 14.037234 
-22.612675 -7.494048 11.820081 
-7.995972 31.752478 7.982960 
-6.615661 24.446974 2.120529 
20.349874 18.337618 13.307028 
25.334585 5.246531 5.071611 
23.359716 -9.181557 12.417993 
15.122349 17.069437 -2.927424 
20.635723 -10.393269 9.968259 
-15.484449 21.946394 2.789918 
-30.665178 -5.441001 6.233372 
27.290779 4.130170 -2.443955 
21.381184 7.635627 -0.799349 
-21.276184 1.906636 -5.071232 
-15.154828 16.232431 -5.558827 
-12.660152 19.447622 -4.301656 
-16.627230 22.147348 13.829974 
23.182255 12.528315 5.801257 
-4.827672 24.360558 -0.453643 
-25.149019 5.686131 1.126922 
16.003992 21.420753 12.253502 
-26.002598 -13.932558 0.090876 
23.138819 -8.731682 5.647090 
-23.516157 -3.229968 5.434517 
20.399769 16.095818 5.270402 
19.365387 3.084309 12.378202 
18.465786 15.088827 10.372963 
17.758448 21.585093 15.486721 
7.407079 23.917906 -1.801708 
-1.762147 31.517635 7.681089 
-17.074018 19.584305 -2.850564 
-23.679144 -11.474048 14.151204 
22.842447 -1.254699 5.745112 
12.683494 21.985603 8.258540 
16.219238 21.662283 4.997815 
-8.880113 21.608351 -0.116061 
3.905811 22.383963 -1.460575 
-16.737595 14.719301 -5.441813 
-18.305279 24.463747 13.389801 
-20.089434 22.783985 10.583297 
-15.209697 24.108694 -3.944289 
-19.409887 19.578934 -5.074614 
16.545067 1.336115 9.406052 
-28.530563 1.628467 -5.874890 
22.458834 13.463776 -5.126905 
15.355013 6.772644 11.119190 
-18.433809 26.237289 9.282784 
5.396817 30.103806 12.859210 
28.083498 -1.973904 8.990450 
22.473692 -12.673868 -3.059815 
20.536894 13.565280 8.437074 
21.474716 -2.944271 2.128248 
-16.540993 9.288887 -1.716487 
16.134815 18.284758 -5.465558 
-22.615313 0.185928 2.486473 
16.561794 23.269751 12.419513 
0.505213 24.901114 -2.045836 
5.732068 23.534725 -1.494191 
11.560663 25.310486 -3.767748 
-12.541788 22.579121 11.744067 
-31.305035 -8.196997 12.510285 
-7.365866 25.908661 11.064770 
-22.735264 13.957603 7.181953 
25.170858 3.204339 4.575380 
-27.867035 0.842564 -3.098838 
-27.159555 4.207644 -7.047574 
5.283636 29.350359 13.630257 
-18.723726 8.149811 2.370586 
-26.044123 -8.440402 5.185261 
-19.601131 1.416161 2.182294 
-26.407318 -4.310045 4.580208 
-20.575563 -7.739501 10.307809 
17.318743 21.056194 -5.762599 
-9.999407 16.406698 -5.998260 
-17.526436 10.341493 -3.543959 
6.679872 24.179470 -2.175300 
19.363306 0.458729 4.234089 
16.547571 1.806676 10.272352 
17.569002 12.126346 7.956088 
23.742317 7.866342 -1.273058 
-16.178646 14.586855 11.710349 
18.983694 4.408506 4.464135 
-10.036079 17.506073 -3.209048 
28.064289 0.929147 -0.491319 
21.346436 -9.427257 4.156698 
-26.976007 -7.073254 6.566532 
-19.275343 26.003302 6.462083 
3.322409 31.803377 7.733314 
-29.921694 -7.272777 3.160598 
20.332085 14.348282 4.734183 
-15.531268 22.983511 9.301211 
21.776949 11.979465 2.265281 
-26.843393 5.239292 -3.102295 
27.097313 5.199257 -5.009370 
28.954002 -9.689893 -1.100485 
-21.573420 -2.350312 3.710297 
-16.350857 10.615019 -0.561293 
-17.683382 15.551118 3.317134 
-13.741149 20.012241 8.753755 
18.960171 4.133857 -3.153296 
-29.217875 -2.859254 5.135369 
-18.268625 5.195319 -0.466659 
-15.837523 15.487371 4.564353 
1.858258 30.859663 4.410753 
9.667786 27.717226 5.887791 
-10.009654 23.374409 2.779906 
12.497429 25.142317 0.048417 
-12.332012 16.075960 -2.384623 
-18.433304 14.474489 3.114887 
13.131693 16.218292 -3.371363 
-5.962037 26.315723 4.693717 
-14.609565 9.470507 -7.640872 
-23.274363 -13.239069 -4.029371 
-17.620867 14.202174 2.129303 
17.551533 5.341978 1.582598 
19.698931 7.391778 8.092162 
24.354757 -2.090399 5.268568 
-13.877990 11.587763 -5.446997 
28.500463 -0.778487 11.724463 
28.397476 -2.539050 -0.022198 
6.638198 21.128126 13.708274 
-10.338614 22.368595 -0.659967 
-15.476264 19.354074 0.687269 
-5.472372 19.706629 -6.072757 
26.789839 -1.775410 5.133242 
-14.436115 21.672663 -4.700146 
28.734718 1.420333 -4.412508 
22.312296 8.308072 6.724455 
19.032848 -3.836432 9.325861 
11.410357 18.599747 -2.251193 
-17.062695 19.954676 1.248366 
-2.331066 28.557262 -0.269027 
-4.487504 30.352999 14.427245 
-27.949390 -5.990165 13.012011 
-26.574162 -13.776203 -0.468141 
-9.205774 24.526068 -1.938218 
-18.483997 1.666710 -2.674495 
-26.544380 -1.495908 2.692661 
-22.399136 5.343120 3.731082 
18.305614 -5.098581 10.442603 
13.445227 16.941801 -4.090095 
5.722159 30.552700 15.472350 
-30.547323 -8.182598 2.732139 
18.615749 10.620224 3.139829 
18.948835 14.405572 -5.418803 
3.998249 27.106239 -1.922892 
-20.833609 -3.374741 0.996207 
-27.131155 2.812111 11.987932 
18.480865 -7.240528 11.377305 
-18.083286 22.698044 16.088984 
19.127214 15.147883 2.932559 
19.904367 -2.672419 -0.961604 
-28.367605 -11.258755 11.674245 
-21.354944 0.240120 2.761989 
-12.032397 22.212008 8.776912 
7.488933 26.681726 -8.407984 
28.511007 -2.855305 6.467252 
-17.002077 21.991707 -6.757921 
15.340117 20.991190 5.209085 
-27.229382 -7.635468 10.395150 
5.194463 24.548767 9.926844 
18.148647 10.074797 2.431092 
17.109941 11.528681 11.385071 
21.232065 -10.462807 -0.714946 
-1.252013 22.933617 14.542407 
6.955056 28.628574 6.879773 
-22.883181 14.254155 5.046797 
-17.734318 4.514231 12.464192 
27.803699 -7.477009 12.800078 
-11.326934 18.210640 -2.768490 
17.222607 -1.407751 13.276792 
19.822626 14.013122 7.435240 
-21.972446 -12.151230 -1.461215 
-1.611680 25.086147 2.087953 
-13.987146 14.695861 11.348431 
-6.017960 23.647184 -2.825264 
16.690794 6.519008 -1.793347 
-17.108509 21.066551 5.030216 
21.787989 14.793342 15.024632 
24.117748 -10.687716 5.916134 
0.853417 30.561207 13.812194 
12.872772 19.869780 8.149920 
16.167311 4.958545 -5.889986 
16.165602 4.394575 10.545476 
17.613352 14.270928 3.765533 
-14.281653 19.157497 -1.665457 
-25.691422 10.757651 13.766274 
-29.379442 -4.494788 5.404845 
-27.321844 -8.755595 0.066124 
-28.972105 2.901760 10.419452 
-19.122911 13.658962 8.158175 
20.151979 15.491196 -4.262033 
8.984592 23.235359 0.410865 
-30.955748 -3.196464 7.094193 
6.442726 30.344929 10.213600 
-22.713310 17.365187 10.150016 
20.855825 3.363606 5.262872 
-25.611244 -0.351858 4.561531 
-2.291716 24.043680 11.608753 
-6.308645 18.897112 -7.519052 
-5.921323 22.559025 13.267544 
17.527267 25.323053 6.399982 
-30.028862 1.695218 13.266648 
-15.196301 23.400826 -7.435295 
28.938158 -4.148726 8.670295 
-14.207615 22.583033 7.006423 
-25.425781 6.965561 10.242793 
-8.227782 30.347044 2.973350 
-30.942165 -3.262730 10.507876 
-19.922796 18.390108 1.100314 
18.790529 14.288294 -4.545561 
22.829737 7.188364 11.043567 
-12.880186 17.968040 11.720720 
12.882299 19.730406 9.478096 
27.262650 -5.770846 5.999460 
-7.226701 19.598082 -3.828160 
-12.855774 25.500490 -3.262848 
15.132924 13.601694 5.273053 
25.952333 6.928109 -3.944156 
19.352287 12.136931 11.598630 
24.178421 -13.255953 1.454820 
-19.378138 23.699945 5.209322 
12.259995 15.174264 7.399536 
-19.013502 4.457930 1.666607 
-28.106697 5.823653 10.312811 
-20.984898 -9.752266 -4.574778 
28.466017 -7.401516 1.032328 
-21.467579 -3.927845 10.559633 
14.496119 25.732468 14.710922 
-25.604906 -2.863421 -2.330384 
16.032957 11.674824 9.469703 
-8.898738 26.815407 -3.311663 
15.481387 9.883636 -2.504830 
2.285783 27.620214 -4.512419 
-26.600908 -9.894872 11.546613 
-14.770484 19.114597 0.353167 
22.813238 9.565737 0.963257 
16.540632 15.641030 -2.618920 
-20.935743 14.330265 -1.629111 
19.498861 17.191650 2.851707 
13.512733 23.211533 3.827187 
-15.249634 26.171183 9.874426 
9.993313 23.724316 2.279118 
16.420563 1.768259 7.657334 
-26.789938 -1.782656 -2.846478 
27.157536 0.622456 9.840144 
24.839582 6.206285 11.581198 
-28.103550 -2.103604 12.251878 
-18.134504 2.410216 12.123682 
-8.803528 17.141460 -7.320248 
-12.746582 29.146969 9.044351 
-30.407541 -4.100230 5.296941 
7.939574 25.007448 -1.963098 
11.004479 27.360569 11.267483 
1.357319 27.273294 7.712897 
-18.660295 3.215132 7.306913 
-21.360022 -7.490890 6.870178 
-23.116505 17.249395 9.346573 
10.770686 23.126329 8.007745 
-31.026609 -9.349390 1.973354 
-22.354044 18.130604 4.676140 
-16.305956 15.775593 4.007404 
15.918978 5.593302 10.823677 
21.017290 0.725513 4.920459 
-17.994802 23.966644 4.354057 
-21.179657 -8.433409 9.238753 
-14.126720 13.608645 -2.263761 
20.626005 4.983513 5.501331 
-5.708082 21.742508 -1.676602 
-1.366719 30.864822 7.856787 
27.924562 -13.092753 -4.820829 
-21.811745 -11.430905 3.747105 
-18.827532 24.174007 4.392474 
18.984373 16.570225 8.712698 
-23.489328 -7.531851 3.659683 
20.728088 16.789013 -4.559787 
15.539437 7.841836 -3.416936 
5.822507 31.485174 7.105535 
-7.935942 25.239769 3.406240 
1.744248 32.128998 11.160832 
28.915882 -11.834388 1.489332 
19.597240 12.281736 -3.613830 
-8.186440 31.679739 7.218887 
0.710179 28.824224 5.100273 
29.412628 -5.470777 2.794023 
8.870810 27.489695 -0.139460 
-25.266401 -11.058290 8.079529 
-25.433958 10.838714 4.764747 
-28.423378 -13.384004 2.692213 
-29.950748 -6.379528 2.746957 
12.751585 16.142614 -2.295046 
-6.529933 28.204769 14.207294 
3.591661 32.062328 10.055902 
6.084029 31.275206 9.394935 
-30.336664 -8.843884 8.271584 
21.874706 -1.125887 -3.728731 
17.918022 11.488394 11.587433 
15.537992 9.345436 4.990634 
4.425290 25.711792 -0.255481 
-24.142063 8.656813 9.728094 
14.727784 15.715873 -2.698174 
-20.736364 -8.799694 -5.473791 
-30.562029 -8.442763 8.896427 
29.028353 -5.062867 8.389839 
22.381643 -6.906261 12.677475 
11.581779 16.819149 8.851201 
-31.250082 -4.604921 11.127317 
-5.110038 28.102854 -1.701666 
27.902885 -1.419587 9.901961 
-18.880869 -0.677872 -0.617386 
12.536679 23.788326 -3.659015 
-25.298403 -13.673573 -0.762799 
-16.798513 8.266217 -2.143189 
27.139038 -7.210854 -2.414033 
-21.552654 -6.863183 4.040679 
22.205288 13.128844 -0.813963 
-18.503067 3.164081 -2.174386 
-15.061636 14.848650 10.524716 
27.031841 -12.498950 3.830419 
-27.439550 0.074037 11.207606 
-23.013966 7.555795 6.173409 
28.138254 0.988476 14.112932 
-18.768728 25.835258 9.885567 
0.617306 20.955570 -5.835052 
10.903235 28.945354 12.907948 
-6.852792 26.529127 5.182798 
-18.890308 18.063969 -5.294296 
-21.183472 7.135864 8.023492 
-13.507342 24.994425 -2.659585 
13.059544 14.361156 7.377896 
0.724307 25.081020 -0.412400 
15.147371 17.165939 11.015158 
-8.709925 23.842813 10.925815 
19.086889 18.939749 -6.258877 
19.904789 11.720673 -4.710938 
-20.651182 -1.708409 7.982852 
-10.922672 22.469690 -4.128941 
1.340613 26.308434 -1.966161 
7.588374 26.765364 9.674006 
23.391754 11.375433 -0.604475 
10.158154 24.393782 7.698506 
-24.152458 -11.812355 10.128774 
5.975120 20.714540 15.611576 
-6.146719 25.524820 9.105324 
-20.280085 -6.590432 10.044573 
-11.896968 24.210482 8.874612 
-10.571549 24.106628 -0.136530 
18.316542 7.076496 -4.782559 
1.591455 25.242754 10.484288 
-21.385345 11.459533 9.519112 
-13.756410 22.639633 7.701300 
9.287000 19.293886 13.009566 
10.847101 30.014851 8.460868 
-20.662001 -9.506358 -2.193319 
10.244643 29.572208 10.172311 
-26.225210 9.148336 15.409274 
-16.130825 10.642415 1.789170 
14.620046 8.079395 11.574855 
13.423868 19.840736 -2.524658 
12.686491 27.176483 14.957750 
-20.195810 -6.735706 -5.719042 
-1.373610 28.128778 -5.915005 
16.637548 13.791210 -2.071762 
-19.953720 -6.414569 -2.805417 
26.492149 5.723422 -1.114382 
-15.289254 12.026946 -1.938902 
19.345667 18.100622 10.716340 
-2.632998 26.042953 -4.711941 
20.529381 13.917293 0.862884 
16.672779 21.109983 -8.942906 
21.326979 11.844903 -2.448551 
-28.118599 0.020072 7.167789 
5.470558 31.601496 10.191035 
17.840302 13.657763 2.150107 
-25.135857 -3.508963 2.712932 
3.923104 30.794249 4.336987 
-21.253395 20.374807 12.039606 
-18.178493 26.662016 8.387329 
14.233521 14.160907 -0.224921 
-26.942863 -1.474379 1.457119 
-28.667271 -1.045225 8.022656 
15.511612 16.330824 9.032922 
-22.641712 -2.452143 -3.855654 
5.433604 22.256769 -3.039773 
-21.129282 -8.958520 9.909142 
22.103453 -0.116495 3.688782 
-6.890944 31.912916 10.706089 
-16.779438 11.874450 0.542831 
-29.701220 -5.019592 0.595302 
12.070050 15.800634 6.106620 
25.285097 -11.203423 10.920261 
20.280258 6.967013 -0.999870 
28.397520 2.535303 -3.940106 
-22.770231 11.896029 9.867583 
19.393553 -5.289640 -5.778363 
-25.339500 11.559785 12.653599 
13.920601 23.962902 -2.121907 
8.240324 27.831282 0.557496 
19.616150 19.613882 13.089639 
30.952835 -6.879104 0.028752 
8.232216 26.248812 10.140338 
-18.831858 0.651115 14.795951 
4.634441 28.073893 4.834716 
13.346832 18.427223 3.735620 
20.741201 -1.988138 3.294781 
-13.164378 25.039621 0.704012 
-23.095009 16.103785 7.262700 
-17.195202 16.094305 3.952786 
16.102009 12.946756 6.119667 
-12.395480 16.808687 -1.596020 
-1.837827 26.677076 4.717980 
22.545681 4.171995 5.980136 
26.617426 3.875225 8.149035 
-23.452536 -1.664359 10.494401 
-20.884083 12.878490 9.539474 
-19.535728 -4.532841 -3.910809 
-24.747189 9.291565 -6.690311 
19.972250 -5.006279 2.990248 
30.513901 -4.812873 -3.455469 
-25.395769 -9.324721 -0.379556 
-15.391488 12.683509 -1.510892 
14.439966 17.760664 -2.733822 
14.287139 17.474911 0.525209 
-8.087998 31.413645 5.452802 
-12.972253 26.236685 4.669101 
-15.879461 7.882072 -3.732744 
31.102062 -7.021809 -1.783770 
-2.951643 32.001732 8.588284 
-25.970755 -4.306092 -1.397066 
24.606781 1.775391 4.394808 
20.996029 3.883529 -4.590764 
-10.924828 25.397432 10.023314 
-23.130808 -1.431816 3.855624 
-23.187891 7.604821 7.162876 
21.384691 -9.981562 -1.908785 
-15.885951 14.640738 -1.809963 
14.067525 12.376528 8.737680 
-21.126947 -4.640802 9.809406 
19.030832 -2.879350 -0.843839 
-17.661568 19.447681 -3.699316 
13.776988 18.993881 0.813521 
-26.978193 4.217290 0.496627 
19.534256 -4.645823 7.738344 
26.956543 -10.364098 -1.992286 
-14.474009 23.266150 3.503668 
29.599394 -6.627371 3.190488 
21.946161 -2.170866 9.616689 
-2.358519 27.306986 6.924564 
-14.452254 24.331146 1.520669 
-4.551747 32.162899 9.122234 
12.514990 17.222738 3.494719 
-16.567041 19.488258 7.364110 
18.774549 7.015100 2.090193 
-7.033148 24.836720 9.438634 
-17.144184 23.561821 13.796031 
-19.608980 19.020826 5.030641 
-31.186577 -5.732380 7.909342 
17.406565 21.970438 11.845536 
0.474496 32.014793 9.616504 
-31.570955 -6.725982 12.856331 
-21.373526 -11.005430 0.939684 
-27.953442 2.498016 -1.066096 
15.474762 15.287648 2.882770 
-17.961399 13.596570 -1.413223 
-13.979232 24.809502 6.279683 
9.265480 22.245945 -0.542378 
1.813544 29.277157 3.586556 
-3.459324 26.311098 13.404224 
-28.599773 -14.034753 0.213615 
19.572422 6.563118 5.479987 
18.310598 7.820370 5.102576 
-8.083920 25.337856 -4.469619 
17.696150 1.197727 0.363947 
-19.104303 10.659392 -5.777380 
-0.585653 31.879253 11.595749 
-13.822591 24.797440 1.734246 
18.375271 17.357918 1.810009 
-23.044718 17.460663 6.338637 
10.146309 29.231804 13.503337 
-7.870963 29.101538 12.961998 
-0.132949 23.230793 13.558712 
-26.103525 5.465921 4.288957 
-1.701587 26.179024 8.511655 
22.573170 7.352872 8.347731 
28.855911 -3.959651 7.813453 
-25.318298 11.420870 13.943347 
-8.447917 26.092037 9.690685 
-26.418665 -1.351622 5.539623 
24.337648 10.065100 13.592830 
11.830920 16.882694 7.843387 
13.439645 22.454252 -5.546378 
-0.363265 29.536108 11.681520 
24.611164 -9.221918 5.925874 
-4.144358 26.868851 7.909129 
-22.828495 13.884329 4.370637 
21.828222 -11.768123 -0.034937 
19.021399 19.115725 -5.101380 
6.774709 28.110868 8.239488 
-9.772852 25.089048 5.363908 
-26.874931 -4.280425 5.807715 
2.233379 31.855106 12.221618 
-19.546707 4.713091 5.568457 
2.553603 24.688259 11.995090 
-19.568438 22.345514 6.592672 
-6.873500 21.296032 15.838273 
-18.705118 7.497696 8.023749 
-27.465973 7.824490 5.642541 
-26.368906 -0.702504 -3.556632 
2.134417 26.111557 -2.346355 
11.582758 22.002380 9.576154 
-2.256160 28.784212 8.913940 
13.909916 26.236567 14.763673 
-9.973290 26.952526 -0.477496 
-18.380737 10.607524 3.459268 
23.099640 -11.542580 9.948956 
-18.083380 8.694457 5.491927 
-10.729637 26.293612 13.063974 
-17.497280 7.329244 -2.748240 
15.265185 24.438160 11.408598 
17.141651 13.925250 8.108833 
-30.950741 -6.158086 -0.018724 
27.630304 3.108370 -0.692105 
7.401443 27.465475 -3.194720 
21.033710 4.825797 -4.459887 
-19.765436 6.131348 1.309082 
9.954587 29.261923 10.928887 
-27.204359 7.701132 11.276525 
5.368900 24.151987 1.177401 
19.254013 10.135137 5.150118 
-1.495017 28.417006 3.290996 
20.279575 7.404622 -0.349055 
-8.373848 23.457129 1.833654 
-25.437096 -4.078050 4.853055 
12.944276 12.387734 15.014682 
16.704876 21.809721 12.162581 
-4.756675 20.641893 -4.407525 
20.343163 2.810562 4.797434 
-5.754709 31.436272 4.993065 
-20.869959 10.234409 -2.480125 
-12.267612 20.032766 10.524173 
-25.578363 10.829999 9.266297 
-30.465029 -1.769802 10.814748 
-23.552395 2.381455 12.057242 
22.348507 6.664726 5.636074 
-1.323464 25.507998 2.834336 
16.648666 12.207075 1.355495 
-16.881712 19.362160 12.329956 
-18.007870 3.306081 -0.951509 
12.145103 28.094435 6.139668 
-18.388927 20.078154 0.001803 
-2.479402 31.452700 10.694815 
25.558474 0.065535 8.113150 
-22.654678 18.982969 9.196750 
23.399015 9.955943 -3.280530 
-26.657852 -8.155193 4.727288 
31.011387 -8.522738 -4.190756 
12.791323 27.360611 14.103159 
-23.114223 -5.720238 -2.211932 
-5.503456 20.032036 -4.978557 
-26.588179 -9.746652 -3.456071 
12.580815 13.024919 12.639380 
17.522713 5.247352 9.757687 
22.115934 9.781240 3.618208 
7.968033 23.264473 1.299536 
23.702061 -3.678118 5.271107 
-12.593361 23.714575 7.839130 
23.546816 10.486312 -1.357875 
-20.108078 -7.504260 -2.951602 
-19.669640 -3.189101 14.581313 
11.299346 16.219105 10.341418 
-16.962284 9.355788 -3.100792 
-7.992472 28.079948 3.268335 
-7.774715 26.920763 12.558156 
-31.254503 -9.637084 1.235192 
16.241444 10.963086 2.442629 
21.055597 12.572341 2.470587 
17.427103 22.138079 10.949749 
-17.838333 4.059659 -1.515948 
20.387644 4.938560 -3.795229 
23.824249 10.674002 14.750467 
18.597301 -1.996945 9.406481 
21.489691 14.283097 -8.112761 
9.685985 25.709473 5.419036 
4.473082 31.883904 11.134876 
-8.045744 26.113493 8.475973 
17.184391 0.810645 11.200327 
9.163592 24.671680 9.384727 
-21.341787 4.248230 1.707557 
13.507506 10.857934 -7.726099 
-25.283007 -6.709467 12.808304 
19.943249 -2.643810 0.233525 
17.374325 -1.347635 14.135832 
-2.784555 26.108034 2.758578 
-22.877768 15.917327 5.833288 
-27.816906 1.173026 3.679837 
-23.589729 -10.358634 4.047070 
-7.360005 31.817318 7.544706 
-11.115439 29.880175 6.671860 
-23.124882 12.440907 10.754276 
3.811280 28.506184 3.803303 
14.111178 14.546962 0.852415 
-5.442476 19.403841 -7.333339 
18.944622 13.475921 8.658316 
-8.863893 28.959097 4.406929 
10.262652 23.684362 -0.507083 
-26.249310 -12.253923 0.509078 
5.238629 27.135962 3.912153 
-27.116604 -9.287070 5.704882 
-8.574402 26.797188 8.245190 
30.245674 -3.858035 -4.593436 
-20.873857 6.635545 -0.934485 
21.964817 11.049164 11.506827 
14.395202 19.401680 -2.236794 
-19.584860 10.281183 3.209230 
-1.694204 27.720472 7.500213 
18.545351 20.403625 15.405051 
4.877979 26.704865 2.186289 
-11.204679 25.898220 3.478092 
3.996613 21.641081 15.695998 
-17.341791 7.835533 -3.667341 
3.077380 22.799292 -2.258487 
2.248693 27.354664 7.933975 
20.501549 16.076073 6.934752 
2.217968 28.184799 4.713613 
16.244970 8.004317 10.232922 
-12.254928 25.939905 10.459373 
-16.666529 19.127356 3.233694 
7.202631 30.089994 15.295256 
-3.095006 23.546368 -0.047001 
17.000441 3.500256 11.502834 
-19.753321 2.964120 5.094203 
6.239892 29.464188 10.670263 
26.510235 5.769008 12.395350 
-6.234301 27.262600 -6.818212 
23.055426 1.656605 -4.364295 
15.891691 12.466208 4.507233 
-16.470154 19.772936 2.055103 
-1.940136 28.343960 10.805302 
16.825377 17.536940 -6.590926 
-11.081215 30.054232 5.425241 
28.444475 -2.576504 7.848758 
-21.938213 -1.567221 -4.314152 
10.101136 26.968151 -3.770914 
25.554976 4.552724 2.140280 
19.505983 -8.353565 8.132099 
15.080210 11.836846 7.521338 
-14.074585 24.530703 -6.118289 
15.434456 11.667693 -0.598876 
13.123643 14.346554 6.569076 
14.945042 23.472433 -4.660270 
18.827475 7.505153 6.361789 
21.694305 -11.403042 -4.189396 
-19.730524 7.213415 8.865485 
13.310825 26.723967 14.823617 
-1.445927 26.768124 -9.671466 
22.202156 -3.964131 3.535985 
20.377556 -7.431534 -0.352363 
-21.362186 -2.107121 7.601003 
-23.755932 10.190768 9.757221 
-19.710138 16.296612 -3.834415 
5.373264 28.037907 13.379213 
-20.689976 12.222137 11.187053 
-23.473108 12.216009 1.027255 
-16.410315 24.219227 12.837392 
17.406166 10.622875 -4.035661 
26.461552 -5.772852 -2.516454 
19.784626 5.180305 -2.887465 
-0.442396 27.163401 8.651057 
21.914991 -7.612064 12.432634 
-8.999603 24.209707 9.097795 
-19.954563 19.004124 -2.295390 
22.301556 -3.329096 -0.494730 
17.391733 13.720617 6.271140 
-22.775846 13.141282 4.141798 
21.700304 -10.551773 8.213432 
-20.155136 -6.824833 11.406000 
-23.176886 16.183193 13.861734 
-27.542868 6.539286 9.555439 
-7.185260 27.425320 10.095288 
14.718635 16.429008 10.938041 
10.573975 19.046606 -3.839316 
-5.296831 26.563604 13.844187 
-24.347891 -10.173699 11.184740 
-4.576019 19.850786 -7.125312 
-16.743826 22.007225 -3.407050 
27.823317 -2.572760 0.501152 
-17.652679 25.385841 4.828435 
-14.223665 25.794973 9.746810 
-14.734337 15.331110 7.844805 
13.819553 10.089781 11.833308 
16.213156 15.498939 2.968264 
19.219156 14.450921 -3.778916 
25.427616 7.863441 13.465762 
16.640467 15.449362 10.858105 
20.190786 -9.604126 9.854360 
24.474060 -0.690058 10.472792 
-25.229887 7.958502 -3.571875 
24.905510 5.988760 -2.859648 
-22.079628 4.817401 2.392743 
-26.961378 -5.907215 -3.125945 
4.079246 28.694778 11.845764 
11.100767 26.145468 10.015633 
19.596685 13.973725 0.192808 
18.017120 -5.387726 12.285914 
-0.261337 31.512194 9.852304 
-21.846134 -7.042182 5.521329 
17.999899 14.461944 9.230278 
1.657687 30.998283 16.284552 
11.469571 27.201178 12.707620 
-13.981528 16.052835 0.349063 
21.716721 8.713759 10.265258 
-6.018530 23.733959 0.467376 
6.681554 27.034346 -3.486072 
-23.253866 16.600803 8.050260 
25.187593 8.344627 -4.156603 
18.943609 -4.045208 -2.945518 
28.413172 -8.613179 9.605010 
30.475824 -4.679032 -2.502985 
0.900933 28.588221 -3.170509 
-8.448401 30.223934 10.748302 
-8.130411 27.302853 -2.211740 
-21.764080 -3.695970 0.357515 
-5.985337 29.101343 14.434079 
-29.988485 1.677766 14.109160 
-3.092690 21.123920 -4.092787 
17.273817 13.834120 5.257773 
-4.270695 29.255226 5.659435 
-19.919512 13.987206 7.145173 
18.920589 -3.296922 -6.018001 
-12.537999 27.426992 14.751109 
-22.817993 2.951364 9.578904 
-27.892843 -0.018941 8.226789 
-18.656172 8.587340 4.783041 
15.551363 22.610928 -8.006025 
18.222610 20.423140 4.501787 
-17.543756 11.978542 -1.032562 
12.195648 24.083261 3.327519 
-25.227844 -9.999966 -3.671309 
-16.953667 25.913486 5.717123 
19.639910 4.585852 12.378334 
10.188299 24.625410 -2.469882 
-16.261772 13.583768 -3.113529 
-23.915493 -12.000666 4.400262 
11.465073 23.671091 6.810506 
-20.375895 7.662886 5.118604 
-18.307047 26.811373 7.623893 
-22.001982 19.376802 11.540106 
-20.883827 20.514238 10.052671 
22.300947 0.451064 2.909473 
5.980081 30.037548 11.428370 
-20.134014 -2.744865 -0.396282 
1.683841 25.839895 13.727011 
3.828057 27.848520 14.470037 
14.335919 24.287163 -4.667351 
24.981089 -3.633928 -1.524166 
-1.354699 24.813667 -0.608340 
-22.886398 10.191829 -5.449229 
4.855955 22.155516 -1.428733 
-21.160906 -11.318497 1.982911 
21.211149 -11.886470 2.284341 
12.576608 13.008905 13.787484 
17.451967 4.941779 0.101314 
-11.284859 17.578161 -1.826128 
8.683387 23.028959 9.240480 
-22.272005 9.697242 9.506683 
-26.405153 -7.874116 6.079801 
2.853499 22.831812 -3.056575 
-11.843683 23.524263 9.646676 
19.319347 8.861899 9.057882 
-2.835497 31.616743 13.588747 
-19.096901 4.444086 8.081688 
-16.170082 15.315087 12.021081 
1.789234 24.975620 11.609305 
-14.609210 24.206221 6.628907 
-16.301947 12.946275 0.151099 
27.337944 -12.999428 1.180432 
-15.440554 7.793389 -7.442715 
23.754948 0.574896 -3.981739 
27.840515 -4.094377 -1.466886 
-5.607634 27.904119 -4.433722 
-19.283413 3.241784 2.396978 
-25.296820 5.840688 5.018234 
