17.252758 17.484282 11.463612 
9.944686 27.830030 -2.856407 
23.018375 -6.968831 2.609053 
20.646612 18.360989 4.376941 
15.588624 -2.059210 15.469127 
2.553377 19.597696 19.124012 
26.835857 -23.718781 13.252292 
22.031565 4.008705 11.970589 
-6.371971 23.265938 13.420830 
0.761733 26.415142 -1.084559 
-20.837217 -2.051569 5.071724 
-22.614223 11.038687 12.059509 
-20.203300 -1.872441 -2.795841 
-20.668802 18.361778 2.960389 
-25.944771 2.872982 5.922226 
24.302919 1.210524 -1.210547 
-22.857964 13.073925 12.348577 
-21.729271 -7.701994 3.349991 
26.964432 2.861923 2.822096 
19.050026 17.025761 9.825068 
18.758591 -5.929384 -1.491917 
-16.391251 -6.395279 17.223808 
-22.582260 13.896268 12.177234 
-21.384029 16.892731 3.660321 
-17.747421 6.459741 8.317959 
-16.890711 22.356178 2.243525 
1.064845 29.555391 -1.694481 
-17.511169 -13.758534 19.419149 
-21.828156 2.259869 13.692481 
-21.039528 -15.385182 15.469537 
-28.650604 -2.824670 3.877792 
-25.394947 5.971828 -9.909663 
-12.903432 11.459121 -9.923697 
1.758680 30.622768 12.323393 
8.421833 27.089333 17.624331 
-25.202711 6.131675 15.031458 
-22.477556 3.827449 2.228322 
25.922686 -6.708343 3.129280 
17.199175 2.771297 2.277852 
11.876692 21.749588 0.570964 
18.302170 -6.581520 9.172737 
-5.633236 19.982824 -2.756118 
26.730610 0.998970 5.286691 
-11.506075 26.238249 -4.362066 
22.769478 -5.205598 1.946922 
0.531473 25.769629 -0.338664 
-29.146046 -15.294862 8.603831 
7.351429 25.156096 12.282662 
-8.383482 21.945732 15.799442 
-5.498373 22.006577 14.570773 
-26.934441 -19.198753 13.319287 
6.330236 30.249485 7.606780 
17.883308 -5.737549 9.179615 
-17.998220 11.831247 4.267099 
0.352993 31.105070 7.591101 
-11.715290 21.981724 16.832069 
7.264448 19.549316 -3.384770 
-9.402824 14.550541 20.168711 
-19.596407 -10.243846 -3.391497 
16.003023 17.832027 6.788823 
-7.853536 27.008060 17.859678 
1.232422 27.965843 19.402500 
22.316536 11.723305 11.825376 
25.554150 -5.378319 14.211596 
15.742390 1.574901 13.718361 
15.342225 22.893198 7.653265 
-20.269722 5.073271 7.227136 
-28.026999 -19.046610 4.155828 
-0.078750 20.792271 -7.566304 
-23.222481 7.166404 -0.645880 
-16.176815 14.874562 14.467594 
20.153601 -3.935983 -1.624760 
27.017868 -7.086813 10.107348 
6.720266 24.739197 14.159307 
24.447775 -2.434674 8.332380 
15.933681 6.920352 0.216696 
19.118677 -11.382153 4.684425 
-21.646725 -5.589155 6.496865 
28.121876 -14.777020 6.573541 
22.224840 4.755136 7.873048 
-13.417650 25.703165 4.830763 
30.006079 -10.143059 2.061993 
16.592346 1.695991 -1.330633 
-23.229248 8.377251 10.129975 
9.339608 13.859318 20.695244 
-17.182932 10.712842 5.253797 
23.731676 -3.474880 7.406188 
23.786781 -25.774208 15.524894 
-22.623528 0.708476 5.405841 
20.742100 -6.577139 14.167665 
-20.083973 3.148622 1.765979 
21.942375 -5.334951 0.210034 
8.046336 22.006433 12.074869 
-4.804229 24.115231 2.794135 
3.252784 21.972603 -0.291428 
16.234280 15.967084 10.935494 
-21.046677 15.198839 0.471958 
21.424652 14.340154 6.285181 
27.682438 1.700045 -7.099893 
-21.929741 -13.679116 6.313852 
20.935642 0.906111 5.998319 
-29.563774 -13.280374 13.233290 
-1.081990 19.833817 20.170502 
-24.993587 -4.102502 -2.030495 
17.021500 -6.691774 19.922331 
21.283512 6.036523 3.490446 
-18.725719 -4.649873 -7.836719 
-6.500832 22.015436 1.640551 
21.311214 12.949592 4.749610 
-2.515822 26.354374 17.449368 
14.659907 15.400856 3.600014 
-15.401295 1.235576 15.099125 
-26.532270 -8.856456 8.706609 
-20.540577 -5.352240 -1.620484 
-1.234286 31.413324 9.199076 
9.695555 24.058521 -0.041987 
-29.004986 -16.146008 4.947754 
22.248472 7.200005 0.940175 
26.422087 -2.216239 -0.494902 
18.746086 19.468557 18.246292 
19.380745 2.505247 8.777948 
18.040443 -14.743109 20.023565 
12.081117 21.401947 4.869292 
-21.987619 12.884450 15.143196 
19.396559 19.017756 0.417259 
-11.086166 23.640491 15.727719 
-4.490712 29.644163 5.743090 
13.671673 24.535883 15.146284 
-28.201288 2.347420 -2.161044 
-15.344973 1.177751 17.916931 
-29.235270 -12.304688 15.049053 
-22.003407 1.347949 8.987497 
-23.929760 11.050350 5.334521 
11.546130 28.679596 8.256912 
23.317699 -16.846048 12.920856 
25.272598 -5.450362 4.432567 
24.018864 8.714894 1.526286 
25.386118 -6.397439 12.267520 
-8.603426 23.844027 4.337482 
-27.476501 -7.392036 12.153760 
-24.654528 2.033345 10.880013 
-1.421727 29.681471 0.150800 
17.658106 22.304338 15.284527 
-20.071600 -13.215281 1.614628 
19.174482 -5.455783 2.236736 
-11.880536 23.052059 1.403057 
-23.522078 -15.862672 1.729347 
-4.676576 19.595816 -7.962652 
9.070880 26.990757 6.509702 
17.549227 -4.522577 5.298772 
29.807896 -12.052736 16.095011 
-7.927205 25.714699 6.308030 
13.553504 5.539285 18.209789 
14.265108 25.654018 4.123649 
-12.042924 24.938354 3.336683 
6.656320 30.071327 12.408549 
-19.175713 -7.563960 -5.664618 
21.007496 -18.377106 13.669077 
-15.642758 14.958227 12.573462 
3.172863 27.963316 -0.776065 
18.809017 18.997515 -0.483417 
14.397399 20.730648 17.194645 
24.300644 -7.451337 9.742713 
-18.777828 -6.283260 6.644560 
-8.002561 26.156561 -2.476859 
33.976303 -13.090733 -5.206635 
-7.294411 26.245987 6.748034 
8.910842 21.086641 14.693851 
-15.317578 8.464277 12.935549 
-19.924696 -5.423651 5.990728 
-25.917387 -6.534432 14.071655 
-15.406060 6.051941 12.229656 
11.542878 18.265020 13.268858 
-9.881417 24.137339 9.552178 
-29.552853 -8.169182 -9.431207 
21.891590 -0.577583 0.371519 
-18.808544 7.624869 8.135978 
29.502800 -7.668911 16.556797 
-27.907825 -16.420794 2.927004 
-23.718941 6.903465 1.744037 
-15.067507 21.832375 19.812601 
11.396856 24.784824 10.417091 
-19.467863 -2.231450 14.936091 
-9.001791 29.789082 9.217700 
-20.614077 17.442364 0.375307 
-8.952663 26.295980 13.342789 
29.777128 -13.286752 7.216338 
-19.520103 -7.177983 14.537764 
22.229250 -10.242908 -0.752047 
-24.432194 3.982684 2.941016 
7.838774 24.079054 10.279165 
5.793867 27.992533 5.408335 
7.733228 19.685165 -1.858783 
-21.271938 2.977748 0.408755 
2.226256 30.331730 7.527640 
8.189609 27.020212 7.502487 
5.530541 25.948158 0.917358 
-25.106079 5.572901 6.535343 
-15.143484 19.836529 -1.102720 
-19.813551 -12.539986 -1.311316 
1.105904 29.366282 1.484258 
23.524620 -8.202430 8.196999 
13.867883 20.109974 2.189819 
-27.469721 -19.428366 -2.716523 
-27.859003 -1.353474 5.958308 
-17.088793 16.415546 11.436362 
-9.993101 24.544954 -1.041058 
-15.747168 22.334335 15.137192 
8.932652 27.756292 -4.589312 
23.963493 -8.419618 -0.275927 
-20.550508 17.725861 -1.632378 
16.012026 18.335325 17.817898 
21.357700 -18.617702 14.590072 
-27.653313 -6.386023 12.929962 
9.299761 17.258390 -6.486908 
-16.946333 1.962463 11.347148 
-22.931540 11.111905 17.199102 
20.373648 -2.854970 0.189699 
23.806170 10.609714 17.028727 
22.345503 -8.118941 14.641041 
-17.679590 -3.522202 2.292055 
-27.533121 -15.196718 0.547117 
-20.058996 20.162405 11.752756 
26.580349 -15.426759 14.824352 
2.648945 27.424147 7.906889 
13.379653 21.012447 15.677106 
3.776709 20.604803 15.010785 
-20.216124 13.728382 14.776469 
-4.230674 23.348377 16.623781 
-1.025866 28.486736 13.847347 
-21.943619 -17.554821 2.220398 
-16.354879 -5.049188 13.167868 
-21.791109 12.296035 14.315948 
22.510866 -2.661462 5.767835 
-16.608244 -3.891572 9.730193 
14.822863 8.490919 -9.372046 
-14.280909 22.018602 21.015284 
22.029932 12.595869 5.241157 
27.750156 -0.265646 4.031449 
-13.582170 26.661757 12.083933 
27.607805 -24.659327 15.907409 
-28.001425 -17.552282 13.655279 
12.387678 22.703300 13.429317 
-23.710934 8.531518 9.080910 
17.208164 14.520501 6.808193 
8.152436 26.743359 13.239926 
26.227819 4.739985 0.462767 
14.846445 20.241549 -0.491849 
-25.765913 -1.281186 7.410659 
-18.673437 -0.646663 11.988456 
-20.105160 -9.496118 0.502506 
23.028576 -16.477203 1.564072 
-17.076107 11.077418 9.733380 
-27.954584 -2.419241 14.914780 
19.710884 18.137434 12.326434 
-26.731464 -11.756670 14.665462 
-24.269875 8.950310 -8.434475 
-29.324587 -15.845489 2.650472 
-29.081644 -9.469693 15.468089 
-22.071819 -18.829344 -0.524123 
-9.458274 16.169195 -6.716586 
29.698261 -20.845062 21.715504 
-29.198450 -17.501085 -9.066579 
-9.862216 19.490160 0.364158 
-18.749962 3.879714 1.310571 
-1.530406 22.995949 12.859082 
20.851616 13.593284 11.833510 
24.558241 -7.690565 0.615431 
-0.029724 30.589197 11.321146 
23.859762 4.907629 4.097186 
-3.693516 22.543205 12.428397 
19.179779 14.333513 1.859394 
32.745724 -15.835006 -4.681210 
-20.094576 17.871719 8.586088 
-22.243937 13.644171 13.005877 
-6.753672 18.639156 -5.761735 
-28.517874 -6.953801 14.583673 
-29.016895 -6.810556 19.575207 
13.273844 14.910892 3.172264 
19.541689 20.999550 12.964356 
28.296171 -7.501113 9.241529 
31.047857 -16.511091 0.771117 
-8.456813 24.520332 4.909668 
-16.896154 23.001772 13.307295 
1.573928 23.184324 1.249588 
6.941424 27.655315 -0.317576 
-20.920891 7.532904 -2.093968 
-19.546061 19.950941 7.419727 
-30.494434 -16.591341 2.439746 
-0.117351 29.859612 0.149157 
-6.764350 26.269012 15.677452 
29.098680 -11.476849 8.538909 
-23.333019 2.944656 12.522777 
-18.396055 12.945724 -0.280838 
-28.775660 -2.714510 0.249070 
29.008612 -9.397365 14.580544 
-27.167500 -13.843376 9.552587 
18.740009 17.911968 -1.756145 
-7.140049 24.759251 4.809309 
11.022460 25.514095 -10.086955 
-16.192585 19.331886 16.476542 
16.408407 14.522828 7.217101 
20.598267 2.570383 13.180315 
5.024027 28.254393 15.625844 
22.215885 3.207208 1.855762 
22.984060 -16.660397 3.640848 
2.264554 28.833477 1.835801 
11.696017 26.108616 4.215519 
-27.894060 -8.374505 3.867474 
17.957396 8.896131 10.265664 
18.044193 1.120407 6.798827 
10.631736 27.276199 6.540808 
-20.248169 13.079932 6.876900 
10.018564 27.866356 0.180877 
-4.785626 25.218046 0.443008 
17.228050 -4.817291 10.036320 
-14.716919 18.734730 4.683549 
18.064234 -5.070507 7.951076 
-21.577127 -17.350157 -5.774006 
20.047112 -9.121207 12.194361 
21.960730 12.901138 6.819439 
-4.779908 31.805492 8.885399 
23.571939 -2.053616 7.296701 
-8.523918 15.030580 22.176861 
20.145100 -15.265580 14.080423 
29.402679 -6.819955 18.795052 
22.201967 -23.881174 11.342465 
-0.631723 27.520391 11.865086 
-18.539198 -4.677421 -6.447682 
-16.133844 -4.309294 17.175013 
17.749929 12.505258 7.960534 
-1.518622 22.387196 13.553885 
16.254274 17.507847 9.086633 
-5.246554 31.137756 11.418468 
1.930423 26.501940 0.994563 
-21.457872 3.942972 11.932726 
20.036074 18.168486 10.300357 
20.558945 15.479239 13.361507 
7.939713 18.718794 14.942530 
20.332556 -4.449346 -0.893179 
-25.481627 7.359081 -3.551013 
13.484510 25.421103 7.643501 
-29.070347 -10.975473 1.469331 
17.047989 12.665181 7.045871 
22.758272 0.341615 -1.704785 
-22.874512 5.418142 12.660950 
18.360146 23.166176 11.913428 
-21.237896 -6.394842 6.502503 
-16.258121 -0.018495 13.100774 
-25.062567 -3.435374 7.835399 
20.019363 3.046888 7.236847 
2.168055 26.596708 22.742462 
-2.751508 24.012133 2.829675 
-21.890051 -3.411497 15.635221 
25.410854 -7.467515 8.374673 
11.332894 17.851957 14.051422 
-19.637171 -8.735299 -0.831688 
-28.717739 0.798820 -4.890329 
-17.602716 11.131653 3.512588 
17.444290 3.925984 8.555348 
-14.576195 19.765211 14.494116 
19.678406 -10.408328 9.205025 
7.673243 28.166933 1.014169 
-6.142416 29.012745 3.559850 
17.220304 11.774833 2.652748 
20.070200 -1.047334 14.666193 
-26.888052 -18.237173 7.858410 
27.763273 -1.037628 8.507847 
-18.126965 -3.238615 -5.599835 
-7.925301 23.873941 12.972062 
-15.968622 23.262058 7.435278 
12.000471 17.955702 12.018096 
25.052109 -13.265244 13.914024 
-17.004850 10.475217 6.586454 
25.928022 0.599662 14.413210 
-5.701287 26.589441 7.353804 
22.938358 -5.174585 0.177289 
-24.391432 -2.805683 7.026754 
-27.750984 -18.964323 5.530067 
-19.568726 16.475201 7.453537 
3.995721 28.272411 -6.464204 
18.026468 22.778820 14.232584 
22.549332 -16.378958 8.981627 
-15.116858 24.445322 10.499006 
9.122994 28.646454 2.898553 
14.236714 21.017780 -1.730376 
10.836096 15.066326 15.228077 
-15.902331 4.415248 11.045028 
20.466990 -15.263621 -1.705888 
18.486847 12.544021 10.144050 
4.574817 29.276777 -0.444784 
-8.625398 25.053989 -2.496347 
-20.827038 -18.134369 14.431141 
27.839722 -21.782780 18.590731 
29.022369 -8.602107 8.234491 
-21.850193 -9.774410 11.270026 
21.620422 2.858574 13.478436 
-21.616491 13.415150 -10.136423 
24.553211 6.948633 1.018746 
-19.076321 9.132044 6.249020 
7.432274 25.951174 11.136279 
-17.656185 0.305221 -3.045820 
-20.598774 16.754040 -1.647397 
0.693130 27.602598 1.545972 
17.750595 8.293989 6.600001 
-23.152338 -0.035969 6.293834 
3.035515 28.962244 9.360206 
-23.627260 -0.705276 7.696418 
-19.765656 21.282301 9.834656 
9.600205 28.780655 6.071126 
-12.439379 28.241873 8.608071 
-20.204681 20.026899 10.479214 
18.405487 -4.679713 7.147624 
0.131326 27.604557 14.231690 
11.298562 21.042984 4.061672 
-22.052738 -18.465195 14.622145 
-15.047372 21.737556 -10.352973 
2.348974 26.373249 5.550580 
-11.667521 16.629955 13.625633 
25.737015 -4.932569 5.395555 
32.599133 -9.195981 -4.412844 
-27.850779 1.300570 0.116403 
-17.205301 1.694484 -7.399230 
-14.657686 23.329092 15.127610 
27.822777 -0.269399 9.151797 
12.578386 20.930534 0.360579 
-26.722017 3.180879 -9.823223 
7.202481 31.301651 9.999797 
16.152483 5.901453 -0.034158 
-1.981415 25.308062 4.021022 
14.202635 20.343555 10.218384 
11.811943 11.882578 16.348108 
25.686857 4.152882 4.412661 
28.452103 -15.958909 10.035118 
21.236792 16.046091 17.407440 
27.504444 -8.528494 0.798407 
-21.370325 14.189756 13.515956 
-24.166111 9.336312 1.316501 
-18.666286 -8.855518 11.716567 
18.227148 -4.704334 2.441857 
9.008755 25.531767 15.831740 
6.668419 27.223070 -1.079304 
-22.744854 6.413870 -1.072218 
13.817330 21.040960 6.429562 
-5.535235 28.174837 10.170917 
15.021137 25.071415 2.308651 
3.695954 28.217026 16.030437 
5.387280 26.043684 10.085557 
23.319910 -5.308188 7.489268 
-25.136599 -1.765158 15.599568 
-28.264202 -11.275196 3.713441 
-26.577164 1.697227 19.569416 
0.851333 27.053528 9.127008 
20.851364 5.280048 4.261951 
-13.025290 27.222048 11.517148 
23.726221 7.703654 14.417096 
-4.267035 21.811123 12.936987 
-29.356020 -8.877425 19.601454 
25.784866 8.061422 11.341548 
28.680313 -0.566446 -0.537214 
-21.171053 8.926209 -2.127175 
14.201076 13.999793 11.040148 
28.177210 -2.014343 20.799166 
-26.079594 -5.484937 -0.822356 
8.245702 26.379416 20.010885 
20.194044 -0.381348 5.957184 
-15.283686 14.537972 15.600022 
27.325336 1.522359 -8.906682 
17.527424 -2.032049 1.206739 
-31.277046 -14.923868 5.499138 
-21.412821 12.746364 12.519761 
20.304041 -5.610946 1.253246 
-25.577904 4.235275 19.884317 
-19.034929 5.662014 13.894988 
12.972551 28.103418 8.339325 
29.795469 -18.720310 19.967707 
-22.859333 -15.214594 16.264702 
13.038067 28.265755 9.277747 
-27.009037 -19.599079 17.389044 
-10.037550 26.478737 13.794841 
-28.399853 -3.613364 17.701323 
17.620289 13.286609 6.117274 
1.789840 28.501863 17.570141 
24.648634 6.944720 14.232935 
-19.846563 -14.362812 7.505920 
-14.422939 9.124771 12.296784 
-18.001507 0.894621 -1.028261 
-25.890743 1.048153 0.638561 
15.970076 23.260010 4.980703 
26.320368 -8.404291 8.192867 
-29.365221 -13.756623 8.689930 
29.588100 -8.813973 20.656082 
22.755156 -1.318212 7.960248 
16.555677 19.334377 16.872416 
-15.463464 24.684156 4.300173 
-10.405006 28.026028 10.594710 
-11.295473 15.837498 13.398059 
-20.425684 2.236814 5.830051 
18.478851 -0.923609 5.707415 
27.927114 -7.585047 6.757604 
-8.644532 23.179333 11.572109 
24.507486 8.922483 0.372837 
-11.833823 16.341421 12.396511 
23.382925 -0.270496 7.202167 
22.394403 -7.140770 6.648481 
24.503761 8.119632 13.238172 
4.791533 26.186867 17.699615 
22.615810 -0.195793 6.665217 
-18.261070 -7.313596 7.634690 
1.166353 22.955744 14.659504 
-20.963045 -8.090446 2.344072 
-20.263819 0.458148 7.166039 
14.055996 27.529829 9.153402 
-6.798998 28.227261 -4.042370 
-18.373932 -1.000068 13.757707 
-4.850391 20.363214 -2.877038 
-16.126673 23.909964 5.596995 
-13.334916 22.602940 14.094632 
-26.919752 -8.788439 1.002183 
22.744184 -3.474198 6.335125 
30.016960 -11.833629 18.783014 
-28.602999 -17.675282 12.529483 
15.910057 9.486521 8.767155 
9.991507 27.938002 -1.867935 
-29.910322 -13.484466 1.837009 
25.140131 2.648494 10.275042 
-25.665436 -9.286326 15.722048 
-15.162020 4.186033 13.101296 
23.429085 7.527927 2.439180 
-12.260503 27.167629 12.004348 
-25.768066 -10.306313 2.601112 
24.670782 -3.513335 7.309290 
-17.037230 -5.697760 12.269404 
29.707163 -13.799059 21.942247 
20.634459 -8.594604 14.017223 
-16.256588 -1.295889 21.511778 
-22.090170 10.057768 11.155506 
-31.150389 -15.222129 -3.093452 
23.455660 -12.077178 6.810270 
-15.267626 18.727804 15.203603 
-24.893194 -1.791154 7.479940 
-14.663934 3.910687 18.141567 
14.544442 23.741192 14.249491 
30.958801 -11.553169 2.810702 
-10.049006 26.219961 -6.779700 
17.231415 13.838212 -0.519645 
-21.536867 12.699182 2.178918 
23.670631 0.354171 15.074558 
-24.831244 8.737820 3.733589 
-26.926409 -8.374080 1.794842 
-22.304008 -18.735855 4.537054 
21.126345 16.863844 3.814148 
26.239996 -22.894741 13.038258 
-7.941714 24.969158 0.157027 
-22.069202 12.865285 16.274754 
-25.630995 -7.196084 7.237134 
-30.000040 -10.041886 3.257907 
1.533227 24.057219 3.003442 
20.144604 -14.508018 6.250066 
5.586160 23.942299 -0.463612 
-22.263777 14.946163 8.353926 
19.980339 -1.050000 -0.046935 
26.225765 -26.003305 21.486729 
23.472040 -24.492004 14.717258 
20.940378 14.866038 22.705254 
3.984743 25.251270 0.096957 
27.778494 -0.326688 2.397415 
-4.910916 23.259918 2.175462 
-17.631493 12.287056 7.068855 
20.614830 6.538757 2.841467 
-19.012640 10.214001 6.212740 
-12.656601 14.605469 0.181491 
-16.739147 -4.811713 9.424315 
-7.076577 22.968908 3.235460 
19.388792 21.279024 8.289604 
20.115437 -15.897923 11.233853 
-18.856121 -14.650952 14.116685 
20.503380 -14.045506 14.564421 
10.132622 27.163252 8.325414 
-20.841024 15.998738 5.615806 
2.482473 25.816507 4.855947 
27.381157 -7.371580 11.075081 
22.306561 2.430387 7.591685 
17.073027 -2.640971 13.559699 
1.301151 27.578749 20.444477 
-9.493259 22.684307 1.592603 
2.377684 26.517651 10.329796 
16.929335 11.582728 7.171049 
-11.992392 20.684309 15.850309 
-15.526276 16.631342 5.998121 
26.892794 0.471388 13.433248 
23.909370 11.186511 -1.656386 
10.099480 25.293293 0.721293 
2.239613 25.051821 17.128412 
29.469292 -10.239673 6.716119 
15.853778 4.743076 -5.291693 
-21.264849 -0.271638 5.322896 
-6.835255 29.045979 0.529777 
24.826099 -1.131072 -1.234833 
-20.729259 -11.739672 11.808671 
8.408976 26.147522 8.757935 
-27.432056 -2.165723 -1.200096 
27.081476 -7.545581 12.048812 
-4.544719 28.838896 8.297809 
19.989368 19.099655 11.403249 
17.636261 11.602303 7.741300 
-24.547247 10.260180 3.622576 
-0.609286 28.318285 10.194589 
-22.220098 10.072218 0.288316 
-24.854713 -18.318285 13.057893 
-10.612761 27.123343 -2.605944 
-5.516044 22.367878 1.610281 
-29.800261 -12.500648 10.845979 
5.884235 27.715712 2.667594 
3.820818 26.543636 6.498365 
23.495869 -17.647503 11.729714 
22.007824 -4.353850 6.157378 
-0.815436 29.941353 11.539953 
25.050276 4.991363 7.304344 
21.787663 9.939793 -1.098566 
20.634348 -13.116387 7.003442 
4.555050 19.978245 16.548153 
-29.050869 -17.212557 20.768196 
-3.389200 27.388914 6.031682 
21.550854 -0.832310 6.781782 
18.426060 -2.972250 14.162209 
-17.167629 -9.539332 19.285004 
-15.923938 19.816086 7.256909 
-21.271347 17.546432 3.036788 
-1.654178 26.176237 11.875371 
23.646872 -16.684324 6.104483 
2.967299 22.253016 14.394125 
-14.598093 12.419723 13.101230 
-4.274505 31.292185 11.607743 
9.732625 27.285530 7.080315 
-20.028507 -18.687086 19.210361 
11.610819 27.811924 4.862875 
-25.423569 -1.668185 -2.118954 
23.412027 5.289563 13.262864 
22.361065 13.571279 1.099367 
29.230318 -14.437892 9.168281 
-0.510356 24.188320 12.376506 
25.008160 -0.200535 13.037266 
-23.457186 8.269725 -0.839674 
-20.310743 -14.744224 15.090907 
-16.974403 3.902375 -2.611593 
-2.169299 27.823328 -0.798949 
-18.647429 22.866152 10.020597 
14.104175 13.454482 7.466180 
-29.557798 -9.383250 2.515963 
-12.055928 19.942459 14.874994 
2.170634 19.855312 18.049053 
16.293921 22.540127 8.353696 
-12.854845 19.039799 4.950301 
20.541618 -15.286684 -2.755903 
30.110210 -14.496969 4.396582 
-26.783600 -6.297589 5.258115 
-10.580762 26.877981 2.160248 
-19.290758 7.586660 9.712016 
21.281694 -9.315970 6.822313 
-19.974611 10.762830 7.958091 
-22.935802 11.628913 6.646924 
15.926268 -3.763151 18.971626 
-16.989641 13.555188 14.693580 
24.847467 9.036741 -1.439775 
-30.017727 -7.965351 -6.700995 
-14.698350 23.873835 -6.425459 
20.432539 8.046039 13.860868 
-23.637011 4.179723 3.396467 
-22.035137 9.409277 -1.962375 
11.783415 25.753513 2.510367 
-21.671379 10.535923 -1.873724 
22.394129 5.153855 6.892941 
-18.256615 -11.074354 12.823619 
25.069349 -12.714255 7.348313 
21.213686 -21.345427 10.678354 
19.712929 -11.156655 -4.843966 
-20.699066 12.860633 15.380331 
2.707821 20.688242 -10.032470 
-18.867243 -6.397077 4.452266 
7.365786 17.357243 18.448347 
17.424927 -8.692364 19.725954 
-22.889793 -19.365892 12.013913 
13.404074 20.501299 10.586739 
16.391182 12.140513 4.362931 
-22.293037 12.811878 13.434470 
-15.429017 25.399429 9.965645 
-14.736026 25.453991 12.838200 
19.585667 -11.032235 -3.380522 
15.809706 4.162963 12.144504 
-21.543121 -8.559453 4.169542 
-17.307068 14.001056 7.642733 
-11.044800 14.896241 -4.232552 
-7.195650 20.303364 0.314471 
1.732581 31.584051 8.798867 
25.358208 -13.419309 8.007442 
-20.829126 -9.305111 7.101887 
-25.347662 4.233194 12.752126 
-0.677061 27.110748 -10.332974 
13.252813 26.278893 13.581720 
-3.319838 29.826832 6.401873 
-16.869589 4.677241 12.071869 
21.468315 4.587328 1.321719 
9.288866 21.497114 15.428601 
-0.166551 31.019394 8.432109 
-14.625017 20.188206 7.147350 
-8.627253 25.537804 12.818199 
-25.902288 6.339914 -6.012336 
21.296648 4.219144 2.842490 
27.530561 -4.267272 11.258846 
-27.406397 -10.663747 0.615242 
-10.857124 14.393249 16.337442 
2.955322 29.152534 -0.768048 
-22.972042 -1.274871 15.492415 
21.125853 12.987626 5.787299 
-1.795961 31.990797 8.681936 
10.511091 23.508558 -0.424253 
4.883393 27.571363 3.040740 
6.189055 21.962097 0.548648 
5.045555 28.731745 -4.117421 
22.807554 4.119430 14.934565 
-17.802696 -6.804932 8.676097 
-4.126891 25.294230 -1.596799 
21.842459 11.661593 12.738379 
-4.208899 23.888433 0.701431 
22.937628 7.763822 3.374587 
-0.439324 28.455141 3.805463 
-18.383743 -5.793338 4.950871 
15.801248 23.009703 9.075630 
11.624658 15.631519 13.416172 
20.956890 6.821634 15.242827 
20.371008 -11.071082 -8.531882 
24.039734 -3.760454 1.769179 
34.232227 -14.140512 -8.195097 
-30.369036 -10.591681 2.626986 
11.464060 14.352927 14.720999 
-21.479263 8.004255 11.252979 
17.095421 -2.354946 2.519850 
16.280214 4.179875 -0.531492 
-29.587633 -1.885540 -1.144341 
18.454857 5.031450 11.275722 
14.990659 7.488355 -6.067471 
14.417967 4.638319 15.503025 
11.374182 11.320259 18.089125 
-14.177114 20.976349 7.362634 
-28.435759 -8.581752 13.765715 
-21.736679 10.009842 11.988421 
-0.004885 31.146828 10.244130 
24.712130 -2.430523 -1.182286 
24.632576 -11.372771 -0.610253 
32.477741 -9.235085 -2.686737 
-12.408038 25.232994 -6.258954 
18.104919 -3.345125 0.902964 
-6.513473 25.538490 14.664841 
16.525625 2.897284 -6.956480 
-20.138475 -12.340638 8.131365 
13.109822 17.827166 3.454405 
-21.404179 15.463273 8.452702 
13.348413 15.722923 13.015669 
16.108761 23.074917 4.074134 
-16.834852 8.664827 14.542122 
29.711912 -13.223559 16.357880 
21.270273 -25.888626 15.431140 
-23.420780 -10.856943 7.180975 
27.553057 -19.543779 18.072407 
15.589679 6.531177 -9.284550 
11.777828 25.596680 9.802345 
15.248373 24.903980 -4.547119 
-22.273296 -11.714394 15.645823 
-22.208181 -10.020422 1.064259 
20.465548 0.767801 -1.839854 
-26.372913 -16.938200 1.843996 
-22.705145 -20.362534 18.838381 
-11.660502 26.213810 6.661004 
0.092943 26.409014 3.126681 
18.032825 -0.054710 9.572377 
23.398485 -6.281302 4.180759 
26.151621 -9.317027 8.256610 
22.934427 12.041759 10.809425 
26.026628 5.212365 15.892523 
16.978466 22.379158 1.123159 
10.254800 22.658684 -1.443444 
-0.586265 21.521296 -2.253195 
24.149294 10.007442 0.192346 
17.110071 24.109428 8.552524 
25.374655 1.582672 7.321661 
18.613024 -17.381884 21.626083 
14.194364 27.391075 10.029900 
-17.158682 -6.355876 21.332722 
2.791202 29.106075 3.047732 
-25.209660 -8.322871 2.257340 
20.929543 7.545797 1.913193 
-0.810054 29.766703 1.692158 
20.542204 17.009714 19.102156 
16.636715 0.576656 -2.093678 
-27.538576 -2.956872 13.292144 
12.608247 18.164846 16.407757 
12.797835 15.576315 13.820530 
-0.931179 21.027712 -4.284505 
10.971256 19.128962 12.491501 
-13.347915 19.302383 10.907362 
10.727712 16.013596 14.116324 
-16.087366 12.715637 -2.761401 
-17.611038 19.166111 6.640003 
-18.197817 2.737172 -0.052297 
19.109270 -7.470558 9.141231 
-6.880053 18.928183 -3.976995 
2.330887 28.719528 -5.285231 
22.311790 2.672496 8.474543 
-28.440485 -9.310718 6.303686 
-26.413414 -8.133224 6.310607 
-29.550095 -12.172439 20.921230 
-25.722298 -16.408028 0.093630 
-19.354517 8.264761 5.993023 
-1.456387 24.941401 16.097300 
-5.419614 29.022980 5.600978 
-8.793651 16.188070 17.949205 
13.340852 11.578390 -9.514215 
17.884941 -4.906360 4.065826 
18.706425 19.308411 20.118305 
-13.299177 22.872169 -2.340516 
26.457741 3.698663 17.302523 
29.410313 -22.022739 19.641123 
18.226162 9.026337 11.127060 
26.256056 -23.679924 18.112625 
-12.059311 25.700274 14.617873 
24.984781 -20.820152 10.258029 
7.103124 21.977293 1.276064 
-22.279413 14.050884 6.323470 
-11.406545 17.875685 14.614612 
8.155940 27.918589 0.116832 
16.652960 -1.166296 3.217893 
-24.074566 10.923173 -2.294312 
-8.914653 25.245909 -10.391195 
-9.904026 23.632103 14.261283 
11.017579 20.418463 12.168580 
-20.348427 -8.542469 13.528131 
-10.659119 16.441004 -1.130391 
8.117575 27.881264 9.180480 
19.271729 8.029472 12.486219 
1.247615 25.823120 13.211119 
-27.682796 -16.842571 7.294956 
18.854513 -6.670716 13.559248 
16.931732 -1.965349 11.527557 
-30.029369 -16.073765 7.384014 
25.442141 -20.575308 11.039646 
2.377835 20.391998 15.796202 
-13.676713 16.025156 16.270466 
-21.113188 13.367309 14.555078 
28.654989 -5.239839 14.832616 
5.413250 27.489008 6.233987 
1.122474 20.822203 -7.728040 
17.124601 19.904545 2.194255 
10.174327 21.299427 15.458265 
-24.128878 6.038796 1.249378 
14.966654 8.216234 5.399216 
21.109846 10.032701 9.768076 
8.211425 25.095194 15.596356 
16.021629 13.271610 3.170522 
-2.615404 20.734951 -4.330034 
23.571833 -4.927248 12.400620 
-16.059561 23.192036 -0.981729 
-22.340923 -19.036301 9.199349 
-9.740849 19.741262 14.156466 
6.156577 22.177137 12.381285 
22.410809 -9.259100 -0.147835 
17.739697 20.358561 19.329271 
-5.643185 30.275665 13.022307 
16.711365 20.603939 4.167938 
-12.176995 20.949236 5.416821 
-25.825390 -15.334088 -0.117326 
-6.259116 24.814148 13.460170 
-0.373910 23.256227 1.760492 
17.133162 13.715296 7.512509 
-2.036720 26.195923 10.485222 
29.688732 -14.018460 9.851051 
-9.085397 26.137369 18.784315 
-7.083352 24.390944 12.421341 
25.762550 5.575348 -9.087274 
-4.604091 31.718098 9.771643 
-12.561897 23.506866 -1.998486 
22.824011 7.241066 13.487977 
8.903440 17.819427 -4.692355 
26.098318 -16.997501 10.513358 
-18.744699 -0.549526 9.025754 
-7.911248 22.696001 3.207153 
-19.556982 -14.382055 14.607088 
-4.733526 23.958563 11.349926 
-9.412448 25.191151 8.938140 
5.939182 25.105371 10.537128 
26.190100 -7.235514 11.227743 
-18.280964 9.006310 0.348440 
17.085821 8.926251 9.461531 
14.707536 22.816982 13.811796 
12.918427 25.875870 -6.085645 
19.428690 -13.520684 9.000202 
27.304352 -5.275700 7.793011 
-23.588629 10.494453 -8.344395 
18.480753 1.947722 -0.845443 
12.756497 24.799986 18.504459 
0.440213 26.741568 15.064997 
0.470118 25.908543 12.067309 
-18.180864 20.923609 7.028214 
19.219683 4.587674 3.340087 
28.169941 -4.598735 13.628574 
24.501595 9.966788 -4.448364 
22.784721 -19.376654 11.818241 
19.989170 2.687091 8.148227 
22.285923 -21.633631 12.200097 
-26.157600 -17.595886 15.674710 
17.958738 17.071737 15.834538 
-9.879398 25.416252 -1.300009 
-21.573732 -10.669949 11.194294 
17.223110 8.949205 11.045223 
17.893841 -0.528318 12.600044 
-22.268690 14.666184 7.319500 
-22.867638 -18.742170 14.245186 
-27.791248 -0.520491 5.449894 
-27.314743 -7.127643 2.728048 
-17.568861 21.791985 14.919278 
7.909737 24.371632 3.940615 
5.167216 28.881004 14.855543 
-18.189577 2.690964 3.144622 
-6.074226 23.427761 12.276091 
-28.756128 -10.566813 14.283503 
18.609655 20.287836 5.628620 
21.426828 -8.184970 14.261739 
-3.390673 20.760818 -3.518859 
-12.525939 20.272963 13.156783 
-29.383755 -13.764303 14.032364 
25.581272 4.340502 10.329408 
9.503350 17.707575 -2.664856 
-19.732101 17.740261 13.480399 
-16.812059 7.309791 4.555645 
-1.973326 21.709837 -0.800186 
-24.754133 -12.993562 1.751125 
-25.467916 3.759849 3.224365 
-22.710741 0.769892 12.458771 
19.916674 -13.736184 -1.772439 
-11.016383 22.593456 -0.732438 
14.685638 23.757595 15.760365 
-17.729458 -12.669493 21.119352 
-23.019390 -7.401029 1.888974 
0.739235 25.246658 4.139044 
17.052441 5.801931 3.598638 
-28.264839 -3.717813 19.917379 
-15.680835 22.872290 12.684092 
-18.208395 16.551266 16.181992 
-14.231970 6.192245 15.980070 
-16.617868 2.659643 9.302875 
0.630428 26.093271 9.979959 
27.579115 2.986908 -5.233078 
-20.487318 13.858165 3.177959 
19.377901 -8.199553 -1.782919 
-8.450266 27.753288 1.789066 
16.440392 7.770144 11.091747 
-19.972380 10.949005 -0.569313 
-12.579788 20.152517 5.118588 
26.892199 -13.305409 0.180951 
-16.350901 18.871981 9.166160 
2.305819 29.011324 -3.985905 
0.975568 25.389074 -1.074663 
17.519346 15.151875 13.690007 
12.446595 18.808477 0.870982 
14.230840 3.332704 18.732841 
-23.720387 9.451964 14.915796 
15.085910 15.247082 9.001710 
15.495619 24.480911 11.375293 
31.695667 -8.161061 -2.547677 
23.858961 -4.687076 -0.265043 
18.234077 18.567486 17.013586 
0.809453 25.221960 16.031708 
18.897038 -7.047336 12.276382 
8.693262 23.707184 3.030459 
-12.567046 22.389143 0.199278 
-24.479744 4.130898 3.849244 
28.263117 -5.609907 0.553177 
14.656218 20.730986 2.063088 
-26.171297 1.251922 8.174402 
-16.123735 23.705990 0.473825 
-21.391705 -18.090843 15.116086 
26.351725 -12.461593 -0.123574 
-23.115448 3.694678 1.619990 
1.723240 24.975126 -1.369343 
26.242802 7.073494 9.339684 
23.207258 10.193452 0.171622 
15.827818 24.110653 -1.360143 
-25.606354 -6.038839 0.002596 
29.124857 -5.890238 20.389931 
-26.911903 -4.432398 -1.171157 
11.637061 19.411636 13.667760 
18.561869 -13.623521 13.352348 
-21.936922 -5.823475 0.231846 
-3.852068 24.763760 3.293493 
29.744682 -18.757059 20.843340 
21.802382 -5.712108 1.055451 
-24.692860 6.229890 6.035096 
15.533107 23.311621 6.748922 
-24.144321 3.789195 2.082076 
26.921072 -3.168414 5.213045 
-0.157368 29.759560 -1.017292 
29.629040 -11.823907 22.004347 
11.257687 22.651638 1.191214 
-18.097919 19.788742 -8.377815 
-11.628770 22.874168 -1.806416 
27.732918 -24.862751 20.368069 
26.714949 2.876778 18.782539 
24.218454 -17.469175 16.093035 
3.924301 23.443623 11.580625 
18.064043 -5.953931 13.485943 
27.517786 -3.553432 1.381223 
23.449970 -16.287828 0.654942 
-17.320137 22.474560 -1.856254 
-25.266775 -14.933736 2.544184 
24.978067 -17.125288 10.127151 
-22.764036 11.221168 18.633341 
27.602299 -11.422397 0.376478 
27.885788 -1.083688 20.929913 
-29.035017 -1.749382 -6.077567 
23.379536 -3.539286 12.884045 
18.786703 -7.245534 11.141185 
17.092972 15.977125 13.381845 
-27.400597 -8.501250 6.139117 
-0.442835 29.335119 15.058410 
-10.528876 27.200706 5.133459 
-22.013411 -6.402042 6.021736 
23.298859 8.722215 -0.413531 
12.635520 19.072416 11.305984 
6.010844 26.452799 15.227081 
17.605284 -13.776579 17.539806 
29.528013 -14.878387 3.546630 
-22.110918 -19.091814 12.354590 
-12.245558 9.320669 21.925833 
12.805659 25.430069 -7.969820 
-13.681345 14.845353 13.771473 
-8.930747 22.819881 3.270896 
-3.652707 25.075964 17.757460 
-25.308506 -4.571531 13.348308 
-16.785530 -7.737204 13.931647 
15.291162 10.061955 4.146123 
29.951771 -11.808681 19.735678 
-1.140723 25.220205 14.043077 
20.514763 -11.563649 12.246222 
-21.807043 5.106933 0.880451 
-23.310837 12.008885 2.287600 
-11.391868 26.399372 7.588417 
-20.525686 -9.225800 4.792273 
13.318886 19.451797 10.902289 
5.865619 23.039204 13.384364 
-7.377709 26.202549 -1.857008 
-25.489370 -2.562106 7.650657 
-23.046183 7.476005 12.243538 
-16.051609 -1.728651 15.844220 
21.424831 -16.942188 -1.583007 
-21.271618 4.993520 12.189812 
15.399992 6.528613 -7.461922 
-24.707449 2.669067 7.253692 
-1.751669 29.068039 16.084009 
10.364380 21.820066 3.900878 
-2.800278 29.264618 -1.331589 
-24.163307 9.941589 6.521682 
-14.316312 5.092274 17.887495 
-25.730957 -7.133399 4.343640 
-12.086308 24.666676 -8.242793 
24.366259 -13.195178 6.636959 
-4.085813 27.346117 1.067868 
28.075336 -23.960331 16.366795 
-14.283337 5.034584 19.713869 
-10.582993 24.500082 -10.388823 
17.000055 -0.214515 -0.687224 
-3.143340 31.027479 12.628177 
24.973944 2.191032 1.550142 
12.052132 17.748543 15.770219 
-4.756663 28.761505 -3.421338 
-16.489439 16.726391 -3.204530 
-6.439354 30.507967 11.747601 
6.911139 27.256973 -8.372097 
31.138741 -14.492670 4.634559 
-23.492510 12.331997 -0.980439 
4.475258 28.433197 2.843296 
21.485456 -18.372557 12.315053 
20.545675 -8.635436 13.080626 
8.719865 27.681822 12.429321 
29.813211 -14.067333 17.421888 
16.425589 13.660624 -0.081262 
-19.188648 18.426201 -8.168302 
-3.525397 19.302568 20.547291 
-6.268236 22.901768 14.378865 
6.518388 27.614403 17.348911 
19.158945 -8.990670 4.486152 
22.659128 -1.195535 15.209130 
-24.711849 7.672367 3.630230 
-18.334988 20.283852 -6.650813 
-17.397045 -2.409536 8.074202 
-24.041500 10.892513 -4.243297 
-24.322830 -20.386213 18.809441 
-26.870449 -18.753239 12.382048 
-23.650589 -1.321730 6.112464 
-27.149279 -6.800746 8.366556 
5.944788 27.540991 -8.012842 
-8.271204 24.637291 9.873793 
24.605928 -24.954138 16.628057 
15.911462 5.642087 -9.245265 
15.447843 24.375343 1.642143 
-17.052488 -2.918507 8.796653 
27.976381 -5.585809 13.030391 
-17.675974 -0.555521 -2.718839 
-16.436321 -6.514345 13.796279 
-27.807589 0.629710 4.116390 
-9.895691 21.917025 16.642921 
-16.781515 -3.031072 9.736860 
18.336641 19.903383 2.348320 
-20.146175 -15.421498 3.161157 
5.720699 26.974133 1.692593 
-25.611120 -7.660767 12.313116 
-6.969014 29.632896 13.255201 
0.483351 26.634846 12.709336 
-10.449841 22.966135 4.193428 
32.314995 -9.317962 -1.141337 
-12.488120 18.159393 0.364740 
12.753597 19.337358 16.779337 
17.525375 10.113150 0.352779 
-24.649899 -13.924026 14.507938 
-22.831507 13.697122 -2.188886 
1.144267 27.155928 -10.305975 
16.389729 4.414798 11.214020 
24.207350 -18.035841 -5.874555 
-17.890125 -15.549173 12.517128 
-18.730265 -12.252276 5.620947 
9.009794 20.832850 12.153843 
22.535553 -16.694275 2.574147 
-15.847836 22.037092 16.760548 
-8.763556 23.789436 -2.111998 
20.592714 -12.952075 12.487263 
24.309523 -24.328114 17.629852 
-22.264616 4.914665 7.303130 
-17.110023 -0.967653 3.123686 
-24.261471 9.362101 -1.273515 
29.546509 -17.620575 17.020365 
-6.300653 27.209906 18.980885 
20.179777 -10.750145 7.972730 
28.160128 -0.969326 15.808113 
-5.699463 26.356222 17.726515 
27.299343 1.311265 8.257869 
-21.618252 -4.350446 15.581876 
10.020016 16.420940 -7.856947 
19.037737 0.040655 14.157743 
26.290335 -11.362034 -0.169952 
0.827433 29.262808 2.651248 
-17.482487 19.944794 7.855965 
-12.384328 18.583193 3.711802 
-21.882599 -12.814291 15.733222 
-28.254078 -2.072952 5.327564 
-18.898163 14.978986 12.603032 
-20.321533 15.109729 20.721615 
8.807421 25.439768 4.260444 
24.363293 -24.510084 15.762591 
17.393120 17.677238 13.777704 
24.313643 -1.446376 8.120104 
23.968565 -21.414415 13.658943 
23.529840 -20.118580 17.487497 
27.649866 -1.164433 22.311281 
15.209734 3.881073 13.706389 
4.650963 18.666122 20.347296 
-16.776915 20.035538 20.339636 
-17.374701 15.856199 16.585899 
-17.293530 11.509001 6.779364 
-19.706703 -11.613065 -3.330155 
21.732235 -1.502903 15.095414 
24.144732 -20.213634 13.227365 
-11.307451 15.653958 -1.322883 
20.166834 18.771156 0.869483 
15.703876 21.848732 21.605444 
-4.020910 23.897161 1.577840 
10.170718 17.129290 -2.121114 
-24.885075 -14.408366 7.255498 
-18.147938 20.544378 15.634478 
23.284445 -10.402639 6.177892 
26.176315 -7.602904 13.781709 
-20.781050 -16.671238 8.091084 
25.049232 9.280107 9.566128 
-5.416128 28.829290 7.605092 
19.491955 12.456038 15.304057 
1.756688 24.411673 1.495337 
19.089359 -2.881214 -1.759929 
13.088273 21.269522 5.606751 
16.828220 -6.222656 13.180978 
16.906351 -0.321787 6.237789 
12.008173 22.416698 10.851294 
-13.686534 10.548696 -5.309096 
-9.356874 24.328833 13.785886 
-22.888615 13.455713 -1.158911 
21.626076 0.676357 14.739729 
-21.666708 -5.378873 15.490675 
15.991090 6.747369 5.555444 
18.157902 2.793796 6.772275 
11.672304 16.814358 12.356768 
-10.207836 28.400234 9.619018 
-21.583368 6.935763 -1.906461 
29.816467 -19.685068 18.932554 
19.522778 -8.994032 11.272434 
25.388721 -11.819796 -0.444490 
9.031195 13.569096 22.447836 
-17.786295 17.984701 -0.882431 
23.028128 11.504670 2.196040 
18.628214 6.730499 1.560853 
-23.295338 4.321507 5.617726 
9.459993 24.297676 1.959247 
16.969410 20.980831 20.999088 
19.016193 2.248460 1.223683 
30.084412 -9.431745 11.062497 
29.753765 -15.852203 18.198851 
-25.421354 -14.946050 7.855853 
-19.423124 -8.992058 7.726436 
-13.394446 22.032806 12.785857 
20.794252 -7.470098 13.373555 
7.007126 28.114758 -5.228162 
-21.019741 12.867934 3.196947 
25.210928 -7.155972 10.093268 
-20.382101 3.606192 2.579504 
-26.520880 -2.398876 7.401330 
27.143217 0.330566 22.350180 
-10.494858 26.212288 8.839170 
-19.673866 13.055159 15.978122 
17.411263 14.565984 7.815204 
-24.089643 -19.563068 10.972239 
17.884552 12.517000 3.123031 
25.175867 -5.211857 6.039738 
-1.488381 29.184967 14.344041 
17.625721 0.114492 -9.005551 
29.198288 -9.410548 6.943902 
16.465219 -0.316655 5.391358 
-3.538170 28.863708 -3.418269 
-8.651660 20.486645 11.846224 
13.467124 24.416029 18.114807 
-21.435738 14.777005 6.647373 
21.170630 -14.422086 1.694567 
-22.818169 -18.491821 -5.004606 
17.998138 21.564133 -8.005009 
21.972139 5.423933 6.071751 
-21.770922 0.855300 -2.557646 
11.415136 24.608768 0.145677 
25.118776 -21.534058 11.034461 
-13.264845 14.756417 5.239042 
-24.611677 -7.020532 6.022342 
-15.838111 19.126196 18.121990 
-14.679247 13.274960 -2.058883 
-10.598222 24.638214 6.465098 
24.099270 1.871364 12.941854 
-14.661099 9.102551 11.322743 
-29.951729 -14.551935 11.188840 
14.523162 7.828125 13.297541 
12.816630 16.986814 4.879974 
10.508128 23.980131 2.644990 
18.800390 -0.008300 6.648004 
9.382503 17.122261 -9.789963 
-21.601278 -18.684942 2.289208 
-27.686871 -2.329880 6.539520 
26.593935 -15.791368 4.969719 
22.349350 -17.401560 12.831385 
-22.781340 10.005333 7.830801 
23.508045 -26.562571 21.419518 
-20.648190 1.885034 -1.329115 
14.340114 14.631945 9.166597 
-8.509192 18.131439 14.738970 
20.673126 -15.275408 -3.946622 
16.294603 17.306198 -2.093032 
-28.214563 -1.930536 -9.650115 
-7.903623 22.001230 11.361907 
15.727807 11.216908 4.349412 
18.188158 3.956723 7.117023 
-17.633436 12.028207 3.451702 
-22.072800 -13.543319 -0.838419 
27.712454 -2.562999 11.177777 
-15.776646 20.640139 16.290014 
-9.096342 22.214914 0.421137 
13.027310 16.048567 5.946706 
-14.044419 17.382067 2.419870 
-19.997559 0.114426 12.505537 
23.851271 9.944419 8.069798 
21.285595 -15.165082 2.149628 
-24.771564 -17.976809 15.880219 
9.549771 22.426224 10.823822 
21.172413 -0.037411 6.486450 
-19.835911 -13.324569 7.691112 
-6.968112 19.965759 -0.571499 
-20.679842 -10.420004 11.732507 
-16.938980 22.684986 3.400487 
-11.233681 16.933010 12.672067 
-8.517598 21.665800 -0.047166 
-25.920790 3.570810 14.417589 
13.687646 23.721403 -0.376267 
22.759604 -8.514489 6.465230 
-6.519381 23.443111 1.349527 
12.169313 25.399227 16.484140 
21.098171 -11.444309 14.964630 
28.192160 -11.229973 16.455360 
9.633379 17.898092 -1.692299 
-8.996459 24.109785 9.445097 
20.694355 2.870181 6.700642 
-16.745987 17.578411 18.035088 
27.984978 0.117306 16.224943 
-8.970194 25.808271 19.932695 
26.832773 2.413821 15.886758 
-23.390299 6.832695 13.041217 
15.595984 23.251776 -9.927754 
-29.000973 -18.127134 -5.437100 
-16.994997 18.538719 18.277508 
-20.741423 9.635897 13.603496 
-13.295749 25.871191 -0.876787 
-1.626698 26.870335 12.561524 
4.359806 22.935879 15.488793 
14.501011 15.799809 12.143084 
7.349090 31.384960 9.103371 
-17.168352 -8.687967 14.236536 
27.232903 -24.430225 13.597848 
-28.551863 -4.751220 16.461460 
27.938229 0.606480 -7.209414 
-21.418262 16.171906 1.282081 
27.446821 -7.340984 1.654538 
-3.078770 24.581011 12.158308 
-18.963215 13.466830 -2.321969 
-11.966842 17.745161 12.294181 
23.816576 -5.477062 6.729129 
-24.330053 -2.881351 7.935680 
29.536121 -22.802099 14.778130 
-8.537792 26.268845 12.295938 
20.011454 6.781726 6.810300 
-22.439543 -12.759945 13.062198 
17.133062 3.863851 13.460176 
-18.953547 -4.201224 0.160083 
-18.269089 3.022852 11.134045 
-29.934715 -15.521133 11.807787 
28.420408 -7.104063 3.721929 
8.529711 22.762270 -0.759831 
22.213419 6.945536 7.254124 
13.635047 6.660057 16.257835 
29.412073 -14.832190 10.331285 
17.385010 -1.814142 -4.098365 
19.660282 -9.095893 -0.613197 
-4.533900 24.796490 11.065748 
-3.012929 27.137180 -2.333291 
28.769075 -23.925968 21.599598 
16.341549 -3.639148 22.026875 
30.511980 -8.328998 3.356899 
6.574870 25.769304 22.795673 
-24.866329 8.445943 4.582945 
28.179672 -3.606456 13.730543 
22.215073 7.238957 -0.494967 
-19.588512 20.414721 13.341638 
11.625210 23.932755 10.764077 
25.103487 -6.099077 13.556507 
27.144476 -10.412567 0.235314 
7.702259 26.909340 11.388328 
30.176249 -11.716588 2.085611 
-25.467207 -15.562300 9.474327 
19.929302 -13.835042 5.589753 
17.121809 -0.736445 -4.763389 
19.186392 22.205778 8.421535 
27.384365 -16.402184 9.362078 
13.853385 12.764602 8.098059 
14.716660 8.682589 -1.816509 
-24.816895 7.709563 8.964133 
-16.296570 5.707674 -3.299279 
-19.886230 6.001659 14.095319 
-9.534552 25.028814 21.231464 
-31.292002 -12.138130 3.764595 
15.670471 20.317274 16.435511 
16.431278 15.333182 6.690495 
-28.689056 -3.226269 1.302093 
-7.018669 26.868404 1.901735 
1.523828 29.780270 8.081854 
15.800077 -3.778638 15.440877 
-19.541641 21.813337 9.152696 
14.463810 1.768959 22.166773 
-18.596037 2.253164 0.610663 
-14.144289 14.007019 -1.355054 
22.621092 -6.565425 6.023393 
24.565332 -4.856027 0.969664 
-24.348785 7.210808 20.177383 
-30.655825 -13.713903 3.900379 
-17.661160 19.429184 3.596029 
-25.922890 -17.029001 0.729232 
-20.801569 4.646223 14.364188 
-15.779829 21.344076 1.473630 
14.453146 26.605595 9.373972 
17.467741 17.223135 5.544504 
-6.376875 26.111525 0.913048 
30.578428 -15.670155 4.255778 
-12.493856 18.189919 -0.931727 
-16.273338 8.375773 9.593780 
18.464212 23.236561 10.830583 
-16.474295 19.978933 6.392865 
-28.858183 -11.438386 15.252660 
28.435364 -16.848537 14.227803 
-14.596081 11.258487 14.534038 
16.700907 -2.144339 4.204496 
16.677778 -2.432866 10.693323 
5.065417 29.187717 1.084917 
15.284895 10.866619 11.378869 
-19.977671 18.605829 12.834419 
3.249970 27.467386 -1.699529 
-13.897269 10.661422 13.999715 
19.276680 -0.211227 11.060892 
11.289051 27.200523 13.654206 
-18.584391 -7.538559 14.060747 
-16.813507 19.537041 17.459089 
-8.921257 27.775486 10.182218 
26.590107 -16.711542 9.799308 
-27.854548 -1.651729 18.690754 
25.709249 -7.531515 0.770292 
13.802304 11.884539 8.767838 
-16.803991 4.871878 -1.798494 
32.118877 -9.437541 0.223210 
-15.391850 13.989811 7.218504 
6.063189 24.822865 16.630381 
18.141544 -1.745455 -8.925855 
18.354797 -5.215300 3.273915 
2.326867 21.270418 -2.642580 
-9.880754 25.284401 6.622022 
-7.467777 23.901514 0.509591 
6.209683 27.756567 1.762312 
-19.393412 1.663035 0.123448 
22.559786 7.397532 2.010655 
-20.791731 11.305984 -0.847882 
18.865950 -4.371103 -8.813405 
-8.466271 27.260067 13.318666 
-16.806679 -6.359194 19.806934 
25.585600 -12.807741 9.356380 
25.639519 -17.959158 13.219392 
-19.586596 13.435217 1.309747 
26.351557 3.545861 4.239283 
15.829733 4.789829 -3.683285 
-1.392519 29.809387 7.736030 
21.217562 -15.723686 14.527830 
-25.193584 -10.978228 16.331446 
15.730969 15.378069 15.268436 
17.319643 -8.723160 16.240652 
-19.781565 -1.588804 5.155493 
24.593702 -16.238949 9.179564 
-0.407891 27.422384 3.164637 
15.413848 5.991228 12.024498 
-28.978731 -17.645397 7.048309 
18.895754 16.203522 8.180310 
-11.383865 23.883816 1.538502 
6.337377 28.604412 1.506145 
28.767231 -3.649655 -4.074448 
-20.809368 13.612737 21.908739 
-11.264028 26.820366 5.804352 
23.203642 2.783196 9.829144 
20.601570 -0.585888 -1.957811 
18.043697 13.540510 3.397317 
16.761118 0.039395 12.423892 
31.708912 -14.225204 3.299677 
-3.558243 25.363008 4.006039 
21.026897 13.430136 6.592979 
-5.977942 22.709389 0.731328 
29.050083 -4.929269 18.750225 
-22.183130 -3.088048 7.285047 
-28.516523 0.637658 -6.316753 
7.644845 29.755728 8.186072 
28.934048 -17.811466 14.200468 
22.379892 12.558155 12.874809 
25.036186 -6.874764 2.373869 
-19.377529 17.750654 6.719592 
4.356056 26.128962 1.549792 
-25.353346 5.569261 -0.133456 
-20.236246 -9.397508 7.777000 
15.765911 12.723086 14.555877 
24.448162 -25.014576 12.306393 
-29.621552 -8.926512 3.483900 
-6.280151 25.648104 10.180834 
15.171809 8.887826 6.092991 
-23.979134 8.673638 18.753138 
-16.858658 5.925838 10.216107 
9.471652 26.879055 -0.167211 
-21.734228 5.308292 -0.474327 
17.903437 -15.628973 16.835857 
-19.772234 -3.767388 -2.604234 
28.300137 -9.047452 7.922743 
12.472872 24.351368 20.441690 
-26.750141 0.544929 7.680879 
-20.501450 -16.583277 5.288968 
-28.829216 -16.476305 13.829481 
20.933685 -5.380359 14.577310 
-28.453100 -15.598419 6.904338 
-22.323318 4.171997 5.811984 
-27.031132 0.860910 5.583632 
-19.497519 -7.513560 -0.811601 
17.312456 6.356990 10.951232 
-20.342543 16.208250 16.723669 
-7.083158 24.571369 15.580079 
-22.518993 -18.784960 6.277666 
-19.526155 6.951219 12.658274 
18.339758 -12.633877 13.256461 
-17.947386 8.566141 7.585628 
28.100529 -15.332463 7.781589 
13.003587 22.208027 6.497229 
2.035423 28.106676 -0.795070 
14.901156 16.102728 11.181250 
-28.212746 -10.772038 15.650079 
21.803762 -0.551028 15.009255 
15.512037 8.261750 6.610941 
-28.337570 -2.933071 4.977668 
-27.891886 -15.986890 0.908727 
-16.815201 -5.277906 10.944022 
-9.190056 27.228872 0.560066 
-25.694872 -17.180500 16.671940 
-14.940870 22.686428 12.148691 
-17.262281 -11.662402 19.215824 
17.834963 -0.351386 6.075789 
-20.590143 -18.326450 13.160295 
-25.654802 -17.704626 8.189822 
27.563463 -20.429283 18.375986 
19.762253 19.987337 8.850928 
-17.723423 -4.085117 6.635561 
-15.694061 22.613668 8.657751 
19.937037 18.067457 6.440849 
-13.381335 21.681475 -0.553009 
-2.112075 29.118429 -3.650065 
19.188723 0.886427 11.506025 
3.928505 27.025415 -10.257026 
-16.848295 9.955127 15.269250 
-25.243322 7.107428 -8.048012 
-9.099405 25.443335 6.251547 
16.709116 10.990825 3.060199 
-24.310108 -9.454786 15.480994 
-18.981472 13.622208 15.340244 
25.635475 1.751682 12.251148 
-21.094042 -8.456074 11.278156 
-4.045496 28.405264 -5.358121 
-1.153025 26.629768 5.546957 
-21.137554 0.225044 13.804259 
-26.228546 3.398908 3.783327 
-6.522602 31.335108 9.280822 
19.607733 -8.000246 -0.637280 
-26.652382 0.660944 21.386408 
18.110529 6.938286 6.214534 
-11.183436 14.643216 15.256446 
-25.373243 7.023117 8.585361 
15.424097 16.153168 6.184669 
19.868614 -13.143334 4.751950 
5.903468 18.315918 19.234274 
-32.014751 -12.396585 -1.561899 
-22.491325 0.778078 7.231328 
-27.599220 -0.396509 16.173658 
17.192636 -4.572190 13.078032 
15.206343 7.764718 -1.328002 
25.740980 6.955082 -4.799951 
-14.226764 20.044218 16.534752 
-18.620436 7.219796 10.208258 
19.755093 5.156462 5.396951 
-25.406467 4.877822 10.436799 
-26.892122 3.411283 -0.631853 
24.059732 -15.449608 8.583785 
