12.629736 23.265783 8.177634 
19.538784 3.922347 14.962087 
-0.943213 25.374456 0.656414 
9.802686 27.491049 12.440430 
16.851181 12.601583 -0.047979 
-20.610041 15.802788 17.210398 
-4.219072 29.656672 14.494689 
1.855661 31.120434 20.225843 
31.348347 -10.736398 2.756062 
-9.863910 25.927185 0.840981 
27.853596 -12.987358 16.749285 
28.763460 1.981622 18.002214 
-4.374709 27.895615 4.578257 
13.619052 29.334238 10.489786 
-24.833937 -15.414930 9.914620 
7.185848 18.955454 -4.842349 
-1.133422 25.688425 16.185970 
26.652773 -7.797930 17.874460 
0.373174 33.850773 8.656796 
1.320773 21.532972 -0.062641 
-13.513662 26.178455 15.791133 
-19.837700 -12.918087 11.345916 
27.435221 -11.187053 1.625615 
-25.548946 -2.088313 -3.710841 
17.382605 -4.998858 15.970770 
-0.887663 29.345947 11.455290 
18.768173 -2.475864 7.176275 
-24.881248 -6.816480 16.262363 
-19.135405 19.621067 -1.875998 
7.780906 28.504549 -0.234498 
18.843103 -3.891697 -0.844304 
-16.428593 4.845928 -5.278705 
15.722261 23.092756 -5.342471 
19.387468 19.561769 16.471182 
6.356772 21.981668 -0.021451 
-6.884037 27.087143 1.092268 
24.541281 -14.857018 11.653402 
24.044844 10.595920 9.812187 
-15.816739 9.042384 15.406483 
26.353470 -12.702707 1.727813 
14.227523 10.071351 15.066302 
-14.315642 23.932043 -3.144998 
30.511219 -12.363489 4.768308 
23.469608 12.813849 7.039895 
24.495117 0.741945 -2.640904 
-13.325154 9.453394 21.664104 
19.757265 18.284454 17.188126 
-5.491913 25.925346 3.355428 
25.528566 -15.174127 12.421265 
14.752241 19.174559 14.130315 
-23.036688 7.060674 -1.172690 
24.312159 11.592288 9.017116 
20.718960 -6.638907 7.875637 
0.656833 25.441818 5.725100 
-30.634773 -8.898314 3.935053 
10.477094 24.918682 2.816036 
29.259016 -11.189422 20.180285 
-27.944490 0.366058 -5.601416 
-15.980128 13.927788 8.908799 
-17.072355 20.213289 5.947357 
17.085634 22.624954 -0.261607 
-18.956047 10.880243 0.660432 
-11.940294 16.637476 7.875537 
-25.031706 7.121047 -7.075153 
-24.470564 -9.225005 1.309667 
20.275999 -8.563665 7.644689 
22.690348 4.129896 7.420813 
27.523170 -4.821211 15.594414 
-11.204207 24.053194 -1.324460 
-2.648410 22.488726 -0.225872 
4.803030 28.726135 8.867978 
30.466684 -9.342644 3.783418 
-17.737226 4.863595 0.230452 
-18.451122 3.723892 14.564918 
5.528669 28.530844 5.183282 
-16.757223 0.067449 4.216461 
-26.505503 -0.297927 8.170123 
25.958416 0.261253 13.584432 
15.122159 27.318758 16.007563 
19.398870 19.573694 5.752335 
-19.732244 19.047825 20.663406 
-12.719637 26.193459 -1.023017 
27.213617 -0.401483 5.217982 
28.043556 -10.834665 9.474674 
17.761076 1.963242 14.437483 
27.954115 -13.393461 6.942397 
-5.887693 31.263933 9.012636 
23.613132 -5.585617 3.538850 
-24.317001 -3.937134 3.530548 
14.355906 22.843924 16.012192 
28.504597 4.196142 10.645200 
16.248419 21.584549 2.784282 
-7.250253 26.915640 0.140914 
15.924849 15.477244 -2.022284 
16.647741 21.502573 -6.649370 
-22.719353 -9.222627 6.714073 
-0.845090 22.787457 20.564484 
-24.530857 9.021030 -1.625560 
28.346569 -10.511607 11.838360 
-13.268886 12.041215 13.750538 
12.466065 24.930256 16.100632 
-26.019575 5.445625 -0.986845 
20.327908 20.708630 12.898981 
28.170193 -9.657749 9.370355 
27.495571 -0.074904 10.638574 
-12.396587 17.041731 14.883032 
-15.001224 0.751416 16.403904 
-27.313667 1.410262 5.586748 
16.680914 27.411291 15.390381 
-11.083682 17.067013 10.546086 
-16.915535 -5.883300 18.922226 
29.836109 -11.167533 3.023671 
-27.722170 0.810626 2.065540 
0.688937 23.534067 3.403418 
23.104887 -6.484162 15.283866 
9.690426 24.220425 12.909019 
-8.732732 27.224018 5.634377 
-24.607153 7.826190 12.664984 
-15.260505 9.022493 -2.218659 
8.197039 26.231874 -1.856616 
22.425270 -3.635448 6.206560 
12.285553 29.602291 17.414753 
-25.286528 -10.765922 15.895540 
6.527580 28.932364 2.900248 
22.337732 -10.205243 0.437345 
-29.187735 -5.800942 12.140909 
-13.169233 14.365626 15.198462 
5.155679 26.244415 14.039310 
-17.469549 11.498347 4.696519 
21.603027 -8.261262 12.877192 
-21.807571 11.286732 -1.946939 
19.553034 -4.005310 3.486413 
-24.015697 -12.279972 1.658483 
-18.002043 13.361978 -0.427266 
-16.786745 22.853666 12.574135 
-12.427071 17.988298 13.802527 
21.024401 8.305082 3.056118 
-14.351020 15.295671 5.188197 
-19.814497 6.454932 12.675895 
3.783136 32.613075 11.813660 
-3.477308 24.126686 -1.410766 
17.911886 -0.205463 -1.376919 
-15.090742 10.863030 12.851950 
-22.851349 -5.226575 5.074967 
-21.042683 -4.251121 -0.204935 
9.187041 22.562971 2.791126 
17.597319 20.094479 15.213046 
27.953995 2.117305 1.798625 
4.943772 25.221828 2.673122 
19.215624 -2.245409 0.145832 
8.023522 31.841345 9.967951 
-15.377183 12.573029 1.184133 
25.591331 8.140382 9.608046 
27.349333 3.861440 3.470826 
-24.620033 -2.147897 10.225467 
-11.206877 24.508759 13.997849 
20.791830 8.528233 15.283731 
-7.170628 28.603373 18.861177 
16.062523 1.583712 15.839827 
-15.008304 2.215832 12.871707 
-27.486414 2.688124 -4.403287 
0.790277 28.936699 6.570623 
-8.629568 22.421108 3.868352 
22.293215 8.546303 11.331323 
-15.470486 19.100458 5.921770 
-10.495730 25.240269 5.820690 
26.751570 -11.724372 1.506403 
-2.636408 27.390335 -7.611758 
-9.144977 26.922625 15.454294 
-15.561383 22.022964 -2.186990 
-27.422705 -13.387862 3.469864 
-5.231414 21.236160 22.072063 
-15.490088 21.401112 10.253314 
-13.527351 17.123014 4.259431 
-17.305443 -5.728030 21.051111 
17.147491 12.231849 -1.617578 
-14.972133 8.504874 13.273144 
-10.667522 23.100040 11.600189 
-24.360880 11.210073 14.335747 
-23.786022 2.359747 15.137025 
25.360626 -2.873286 2.896688 
15.613309 21.208307 5.261370 
-15.362221 20.638903 13.834142 
6.926647 26.850254 7.282406 
-20.773060 -15.166034 7.846959 
10.847779 22.313669 5.284977 
28.158276 -1.771405 2.572427 
-1.370886 29.688513 22.391071 
-13.632087 26.512999 11.331100 
8.861429 30.560366 17.522791 
19.847696 18.762510 -3.651128 
-18.181105 15.351083 11.878755 
-14.690207 11.293513 7.016278 
-5.901176 20.123024 -1.450429 
20.257996 17.475849 2.215315 
-16.078844 2.702982 13.858639 
-4.322501 29.507307 13.608769 
24.825438 -10.467527 10.937200 
29.019632 -0.857373 17.822477 
24.542633 -14.480700 5.014947 
-18.934883 4.268565 6.605956 
-20.939142 16.701485 9.267435 
-1.938611 33.279053 11.438468 
-29.348894 -7.426925 13.313787 
14.494529 13.653461 9.481337 
19.370464 15.151333 16.625912 
-17.419865 1.417176 -5.228092 
-5.891497 23.129152 -1.437424 
-18.515432 -3.456634 -4.009402 
16.769836 3.701515 9.020251 
11.929272 14.373434 -3.149796 
-4.216855 32.512104 9.091841 
-24.821827 8.235534 -6.075749 
25.941259 -8.384753 9.061993 
-18.651800 15.409984 6.476274 
11.083567 29.865679 18.724258 
20.566748 21.747864 18.445433 
20.530857 -1.020961 13.924072 
27.887718 -3.901492 5.075411 
26.082232 -5.482420 1.244752 
21.025343 17.005482 7.084320 
-13.879849 17.845089 4.536059 
20.476984 -2.822369 10.151001 
22.109192 12.747890 14.708732 
-29.134583 -5.071977 19.146173 
-13.486687 25.256180 5.729243 
2.737839 29.222460 12.385394 
9.570106 21.599247 3.902783 
-14.723792 3.804233 19.428787 
-17.661541 7.798240 7.891763 
12.702085 19.177771 4.332450 
31.442099 -7.835815 0.018570 
-27.100523 3.371986 15.965773 
-15.003926 24.765799 18.409187 
-29.000708 -7.193182 14.185078 
24.707170 -3.545643 13.117556 
-25.042114 3.306648 -3.931963 
-8.578455 30.831442 13.275247 
18.113148 5.020309 1.013766 
0.277381 33.776188 10.639213 
15.254075 7.879596 1.435194 
-21.704428 10.143509 11.943620 
-12.014181 19.900282 4.735415 
6.056867 27.386883 -5.677402 
28.919401 -13.066667 13.994499 
15.308751 9.162379 0.228308 
-18.612432 3.289609 1.139735 
-13.850215 7.585724 15.181240 
9.969432 27.941544 -0.630346 
-0.938740 26.465105 9.712540 
14.636744 7.928828 3.434267 
-13.569777 13.382724 -1.015994 
27.769768 6.901769 9.100621 
26.395597 5.750402 1.629200 
15.460440 10.260982 -1.103653 
18.042860 16.780777 6.617779 
20.651138 -8.226272 11.452941 
11.657192 27.358828 0.973356 
-23.118116 12.239768 3.364860 
-22.853428 14.354227 19.971416 
-26.037661 -7.770554 1.931982 
-9.250193 24.538733 8.320913 
-18.442902 13.158433 10.888306 
14.746184 23.101768 -6.806432 
-28.920078 -2.887432 -4.730327 
-19.465919 18.212093 -6.477856 
14.293336 12.214130 2.894331 
-13.332413 24.670250 7.699733 
5.889091 28.490059 10.017473 
1.553508 30.104576 10.551207 
13.754333 28.317322 7.859985 
14.203038 25.185896 16.760746 
-28.385485 -7.162652 15.399389 
26.091949 -1.101803 10.397734 
29.591623 -2.302636 -0.083784 
13.364552 14.437417 13.663910 
0.997927 25.573563 2.780754 
22.429678 18.851812 15.799900 
23.277000 5.867480 -1.690141 
-26.175550 -7.280960 9.519690 
22.270323 -6.130610 7.311740 
-22.364355 -2.746015 11.749747 
25.082172 -0.009864 -2.283989 
3.619414 21.820850 21.977829 
-19.788599 -14.211936 6.591808 
28.844969 0.682756 0.256897 
-3.140691 27.156729 16.392899 
-17.176432 11.859730 14.687471 
5.131365 32.811161 8.839915 
14.262288 16.635218 0.394704 
-25.009064 -4.903884 8.330954 
-24.137741 11.356812 1.247041 
25.486996 -3.327742 6.463758 
-23.033005 -8.929287 1.120178 
-20.706566 17.216461 8.556386 
20.685677 11.347599 -1.970597 
-20.371557 -5.579781 6.400503 
20.506346 -8.942465 10.602613 
15.565207 28.996138 10.034756 
18.790861 16.101337 1.326025 
-19.850243 11.518259 5.370208 
8.737728 26.405962 6.751880 
-14.841593 21.343296 9.662204 
-1.649870 27.672422 0.894727 
17.380892 26.844740 15.244093 
13.780975 23.973509 13.839820 
-8.355985 27.632898 -2.541394 
-16.560585 22.726357 -3.923865 
-13.606543 22.013775 17.791344 
-22.865705 -7.737086 7.873772 
24.604519 7.209064 14.726345 
14.743928 17.484514 -2.481023 
-19.701010 16.512062 5.010162 
-13.210668 16.506258 3.688160 
-21.805958 -4.809812 0.682347 
-16.162262 7.825058 8.202827 
15.407247 25.975203 7.278520 
20.804007 -9.376744 2.867085 
13.274702 18.947968 2.427224 
28.440470 0.559901 13.869637 
-28.835255 -7.981170 14.459145 
23.695187 -6.191862 14.007588 
-30.582947 -9.440761 -0.566333 
-15.704497 15.910946 -4.102997 
19.061499 10.379565 -2.577648 
-15.260938 13.912335 10.227835 
-18.809050 -9.693665 4.830280 
-27.179344 -10.265639 15.024622 
-12.049284 19.961006 -2.972099 
-17.259239 21.859394 10.312303 
-5.600883 28.483204 -0.832006 
-0.430194 33.426674 12.675134 
-23.648527 -7.788198 8.668999 
-18.386061 -3.820279 7.773707 
-21.741474 13.296663 3.754099 
21.246145 -13.385006 7.903007 
-17.277763 -9.196995 13.998812 
-19.766500 10.603158 12.424497 
17.160854 7.372298 9.626832 
15.249567 9.914694 -0.233190 
23.787893 4.693207 6.678863 
0.080928 22.726816 2.029112 
-23.085289 -4.216281 2.966143 
17.517998 1.641117 13.511434 
-3.928035 28.521873 8.827790 
24.060074 -15.549980 14.299013 
-13.220361 14.233881 -0.935815 
-16.640118 3.544908 4.494507 
17.884453 6.954655 4.860756 
-20.764071 15.593953 1.425369 
-17.538395 16.543633 -4.053702 
-18.353905 5.535609 14.113963 
-23.308424 8.761711 11.061103 
9.005313 25.221441 -0.038780 
-27.697861 -5.949961 7.493080 
19.703243 -2.494978 10.809744 
27.949045 2.461139 13.005412 
13.853691 9.668544 2.387271 
-9.278735 27.423275 -0.230725 
19.278276 7.263560 8.889902 
-20.339287 -10.329988 8.112212 
16.905983 9.405039 14.630072 
25.625345 1.837491 7.250746 
-8.305921 27.541664 -3.365424 
4.904085 26.774113 12.408766 
30.198946 -9.282967 6.647799 
-10.128716 17.451672 16.560694 
15.709981 4.455752 17.098137 
-21.040709 14.452298 -0.222114 
-17.731955 14.182581 8.655284 
-17.505524 -3.190971 7.755527 
13.893728 23.519049 16.225977 
-20.182995 -1.877925 -3.031762 
17.658035 26.431259 8.675264 
-26.141035 -13.820101 17.315434 
-20.040819 -5.842691 3.581349 
-11.305625 16.282005 9.472014 
11.107623 27.377081 -1.143722 
28.638374 -4.239345 5.512544 
22.155890 -6.687984 1.365290 
-15.539979 19.687216 8.129947 
-27.925383 -10.557223 6.344244 
-18.999207 -4.655911 -0.540208 
20.355886 -0.371894 12.291226 
-18.043331 6.271061 2.387068 
-13.883835 22.595383 8.413963 
-7.287354 21.358425 16.880028 
21.504829 7.662600 2.327813 
-22.549610 12.017226 -0.455597 
-22.344913 -3.294724 8.585420 
17.506838 1.112261 -1.282309 
21.067888 -13.522434 6.160501 
18.318104 -2.346127 2.056744 
-25.988634 -4.040249 2.478656 
24.849964 -6.662834 10.654738 
9.955283 24.208803 6.139996 
-19.504883 -4.133633 9.905989 
31.392067 -9.267342 4.123205 
28.660217 -6.784907 14.366750 
25.345476 -12.552526 5.633761 
-28.185413 -4.325006 8.092321 
-22.591066 9.870215 -1.926816 
-18.221066 9.674211 4.807066 
29.110487 -0.234760 -2.083337 
-21.171741 -10.510663 11.069386 
27.629421 6.266002 6.548104 
-16.849838 1.186951 2.777617 
4.947430 25.926348 0.022936 
-23.255489 10.396587 9.715960 
18.869593 14.852463 6.842253 
-11.507905 25.136425 8.122111 
16.643591 16.310648 7.238632 
21.030964 18.615128 16.733637 
13.867803 21.127996 12.074676 
6.894392 29.221329 6.164577 
-20.081348 19.696873 9.003061 
26.707418 0.409879 -1.571739 
-27.416784 2.223550 16.513556 
21.803915 19.295145 18.808603 
15.775049 22.209471 4.858637 
-13.218266 14.235372 3.208605 
13.521059 28.491152 19.591902 
24.317238 -3.580545 7.662681 
13.781390 22.312212 9.649773 
-29.484339 -7.262233 12.102344 
14.493909 28.593552 14.149805 
18.043484 14.901958 16.952415 
-19.718330 -1.968794 -0.858902 
-20.764050 10.494985 15.349115 
28.360233 -10.571621 17.311691 
14.229572 17.592066 12.307459 
-9.341574 30.005350 8.674108 
5.815019 29.019831 7.892697 
28.389496 6.412817 13.888616 
17.754444 2.314091 0.159214 
-16.231762 12.459573 4.609113 
18.119461 25.768696 9.442343 
-1.700464 28.656723 -2.945333 
18.281420 25.280661 18.926327 
-1.408999 27.926096 18.060553 
-14.823885 13.817135 12.806912 
12.227999 15.939374 11.617916 
20.142561 1.691617 -3.252074 
12.513586 23.205360 13.044803 
-10.749476 21.762527 16.852152 
17.707733 13.952875 10.400189 
-2.874997 28.171534 11.075426 
-7.600303 22.321625 0.760819 
17.373922 4.716208 1.682341 
17.896475 -0.521154 1.420712 
26.849392 5.119872 3.044058 
-4.770203 22.909790 16.018690 
-19.410698 -8.722612 14.484672 
17.627182 24.441332 21.903156 
5.729926 26.829376 2.531655 
13.169563 13.311773 13.248876 
4.341137 22.082310 20.418774 
-26.297045 -3.886032 -0.463168 
28.136913 4.210384 8.591700 
19.755669 0.223747 14.973804 
-17.866924 12.610437 4.906915 
-19.375862 9.993319 -0.147431 
-22.778751 6.375064 11.693237 
12.336523 15.319856 9.569870 
-23.672308 5.164256 1.635659 
18.245092 23.938555 15.612942 
15.124623 19.760719 8.320302 
-27.861183 0.185586 19.780491 
22.344191 13.594045 12.373939 
26.869139 -8.495702 1.046008 
21.219946 -9.459028 12.804842 
-17.416634 12.303902 3.932668 
-19.197536 -9.779237 -0.689261 
-19.041498 9.251630 7.147507 
17.006901 12.729146 10.579041 
22.623154 -12.873796 -4.364614 
23.995493 6.610433 -0.226734 
25.188738 -1.432647 10.446224 
21.193825 19.854464 20.083290 
3.679735 22.096029 0.993624 
22.855768 6.402090 14.995182 
3.447900 32.126904 16.183926 
4.229638 26.285896 16.436543 
-23.260464 6.924984 12.419878 
-6.381598 31.536560 11.779261 
19.027678 14.576156 11.090779 
20.070480 21.025164 21.719976 
-15.488888 17.025576 8.291690 
21.296553 -11.811684 -2.194796 
19.357357 4.555447 -1.075588 
-18.605608 7.258729 8.362759 
17.670679 -9.017751 20.432699 
-25.079676 8.423862 -4.211605 
-4.907688 27.587048 11.141047 
-19.881231 -13.258639 14.617566 
-28.269360 -9.886440 14.239432 
-17.960413 -6.516187 12.236407 
-22.775490 3.841276 -2.420168 
-10.711533 19.375332 3.172672 
21.339708 4.686962 -2.877685 
-18.146900 20.836067 20.644299 
15.059842 20.103350 -0.213224 
-6.002293 28.715822 18.477613 
4.975677 26.979689 17.266155 
15.281794 13.861988 16.693945 
-21.228638 19.234533 11.861114 
10.172540 27.633183 4.403664 
15.371250 26.882099 20.917107 
3.132351 28.509569 12.158765 
7.668436 28.384378 11.680634 
2.745630 24.452009 -0.837868 
28.555330 1.454793 12.507382 
21.572611 -13.842132 15.684865 
-18.353720 9.692693 15.627068 
-16.919504 3.073899 -6.574474 
-25.615643 -6.121950 3.130323 
16.344368 18.662058 0.509659 
-26.466215 -2.404687 8.063448 
-17.749416 1.146408 -1.845580 
-23.612177 -14.135407 20.767223 
-5.844606 21.454645 18.940954 
29.999123 -13.490396 2.497966 
21.327930 4.000504 6.417730 
9.887221 27.785053 -1.694997 
-19.718988 -6.652190 2.973997 
27.942226 3.803410 7.870382 
18.161066 22.786320 10.497942 
-30.293242 -8.710086 5.097569 
-17.318819 5.410470 -0.263367 
13.349520 26.415953 0.326950 
27.057220 3.549107 -0.680873 
-26.473499 -2.090422 11.251027 
-11.622864 22.417925 -3.249910 
-2.365288 21.009359 -0.806720 
2.681585 21.053892 -1.671302 
-8.880094 23.006824 4.952353 
14.400556 9.335047 15.412424 
-27.124083 -16.193415 6.773020 
-19.017561 14.013931 -1.982517 
18.556015 3.600124 -0.855985 
17.788721 -10.273388 17.713835 
-25.228411 -17.221140 2.301599 
-19.227207 2.344364 -0.649173 
-25.806154 -15.235914 9.708664 
-22.822350 12.629377 2.037520 
-29.366051 -5.075594 -4.245548 
-15.503894 0.802279 19.904650 
5.365429 23.654524 2.231163 
-25.555845 -8.899536 16.391878 
-28.493748 -3.203791 14.359046 
-16.663654 13.721843 17.642981 
-23.842710 -15.414909 10.059118 
-19.950891 -10.901834 -5.816378 
-8.000020 26.423464 11.078598 
-18.826160 5.073855 4.931990 
-16.084351 -0.189827 21.277861 
17.185589 -3.499982 15.889864 
8.015124 22.643955 0.551452 
-11.512051 14.243518 -5.721819 
8.448800 24.051237 -1.435707 
23.588480 -14.179121 4.255723 
-21.038738 14.019378 7.005592 
-11.907545 28.571554 13.727889 
-22.639549 0.965706 15.169085 
-12.637493 16.880541 0.808431 
25.589308 4.073444 6.209366 
-29.273027 -11.345213 7.970799 
-16.468061 5.867866 -2.270586 
-20.258289 20.095480 9.962833 
-14.550514 23.134012 17.926542 
23.988935 -0.748868 -2.464426 
14.197948 29.759581 9.647388 
-24.501104 11.269947 17.418768 
-22.661287 9.220942 10.719729 
19.921064 1.408037 4.879365 
-23.466469 -12.213172 13.852360 
21.383772 9.137070 5.535803 
-21.717920 -16.250849 0.504241 
9.752274 26.211796 7.003759 
-16.837151 21.758450 -0.725131 
19.178802 -7.763721 6.052809 
13.676974 29.149349 15.296926 
25.497076 -7.278278 0.727787 
-0.826780 31.799831 8.434657 
5.313749 25.278337 4.581645 
28.515322 5.038733 16.143068 
-25.830902 -14.520459 10.534873 
24.284445 -0.825935 12.883899 
9.413819 20.390985 2.372840 
-11.837275 17.723766 12.955107 
-19.154270 19.260874 2.611735 
16.041849 5.243940 -5.676102 
26.049158 4.918863 4.817573 
23.390980 13.757895 10.023132 
7.778846 24.751743 4.648047 
18.601809 6.467506 2.499869 
21.075243 -9.633599 7.412262 
25.615019 -13.933663 9.258311 
16.043947 6.703997 12.488016 
9.682998 16.853586 -4.887491 
24.406380 -3.117228 6.776720 
-14.395431 13.154974 11.383830 
17.085196 24.338337 15.008951 
-27.582605 2.711773 2.871911 
-12.904162 18.984720 -0.319627 
-15.203811 12.754984 2.930220 
-3.677670 22.552778 18.731638 
-22.759411 10.775581 14.408437 
12.478232 26.488865 7.949680 
26.264427 -4.685443 1.555162 
16.601858 8.220697 6.931962 
-15.781565 6.494670 -6.747646 
-21.527250 8.129986 8.531775 
22.482931 16.641214 13.193895 
11.721806 23.996561 15.427234 
-17.870659 -0.264984 -4.514630 
-19.212498 -10.221137 13.624326 
25.305885 4.751206 5.649863 
16.858896 7.773897 -0.683218 
-14.306695 5.345203 17.665388 
13.013408 24.439398 9.066145 
3.776570 31.539799 9.249746 
-8.868026 19.958143 16.687042 
-12.250395 22.409554 17.652548 
-21.521233 -13.136381 10.579748 
-3.695491 27.305954 -7.639729 
-13.493146 25.364761 20.110130 
-26.765167 4.556286 16.998667 
-14.679888 6.305025 13.936324 
28.381540 -4.355303 6.731673 
28.567661 -8.494710 5.370350 
14.148731 18.149847 -2.315153 
-28.344925 -3.850014 2.600387 
17.770222 -1.997038 2.833763 
16.013264 11.757663 9.342354 
22.557882 12.806861 -2.229831 
30.163681 -13.252132 0.614238 
-4.193480 28.947338 12.495879 
-23.221685 -5.084542 2.692347 
-15.812663 21.739878 -1.423229 
13.631072 28.785112 18.406597 
-16.527142 23.269045 10.515420 
15.645363 28.397175 14.294767 
-3.091549 29.378622 14.880466 
11.761422 19.571814 -1.130863 
-19.530155 -0.585694 5.635901 
-20.844124 -8.709865 6.866023 
-24.428642 -3.141543 7.936776 
10.998631 15.653562 21.606916 
18.060854 20.997570 11.913157 
-7.595763 27.057821 10.485625 
12.213419 26.865522 -1.715048 
22.151045 10.750329 3.367145 
27.214108 -0.957779 4.178363 
25.719933 -14.554282 6.893109 
-9.897418 27.318285 -1.552800 
-28.672216 -14.832391 4.941858 
26.620890 -8.906087 11.594990 
-11.108506 29.601522 10.621650 
-17.185219 14.132507 6.611391 
-5.402472 30.063118 12.912728 
13.548053 13.846923 11.053767 
-29.183798 -13.416424 6.126092 
-16.755301 20.715488 6.700991 
18.500210 17.602625 6.058762 
3.785321 32.314301 10.237545 
-21.484285 -2.346367 13.643556 
13.747936 19.436142 10.731355 
28.094576 -6.975651 11.043679 
-26.875439 -16.228710 7.741611 
-5.716353 22.041672 16.980467 
-11.564466 17.818790 7.678753 
-16.065245 7.946808 14.363432 
21.683882 17.081606 12.928527 
22.869408 8.022399 3.737686 
-8.281237 25.197830 12.249938 
22.123302 3.495284 6.994701 
-12.177756 18.749657 -0.654481 
-15.449439 6.551570 12.100256 
-11.747572 22.231815 9.827792 
5.012456 29.784786 11.404583 
-23.064671 -2.852236 8.092383 
12.746348 26.209368 -3.266136 
-17.957542 13.516179 -2.256636 
-28.650730 -8.996137 14.468014 
20.030756 -8.922929 1.610555 
21.692476 12.498276 1.417519 
-24.982330 0.008352 -4.284909 
-26.792717 -9.736044 16.065578 
11.833186 16.364187 13.203227 
12.925856 26.756025 14.680975 
-22.843719 0.203042 7.243573 
1.329620 27.896721 13.696556 
-23.128214 -5.752115 3.813809 
17.116726 -0.923593 5.153983 
15.399316 23.228102 7.400423 
28.076088 5.969209 16.799391 
16.300140 2.447701 5.145858 
-17.845535 0.134118 1.404399 
13.189024 24.920025 13.592769 
15.803071 22.376436 6.553446 
-28.163155 -3.103792 12.969281 
-17.658617 13.525705 1.247247 
-10.452743 25.433870 11.739325 
15.598303 22.019262 11.649935 
23.309736 -12.289878 17.355156 
14.831007 24.363794 7.812915 
-29.649633 -11.039579 -6.111281 
21.604553 18.226273 9.067759 
-16.024525 17.186726 7.571336 
-23.320261 12.175590 1.396326 
-14.383388 9.519954 12.012822 
0.592517 26.206846 6.983560 
-6.063196 29.287916 17.576012 
-20.043127 4.721067 5.637916 
-7.206909 23.785278 5.549029 
-25.726273 -4.895795 15.890217 
-9.746779 22.547483 2.964250 
-4.158119 32.152687 13.073826 
-18.671808 18.927910 13.515054 
19.494375 7.091736 2.705990 
-16.370035 22.394135 3.221668 
21.908543 2.587183 6.695720 
-14.754035 16.330587 5.308550 
11.120070 25.690947 0.116861 
-4.384841 32.185356 12.204584 
28.640720 -6.355674 2.071887 
19.447170 14.839666 13.962790 
-15.380202 17.610872 0.812622 
-4.351182 28.906105 10.814682 
-26.429386 -15.492327 4.987111 
17.663969 26.988672 9.888094 
19.425320 6.426742 12.311295 
-25.445747 4.883316 5.581697 
-19.669342 -10.416185 14.450766 
26.118427 -1.530433 -1.320045 
-4.138239 28.609646 6.518521 
16.324331 20.275385 13.915831 
-22.650188 6.856977 -2.821855 
-10.408907 22.318317 4.741446 
14.560084 24.492998 -4.563629 
-1.058090 25.869547 13.641197 
18.100279 24.734892 8.423116 
5.270751 27.811777 9.716180 
-14.240769 6.846325 14.557154 
-14.923067 24.697329 16.331688 
-13.042004 24.361248 16.853806 
12.383203 17.789883 8.320601 
20.257599 19.880255 15.325964 
-22.740908 11.967771 13.501002 
-19.434420 15.686311 6.770619 
29.354483 -9.916208 19.156427 
-19.048262 5.901372 2.765601 
-19.897249 14.672499 -1.058631 
-10.433402 30.106798 10.816017 
-26.121641 2.086669 13.534474 
16.651867 10.163333 5.458793 
-25.179533 6.346224 -0.137125 
16.095768 11.129823 0.497019 
18.791729 17.618782 17.426994 
2.036590 28.790646 -2.424873 
-18.720192 8.783880 15.387298 
9.264820 25.258179 5.158877 
29.040627 1.962823 15.785315 
16.155931 4.814028 4.290782 
-18.165672 16.925844 6.234858 
6.460076 22.377373 2.329056 
24.973553 7.367424 2.299904 
-24.605623 10.436451 14.713105 
21.938190 19.508512 17.636173 
-26.459167 -4.501536 15.782142 
16.598619 3.611413 -3.214312 
22.774845 8.609193 7.132536 
-19.952774 0.570807 6.442666 
-24.275534 -11.144043 4.286127 
5.999814 28.755220 3.784712 
29.006714 -1.421442 0.795915 
10.683447 26.154606 6.751463 
17.215773 21.439842 7.733572 
-19.467306 10.442921 -3.207294 
27.886086 -12.672337 10.871887 
28.200932 -12.996916 3.233077 
28.426861 -11.755950 9.319604 
-19.227478 -12.043270 8.214597 
29.402437 -9.776402 8.613440 
20.930195 11.271957 11.780240 
-22.449375 -8.510290 7.356118 
0.688279 29.711052 11.377255 
18.327614 19.888777 4.720142 
17.778053 13.065332 10.389714 
6.052665 24.863089 14.763186 
-7.606222 27.407164 -5.030751 
-8.319769 25.203325 9.015113 
-14.633598 8.639855 8.061862 
-17.183846 -1.428736 12.919015 
18.802853 20.884399 -0.782746 
-15.535639 2.775572 11.254346 
28.638830 5.091577 15.251179 
16.210585 26.558315 6.929878 
-22.823141 -12.888061 1.745560 
-19.783506 2.359780 14.991290 
9.205043 23.656620 13.567108 
-13.965050 19.913771 8.652909 
15.474679 8.686801 4.327391 
2.344067 20.838600 -3.193135 
-8.765391 26.666746 10.222910 
27.877884 6.988891 15.185505 
20.392456 15.473742 9.285601 
-20.076338 7.472561 6.912332 
16.296307 0.308131 15.651973 
4.140640 27.625134 11.735407 
17.216410 5.807182 3.851275 
-29.336094 -6.196213 17.867336 
20.352880 6.722493 14.467194 
15.903356 3.658009 19.070013 
23.903561 10.082033 -3.514033 
0.600122 32.077629 18.197542 
-10.427065 22.133032 13.457438 
-3.506263 29.797762 8.703523 
9.592039 28.410837 8.958012 
-2.914501 28.591206 -2.352475 
-23.634811 -5.426361 15.750095 
18.713587 23.947357 10.711042 
-22.741638 -5.011422 6.069858 
-13.135142 18.288256 12.451979 
-1.040673 27.425802 -7.564019 
22.883190 -9.360677 8.489693 
-23.340431 7.256952 1.283431 
14.079187 15.179685 7.342396 
-15.581372 23.004391 17.699543 
19.973522 7.750048 1.204265 
23.720537 15.043247 16.019138 
20.377419 18.097168 -2.531973 
-15.138910 7.968869 12.328772 
-28.093567 0.503164 -4.562078 
17.741549 15.714643 17.334587 
21.635653 -8.856824 9.390676 
-27.736887 0.202854 -6.737556 
16.708473 15.672516 17.415276 
20.992483 15.073452 6.888708 
8.895815 21.981176 2.186101 
-22.144079 1.449401 12.853622 
-16.300404 15.884898 -0.657789 
-21.306524 6.318691 -0.468014 
1.535764 31.608149 8.949065 
-19.622957 17.515615 -3.190675 
-4.670563 28.314917 15.485810 
-29.565762 -8.286249 9.772401 
-17.517118 10.750791 7.926982 
15.726516 18.668709 16.695066 
16.518507 26.491980 20.023060 
-21.161854 8.824436 14.830425 
22.202776 7.088670 9.928264 
28.234741 -6.900015 15.137959 
22.475538 -5.244182 7.391327 
15.194757 7.175205 -3.784862 
-1.861541 23.066042 18.733818 
-6.086381 19.581381 -2.592328 
-18.903837 -7.536137 4.879504 
17.187321 1.997386 1.142125 
27.918333 2.502437 6.731417 
16.004822 8.181091 -0.537535 
10.541294 25.648499 7.484796 
-9.626729 24.105669 -0.216972 
9.891541 24.623753 5.226829 
3.634293 23.094992 2.887746 
15.908543 21.307137 12.361384 
20.265236 6.875870 12.653158 
-18.024494 13.875593 -3.496412 
-18.770599 19.460419 0.531046 
-27.299513 -5.691041 16.129120 
-10.443921 24.136980 12.118025 
-26.655996 0.158828 9.381756 
23.409630 0.185194 -2.843592 
-4.631467 24.640491 13.567500 
15.907776 2.611382 14.393775 
1.906341 27.562494 13.146735 
9.910723 30.326765 18.239038 
-22.753458 11.069946 -1.956352 
0.771017 26.032417 13.611694 
27.885832 -0.283430 2.788057 
-3.731784 28.690666 1.314068 
15.022675 18.028055 0.729886 
-2.477697 20.466183 -3.917434 
28.000862 -15.139380 0.823928 
-9.294122 20.784439 -0.746854 
-14.990843 8.068796 8.807387 
17.051983 9.039711 -0.063257 
-19.662043 18.647980 3.173806 
19.499346 -14.624255 15.507566 
-15.383386 3.138271 10.405831 
-5.306368 21.410666 20.551006 
-27.875069 2.471867 -0.759959 
-15.837208 24.253405 14.832034 
20.419851 2.006424 15.303464 
24.747942 -12.156664 1.089966 
-12.142464 28.301941 12.849348 
-17.111254 13.949595 11.861155 
-19.714350 17.490108 4.494296 
-29.160841 -2.731949 -1.633632 
19.955345 22.846607 14.779344 
14.746533 26.753187 7.397514 
-14.104485 20.427744 17.056164 
-10.772184 21.864035 11.886770 
4.556636 28.138075 4.336631 
16.039364 12.186095 8.589944 
-26.258696 -11.519967 9.928191 
-16.084789 4.241478 9.204663 
-7.871921 20.774479 17.073011 
-20.368048 -10.176206 14.863273 
29.402122 -11.936253 4.552052 
8.463305 28.024675 -2.723751 
-17.871279 10.544000 0.984151 
3.461950 31.736933 18.359135 
-16.656712 22.721411 -2.940552 
-15.732452 3.880495 11.176052 
-9.777020 26.533464 4.262585 
-16.864100 13.176062 -0.542358 
-20.354099 16.044109 -2.053959 
3.700895 25.662804 13.685441 
-22.843494 12.506475 11.812036 
14.314827 24.194284 16.564915 
-20.489546 4.105278 14.902061 
15.925419 12.771133 11.213747 
4.564590 21.887896 0.733322 
-25.064590 -4.327489 -1.137045 
-12.875463 13.078183 13.379556 
16.779068 12.990177 6.978879 
-16.829100 20.829760 0.099062 
-8.662923 23.962187 13.643461 
-8.206445 30.592672 15.202716 
-6.279277 20.612906 22.058882 
-15.481438 22.592958 22.270548 
18.761023 7.236826 5.407002 
-11.189645 22.333273 5.400826 
15.793098 18.988314 8.278605 
-9.709760 17.655741 18.099096 
-19.606304 -7.030619 4.345374 
-28.676912 -11.464211 20.953192 
-1.736877 24.459021 5.835503 
19.993404 -6.202630 2.359221 
25.896303 -12.013938 1.317797 
3.108828 25.246487 14.446636 
20.488926 6.426268 5.842402 
0.379872 26.438730 -0.023898 
-17.691500 -3.069056 4.383776 
-17.808655 3.226470 -0.659205 
-4.990765 24.981302 3.002105 
24.831356 -11.830523 15.275311 
3.276847 27.036133 8.376516 
-22.952841 10.219753 8.957167 
-15.156145 13.715541 14.258936 
-26.416172 -13.575654 18.931133 
-21.600859 11.684051 -1.002662 
-14.489425 17.885002 17.574995 
25.344126 -6.347286 8.987609 
23.851606 10.165812 -2.597261 
-17.164789 2.212049 -6.529548 
-21.245237 -4.850649 6.571577 
-16.119062 0.883267 13.897797 
25.388060 -4.963590 8.874789 
25.306162 7.161831 -0.832360 
-15.184939 14.042241 9.116342 
25.866917 8.920407 13.023598 
-5.742550 29.634081 16.529310 
26.761955 5.715703 5.516173 
-11.054182 14.873458 21.871443 
-23.991251 -11.993866 9.152429 
19.633789 13.043726 -0.459985 
-3.813307 27.808529 -5.889135 
-19.322264 5.992135 1.581100 
-19.912724 17.424131 -6.565353 
-19.837046 18.821156 -2.507074 
30.820639 -12.159172 1.943774 
-22.750559 -1.891935 13.794828 
-24.853111 3.715857 6.499926 
15.902187 16.933239 17.493757 
8.508338 29.099129 12.860067 
20.700069 -5.483177 3.988964 
21.768211 17.234913 10.134705 
-25.355379 -13.576712 10.674134 
8.486773 29.404732 15.012151 
-22.905279 4.569471 6.548736 
-25.845495 3.745877 7.704356 
-20.958044 15.107670 -7.435157 
-16.990431 21.945681 -1.551415 
-16.014925 9.362232 2.709650 
-0.850780 27.055861 1.805738 
8.981463 30.001879 20.377439 
-9.164240 22.805618 -0.462695 
15.815037 20.371391 7.858837 
27.250677 -0.612622 7.953027 
-21.741385 -5.579894 4.601038 
-24.775770 -15.815520 7.713125 
18.815847 7.216088 10.764014 
20.001371 1.516900 5.759901 
-12.840611 14.729600 9.630257 
27.661318 0.496110 5.047340 
22.759867 16.750010 14.131228 
-20.365286 16.709572 -6.462761 
6.879371 26.533306 -7.261868 
19.257360 -7.464968 6.858083 
17.180262 25.609123 16.938799 
15.776936 9.391493 -2.721574 
19.247034 -7.172318 5.336915 
20.443090 6.897460 13.487419 
-29.250038 -6.429548 21.182131 
-10.433860 24.470585 4.873405 
-13.633584 25.409220 4.847404 
9.258668 26.508287 12.693863 
9.037133 20.746916 16.397522 
11.537530 26.708948 10.684543 
-11.582350 27.288187 14.163031 
-24.639977 -14.424494 17.159204 
-15.929900 23.803480 1.713032 
-15.333486 16.531317 18.905600 
-18.281643 -2.033549 13.431740 
-21.306055 6.326628 4.289756 
-6.351998 26.357067 0.648256 
25.935169 0.218437 -1.951612 
-15.513691 21.865286 6.924463 
-30.446093 -7.939488 0.822389 
-20.414129 6.101231 4.731483 
7.136977 29.013140 3.927699 
20.775387 8.147984 3.859905 
16.974005 21.963371 -5.145445 
-24.264490 -4.839014 2.826335 
17.120882 7.339039 4.845175 
16.599083 0.693328 3.615689 
25.568207 -2.652745 1.534977 
-28.211777 -10.391105 9.560406 
-23.417561 11.856744 10.393385 
-7.208666 21.396055 2.175476 
24.330221 -9.641694 11.114538 
25.202715 8.638865 8.324804 
-8.909859 27.137127 4.749403 
-8.988749 25.378563 11.848717 
6.535198 27.485991 1.121342 
13.183773 16.229597 -2.041317 
-27.834011 -12.443660 20.898745 
8.542266 28.232681 -1.887702 
-16.636967 4.646207 9.703887 
-22.474485 -5.848123 7.638571 
-24.652922 -15.791647 5.243883 
-24.758776 -1.489388 0.819561 
-19.648859 16.734106 12.899433 
15.664038 20.369509 12.899158 
-24.588985 9.292689 2.603229 
-23.729708 9.705500 4.514223 
1.549446 28.328943 -4.381566 
-4.665740 27.847525 16.458694 
5.006144 29.300888 18.266876 
-21.809071 -13.944266 18.830568 
-24.113218 -9.595469 3.756925 
-13.750060 23.770647 -7.738417 
10.143466 25.792650 4.257392 
-14.336945 25.296301 1.194540 
20.590084 14.583330 0.285909 
-6.797606 27.670065 4.405700 
19.113562 -4.940519 -1.188913 
-6.092736 22.937441 3.921243 
11.029455 26.002556 8.070440 
11.968883 25.321455 -2.617362 
-19.579432 -10.986870 -3.008736 
21.041752 21.200283 17.263477 
-15.019161 20.785164 -2.209573 
3.100731 27.495621 1.802360 
25.603617 10.237468 13.570243 
31.348463 -10.581512 -2.171149 
-16.436132 -3.994611 14.333870 
-14.327290 24.168221 8.289546 
-19.422251 -10.252005 9.126980 
-19.604729 -0.403442 -2.550905 
-3.498437 25.133562 -1.606118 
-17.806578 17.447403 -3.726505 
-6.996346 28.102352 15.612015 
17.774403 0.401618 11.497147 
18.154749 19.622561 5.575992 
4.494582 23.135632 2.818573 
-21.362822 6.475015 5.374236 
-7.543259 31.357571 11.408448 
28.601830 -11.501242 11.817137 
-22.595396 -8.407725 12.376299 
-4.598897 23.411928 1.250421 
-26.331387 -1.947339 7.282942 
-21.725401 -3.476280 8.053663 
30.241385 -4.183740 1.113066 
-17.015646 8.633498 4.951759 
15.278056 6.479476 15.857167 
-19.751896 14.774065 7.611660 
29.279625 -11.950355 11.986593 
-4.479345 23.319811 3.101899 
26.490709 -15.759634 2.265374 
20.950890 7.772256 7.251502 
17.398251 19.899080 -1.710461 
-8.109702 17.789484 -4.421416 
-20.628883 16.147749 3.029798 
18.293745 24.898138 9.236097 
17.942284 -0.105393 8.451544 
26.791897 3.465008 5.386311 
-21.828707 -3.634329 0.788950 
-9.631966 21.550844 -2.458708 
-21.654781 -3.980897 6.984315 
-0.136416 29.050564 -0.888307 
18.600817 -11.275710 13.230123 
-9.472964 22.017715 0.467196 
15.848806 8.346276 9.139483 
-9.725321 15.983066 -7.137298 
26.648256 1.809422 6.817245 
-11.880915 27.055777 10.385217 
17.903316 7.369083 11.501635 
-3.079511 28.528809 3.054405 
16.660124 15.487782 7.123831 
21.854670 -12.281874 2.786867 
-18.791212 6.228448 0.365072 
14.185322 20.432955 2.594208 
-20.264404 5.896310 5.575149 
-6.960891 26.317600 9.517371 
-22.717756 -3.618543 14.749493 
-27.979874 -12.253823 9.964399 
16.710985 8.837039 -2.665577 
-16.105650 12.605884 11.339459 
27.983242 -14.875961 7.233813 
-13.109075 23.999990 9.714475 
-19.296974 -1.167832 -0.545632 
-18.985371 -4.530252 4.697547 
28.932920 -8.601515 2.014205 
22.412252 -13.511136 3.954727 
9.234958 24.671980 1.007169 
9.617239 22.470280 4.503934 
17.062836 7.890659 12.626108 
-11.154585 20.576412 13.203673 
28.292814 -9.546980 17.416969 
-25.469456 6.152564 -7.029739 
16.301435 4.529036 -3.245902 
-10.842213 23.004223 5.806370 
18.936346 11.584913 11.304453 
-11.333018 22.537859 17.309122 
-23.227701 -3.173716 -3.978125 
-6.753294 27.649277 7.764230 
-12.055436 14.100036 -3.721755 
-16.677887 -0.297499 13.777416 
28.432957 3.500365 18.155539 
6.807781 26.953571 -2.471732 
17.069601 13.008212 0.804606 
21.517227 20.588181 16.414776 
23.010565 -10.546841 13.881568 
22.377989 9.763884 5.111060 
-10.986949 15.921183 -2.760209 
-24.175137 12.009036 17.738480 
16.496405 3.195176 2.099239 
-22.206947 15.541585 20.058647 
18.596771 16.601761 -1.806136 
-16.296143 13.771132 13.448292 
-22.193636 12.083249 14.169395 
-8.238731 28.875101 18.959648 
-25.889679 6.977759 16.788374 
-26.874870 3.346020 20.168102 
20.343214 15.050456 6.168453 
15.957840 4.088366 14.512815 
9.109011 21.818415 15.029251 
-18.840725 19.250631 22.169231 
-23.123875 -17.481619 5.959564 
-5.369128 27.373909 8.310304 
21.942083 -2.807666 -2.037866 
-19.125788 -6.942824 14.158858 
-23.348694 -0.253172 -4.650039 
-17.385859 14.305554 7.403640 
22.764830 13.906032 10.549176 
-16.411978 -1.370846 8.419309 
3.415053 23.630775 3.719926 
26.181732 -2.216495 1.156843 
-6.921135 31.027697 9.092800 
21.548901 -4.003526 5.718332 
23.586288 -13.903671 -4.271643 
4.222335 30.923315 20.404352 
7.338601 28.049608 9.306165 
27.391247 -0.970217 3.239355 
8.231852 24.546000 13.961319 
15.121278 28.814714 13.600273 
-27.245447 -7.448383 9.283365 
8.805878 23.143232 3.273376 
-26.744467 4.583473 16.131004 
27.973618 0.492136 7.974100 
-16.245161 13.036621 1.011635 
-29.952579 -7.140620 -2.139546 
10.233063 22.904312 5.429094 
-15.947838 13.686280 14.579791 
21.308392 16.996346 8.201727 
-24.915434 5.517498 5.994186 
-11.220420 27.613295 19.167145 
11.581404 19.599306 -2.378890 
-14.249478 10.083968 11.380869 
-6.145550 31.529903 12.846602 
-23.209620 -5.612700 8.090760 
29.032797 -0.280506 -3.428245 
-21.053484 -10.225992 1.700560 
12.658101 26.884352 3.712660 
22.494312 -0.719850 12.014420 
9.429629 17.357595 -3.613303 
-0.913573 23.359009 18.007666 
4.949711 27.532742 13.601668 
-17.852068 -0.325423 -5.406691 
25.051086 4.958169 15.389035 
-19.933764 -14.561068 7.430484 
-9.956076 24.817722 14.224177 
-27.727247 1.368518 -2.685772 
15.613680 16.115990 17.429523 
23.822130 -0.428042 11.848590 
-13.862780 15.893948 13.059131 
-19.238178 11.455344 -0.673281 
-27.487001 3.746275 -0.968784 
-16.570053 8.004169 -0.149208 
13.528685 20.598206 0.309895 
5.460715 22.513906 -0.227428 
-16.055199 19.657234 2.445883 
14.135879 20.731066 6.203512 
-16.060152 20.739857 3.500061 
-28.497667 -10.897636 15.581389 
-26.405851 -5.682093 16.142525 
5.262658 32.883801 13.298582 
-15.949268 23.089535 4.288737 
-24.494368 -5.604939 15.966251 
-21.901138 2.461150 6.250193 
-15.034122 0.987224 10.266874 
-20.346609 10.706706 -3.256945 
-22.396099 7.827460 -3.969687 
-0.873990 23.056747 19.211546 
24.350821 9.078483 -4.385156 
14.850415 23.916155 8.818793 
28.368162 -6.239771 12.531017 
-22.486172 1.252484 -4.767550 
23.208494 7.488532 5.253173 
-17.279633 2.445861 -3.848879 
16.376810 4.045748 11.597850 
-7.955575 25.985689 0.263983 
26.701639 -13.954794 4.550288 
10.135381 27.760799 8.784389 
-12.306879 20.971947 -3.295060 
-4.146011 20.394793 -2.208641 
-10.594255 26.153954 13.665862 
-18.546415 20.449833 7.600119 
-26.674471 -0.989714 7.176723 
9.670507 25.032993 4.465553 
-2.904224 28.552650 4.591169 
-6.745412 23.693436 16.907587 
-16.665779 5.030754 -2.896077 
-17.674229 21.018076 11.919089 
-22.651464 11.681150 5.049412 
13.100241 20.520956 5.606277 
22.635389 2.840946 6.284691 
-15.582805 1.008617 7.710194 
-8.924098 21.430792 14.321376 
26.814096 4.693374 -4.155652 
17.075521 21.157396 2.483952 
19.233736 23.826868 14.319679 
15.333502 26.513481 15.328224 
15.129542 16.909857 6.162019 
-23.162321 5.516590 0.895515 
-17.548021 3.869370 3.005210 
-22.613672 7.927235 8.619774 
-9.553463 26.519659 7.190055 
6.104780 27.274166 8.481141 
24.360970 -3.090515 0.000100 
5.023181 30.766218 20.597502 
-24.954130 -8.302112 16.363792 
19.497957 17.001873 -0.894687 
-0.174324 26.105082 5.366460 
12.194592 14.119297 14.533233 
-7.926884 21.897511 3.346782 
25.228020 7.536633 -2.931399 
20.332314 3.875561 4.731901 
20.973711 -10.417631 9.204285 
-2.880350 27.037930 2.025864 
21.356047 15.201105 -4.720013 
-9.371154 21.830099 1.270838 
12.908309 24.974567 9.796856 
23.473621 -16.358000 16.457573 
7.353460 32.026588 12.572799 
19.788593 -0.953585 6.304413 
-29.070175 -5.175190 20.136818 
24.572559 -2.033442 8.762136 
17.045469 10.305497 14.329731 
28.935783 -12.366230 19.325737 
10.443196 26.046667 5.143444 
-19.418303 -1.918376 0.174828 
15.458817 20.007051 -1.138236 
-26.227343 6.240756 17.233797 
-20.097731 9.589711 11.988429 
7.054688 22.270285 -0.446733 
13.120075 27.593609 22.102703 
2.276618 21.867285 0.727651 
21.417713 -9.672174 1.334506 
-15.423267 9.181314 -1.389544 
10.070051 29.779602 20.093878 
11.582953 14.968246 15.757771 
3.186542 31.060198 10.919815 
-23.535109 11.887558 12.609592 
18.863855 -3.826726 -2.700628 
-28.829433 -4.747929 8.848872 
17.907146 7.659840 -0.583988 
30.832369 -5.362633 -0.052391 
-4.890684 27.730904 -5.682715 
-21.941517 17.034937 17.590565 
17.068468 2.446567 -5.473282 
-16.471714 22.774578 -0.781436 
-21.230536 17.197367 16.906809 
-10.229603 25.783974 4.722344 
-13.172143 19.895927 13.843899 
20.843008 3.636616 15.325458 
-19.710344 -3.174132 0.790717 
12.382440 16.536839 4.743845 
23.553146 -9.244194 9.184575 
2.185112 30.344606 9.854419 
-5.945406 19.398512 -3.548346 
22.235575 -0.158288 15.375223 
-17.604139 -8.826571 11.388524 
-22.026413 -11.331223 15.278153 
29.050980 -5.418800 20.436609 
28.475718 1.915682 19.314672 
19.147589 -10.525229 12.737151 
14.707253 19.637056 -1.518742 
-26.284044 -4.208233 4.853363 
26.533186 5.378681 3.861134 
3.665642 26.817419 0.754371 
1.787432 29.972754 22.360765 
12.269097 19.733368 0.656107 
-18.151047 10.718372 -0.803105 
9.460189 19.385118 17.458321 
25.001810 7.260609 3.730580 
8.993338 22.875231 0.198550 
14.968594 16.701477 7.783779 
-24.387850 1.268788 7.288617 
19.986271 9.142649 -2.094290 
-22.380632 -3.861622 -3.783074 
21.360287 16.530506 14.043644 
-28.064247 -11.990174 16.603195 
27.746466 4.995084 13.646919 
4.013165 22.728428 19.290283 
3.214042 28.766043 -2.349789 
-4.647927 27.245699 17.638630 
10.894102 15.596213 -3.859879 
19.699169 23.197613 18.700087 
-17.193165 4.451389 -1.539103 
-20.393396 17.861053 -2.990927 
5.065382 26.027719 -1.151372 
27.255724 -14.507473 17.985605 
19.983677 8.541741 5.774158 
-16.084579 8.362427 7.516964 
18.922512 18.375952 5.567534 
-17.276497 9.147434 -0.715312 
-10.909452 15.718294 14.177341 
-28.378103 -2.553524 15.363211 
-20.979603 16.114260 -5.339674 
-21.293430 16.192804 14.428688 
26.823568 8.166606 15.694741 
25.147343 7.715837 12.857756 
29.344934 -8.359440 18.402763 
-15.228230 24.289465 -0.167711 
-14.634493 12.884979 4.239892 
9.271838 26.888382 0.980981 
28.922752 -0.797194 16.626511 
-19.255095 19.366592 -4.276975 
-17.405996 1.350117 -6.484491 
8.880147 30.896053 9.610436 
-0.518449 25.203829 5.773499 
20.981058 -7.725402 12.373190 
-18.492165 1.548443 5.768704 
0.229011 30.937595 20.629536 
10.118178 24.935133 6.830391 
-14.423579 10.917483 11.123726 
-2.595504 25.659407 -1.876851 
-8.473606 18.583750 21.999472 
-23.610191 -16.634239 8.530982 
-24.464510 -9.105291 16.266426 
9.642343 24.481712 2.876456 
8.754809 18.080292 -2.971664 
24.584066 -13.165671 15.197353 
-24.292023 -6.655607 9.144552 
23.479832 10.895442 6.406266 
24.888151 12.753330 13.632579 
-18.226210 -0.841304 1.358328 
26.328104 5.833159 -2.999103 
-23.368597 7.330730 10.360411 
-28.978935 -4.704242 12.841641 
5.166847 29.112114 2.310340 
3.825697 26.351505 13.085952 
19.291981 6.379043 9.649623 
-15.268225 0.770518 18.613644 
7.910417 22.612167 -0.554264 
18.053682 -0.365127 -5.270882 
2.221389 22.957476 2.890450 
-29.171228 -3.977981 -4.420855 
-7.261074 25.174980 8.337217 
-17.184742 4.192001 4.147006 
-20.393141 1.097618 -0.405057 
1.074776 23.411402 1.767409 
-9.244013 29.353319 18.980015 
16.791483 27.935383 8.057661 
25.130831 -0.027961 13.790691 
16.517998 22.312164 12.124151 
3.731197 23.346184 17.872393 
17.191475 -0.937304 13.338369 
-20.859823 0.955434 5.607248 
17.995680 14.517185 2.182540 
19.521387 -6.108228 -3.445162 
17.307909 7.428504 8.747911 
-19.638395 10.046376 5.625097 
-22.717834 -11.581353 1.348968 
12.298386 26.810930 13.370650 
-19.073105 -3.456150 11.400078 
19.948448 5.028635 4.795203 
-28.522793 -2.643839 16.330046 
-27.489222 0.982955 15.085866 
19.915245 8.611487 10.741906 
19.179262 -3.757346 -5.028664 
6.267573 32.699207 8.705009 
-23.352329 11.791577 11.596739 
-21.551231 -12.924749 1.780018 
15.526253 8.173500 0.467634 
-10.586647 21.933653 -2.933780 
4.292963 33.094563 10.552635 
7.053638 26.183708 1.178899 
29.865482 -3.616900 -4.703045 
-23.605783 -8.932096 16.129841 
14.377893 25.651110 4.553963 
20.289846 17.766300 0.274827 
-20.330818 -4.063684 7.880826 
3.583789 21.179546 -1.532815 
-18.279442 17.746929 6.041729 
-22.949123 11.489376 -7.276610 
-16.058239 -2.661799 17.583965 
-14.520637 19.043930 3.261626 
6.548122 24.504366 4.517552 
16.745224 3.230803 10.329537 
-3.738927 28.453569 4.074932 
-26.096510 -15.588375 4.187477 
-27.564037 -4.768429 15.850065 
-5.829858 24.798512 17.450514 
25.136389 -8.259927 0.574448 
8.795616 29.225952 22.233006 
-14.574810 23.439999 16.416368 
-14.710217 21.745758 8.852191 
-8.609866 21.914560 0.918598 
21.922535 18.888777 10.966013 
-19.750162 2.372852 12.788920 
14.718269 28.661047 15.954582 
-20.997311 4.185394 7.284791 
-0.059492 27.281118 8.701809 
15.493277 11.633899 7.092356 
-22.330994 11.512639 14.861231 
-26.606373 3.349060 11.424520 
20.804117 -8.524718 2.573753 
-27.710756 1.834550 2.535637 
14.595090 24.432968 -1.320091 
-30.185114 -12.059914 -1.681384 
20.412661 11.419593 5.414022 
-5.433543 31.524990 13.509000 
17.007710 17.702778 0.063597 
23.670284 -8.275987 0.376622 
17.397245 1.347395 11.181364 
-21.449299 6.261514 1.992738 
-25.727005 -12.153733 12.907062 
23.376520 10.715489 -5.780637 
-18.089949 19.705690 1.047797 
-19.646816 -7.539092 14.572322 
29.316744 -13.890285 6.453486 
19.143574 14.709607 10.163684 
28.849201 3.554818 15.998803 
6.455334 22.827726 16.974360 
-19.840355 18.671162 -3.812802 
-14.195591 12.744123 -0.432075 
-3.622133 26.935865 2.401600 
-17.770897 22.249977 14.864027 
4.902062 25.949469 14.973350 
15.034452 18.355719 16.243816 
-17.864721 18.085938 -2.719523 
24.051840 -2.592981 3.281787 
-8.971396 23.735563 6.353441 
4.181534 28.764544 14.320155 
-21.775856 16.824581 13.109252 
17.702068 12.299135 -2.279559 
-12.013736 17.154850 13.905972 
20.123646 6.782710 9.567401 
17.398785 1.509762 -5.405781 
-23.609665 10.228755 -3.023324 
8.576844 19.113924 20.322334 
-4.293851 22.824766 1.833225 
-28.495386 -6.637984 4.890451 
30.928577 -10.778920 5.911922 
-21.234793 3.031013 7.602155 
12.174944 26.283300 0.007602 
-21.847965 13.432223 10.630930 
-20.509943 -2.829622 -2.228774 
-2.811423 29.424196 22.398979 
-16.994442 18.545168 -1.119406 
25.674772 7.701769 11.777373 
25.654238 10.970965 16.455887 
-15.585742 1.444673 12.438849 
-22.216415 9.122413 7.427950 
8.564747 20.316032 1.138780 
-3.604050 31.844616 15.296902 
-19.502769 -10.867839 0.066729 
24.083466 12.786291 11.522717 
-21.202702 9.458508 -1.325981 
15.900558 28.849819 10.833346 
-22.311798 -15.791571 -3.238399 
-21.959698 10.773062 -1.214127 
-23.985905 -15.892688 6.829073 
-15.442478 20.929750 -1.241234 
15.260741 28.227789 15.105473 
21.011803 20.372482 12.201855 
-3.052227 30.498402 20.560028 
7.758821 31.342115 8.479349 
23.123161 9.928373 5.656796 
21.954411 -12.352327 8.656560 
21.440540 19.583427 12.978143 
12.919674 20.147448 11.535793 
-17.079430 9.840248 15.627085 
-23.835581 -4.479707 -1.655263 
-7.547479 19.221796 -1.339636 
-8.967711 28.807198 20.132240 
25.344992 11.744730 16.861221 
19.570232 15.549661 3.375299 
-26.012302 -16.936491 5.575348 
18.639431 -1.415477 0.797614 
17.674128 3.891432 6.506263 
-20.011942 -12.098895 -3.058111 
-22.284868 13.022837 2.555014 
-19.816343 3.673457 0.115018 
-19.197824 18.741188 18.033482 
23.052738 -9.148625 13.764763 
18.683130 24.314993 12.424758 
-8.722842 23.405081 1.610904 
-21.689613 13.686588 7.586129 
23.001009 -14.408138 5.510214 
-22.106117 -10.151709 7.542761 
18.341034 0.467764 -0.228305 
14.133532 25.508310 8.754566 
-10.856822 29.699705 13.347093 
14.471060 9.183269 -2.769240 
-28.616238 -13.770892 7.193250 
-24.622915 -11.390309 9.283200 
22.833776 -8.298289 0.339471 
-22.162310 13.547465 8.931281 
1.222674 31.763687 18.793751 
-26.055874 5.868119 13.641037 
14.741605 9.895051 0.899238 
-25.899872 5.180147 -6.983857 
24.649700 -3.341304 5.077456 
6.495171 31.385082 8.748358 
-17.603212 3.252301 11.987694 
16.402451 12.377618 5.687874 
16.301388 4.390591 -4.373697 
-2.300432 28.841249 0.359687 
-22.182743 12.953237 -7.341978 
-4.913693 19.373278 -7.193718 
-28.741819 -3.409366 15.442847 
-27.801739 -8.910397 5.440185 
28.621021 -1.577189 1.763865 
-16.376564 21.403082 14.048502 
