26.807814 -24.377069 -0.320088 
3.070581 26.584455 -3.307184 
18.543650 11.819621 3.464047 
20.117205 6.252687 6.306827 
18.843472 22.080212 12.095626 
-26.945259 -4.026162 8.063031 
33.500340 -5.337457 13.618789 
-2.341851 27.681278 -2.567963 
21.315992 -1.678546 -4.916732 
12.749216 23.191973 3.474994 
-30.644026 -6.416659 1.361442 
24.746832 -11.782115 8.415790 
27.213625 -22.751623 0.582782 
30.352156 0.905782 -2.855196 
-33.493595 -19.270340 -0.393900 
23.449783 -8.757135 0.335326 
-18.142845 18.888494 -5.358344 
32.726177 -10.758049 4.099064 
-17.862206 -0.545949 0.219561 
28.925970 -2.537392 -2.267050 
25.783699 10.646780 11.792690 
-4.756172 26.168728 2.809287 
10.003165 15.913987 18.365406 
-13.532422 26.283571 1.976713 
14.831218 19.241089 0.930944 
30.335852 -2.704622 11.426038 
20.695505 21.235363 -8.094625 
28.376877 6.769229 9.841604 
-29.966494 -12.772176 -1.247077 
18.176243 8.372946 -3.999177 
-8.423751 23.133650 -2.064831 
-5.140547 23.055729 -4.048857 
28.072794 -9.681897 -6.029849 
-18.003593 -3.207911 11.113300 
21.985106 14.794750 4.467234 
-14.600809 23.896667 -8.105838 
-5.281816 28.905176 5.754582 
7.811824 21.188147 12.824945 
7.416881 24.279385 12.394571 
37.440861 -19.683752 -7.175011 
9.582619 29.579140 9.891252 
29.309444 -11.614627 4.345042 
-20.072531 7.215876 2.367769 
27.361343 6.928173 1.828649 
17.981495 9.540325 0.614814 
7.711503 22.494137 -3.178000 
30.771124 2.818491 -8.902645 
-13.835727 21.070269 -3.158460 
6.221699 23.085373 8.632887 
-10.674793 23.445633 12.823217 
-31.692368 -7.705058 12.921369 
37.385632 -15.731772 -4.241797 
-13.038958 25.200401 -6.299154 
-15.552268 14.359245 -2.896729 
-15.475022 10.801779 10.461647 
-17.042686 8.592432 -1.419321 
-25.985140 -14.248289 -2.376075 
20.879480 -6.560969 15.182855 
-16.944790 19.479239 -3.387951 
-13.155045 17.247993 1.653089 
4.902007 28.226711 -0.691122 
34.436222 -11.082776 -1.309938 
-2.759615 31.365911 10.038239 
-8.799735 23.718842 0.505900 
-5.483436 27.530874 12.279477 
-20.820765 14.375241 -0.637917 
-0.459616 28.420605 -5.807072 
-16.362209 17.022135 3.601622 
-26.166500 -0.843082 -1.891412 
-14.922090 24.958021 0.805129 
29.410612 5.796212 14.681581 
19.517817 22.695202 -5.262436 
25.280079 10.244184 1.006664 
-21.830082 3.074799 8.045420 
20.839602 19.652254 14.673106 
21.866323 20.897894 -0.741028 
-1.991916 30.476065 5.654244 
21.318909 -10.969744 13.642526 
19.214169 21.300882 13.007710 
29.022179 -3.775028 -3.343525 
19.670311 2.842539 -10.395525 
-20.004313 19.410480 0.528445 
16.727142 22.173615 12.233915 
-13.439910 12.323423 -6.236703 
8.812320 26.309658 -1.796780 
-25.413326 3.081600 3.504238 
2.116349 21.983250 -3.162714 
33.704948 -12.922285 7.604012 
23.036160 -4.408239 10.285516 
11.678102 16.009161 14.487279 
-27.730541 -19.356531 -2.918064 
17.235369 16.506929 -1.527550 
13.954556 26.678268 6.215415 
12.568552 21.501125 -4.287375 
35.784401 -18.472713 5.990414 
-24.570425 -0.194232 3.060930 
1.138411 26.173401 0.429771 
29.035360 -14.878816 11.124412 
18.051529 23.427134 -8.097005 
20.183208 23.317848 4.462985 
24.311796 14.950470 15.864032 
-11.774652 16.532240 12.484537 
-15.919175 22.840147 -6.221660 
24.988022 14.728106 2.950016 
-20.316624 17.868975 1.340661 
-6.713928 28.318827 3.155856 
6.474412 27.555632 -2.594706 
34.193466 -18.814140 9.353423 
0.296449 21.409880 -4.543521 
-23.619444 -14.296693 -4.635722 
-22.942879 11.799845 4.800981 
31.724833 -14.629762 12.322247 
-20.047407 -3.377698 4.375589 
10.557618 25.546883 -11.324240 
3.404702 20.466682 12.913231 
33.197880 -14.102995 6.658409 
18.294804 24.009380 8.284664 
9.512544 24.301685 3.496367 
28.000412 -19.232965 5.665868 
29.453836 -21.522614 15.041917 
1.515234 27.328119 14.992502 
-28.686825 -19.995760 -2.698429 
-12.644199 10.792514 12.658787 
33.082375 -26.279953 0.773115 
-26.383333 -4.393996 4.994708 
5.723897 28.135983 -5.401807 
-22.190001 15.601142 6.881073 
25.486261 12.324762 18.582487 
15.327735 21.562599 3.179412 
-30.506384 -13.830922 12.551790 
22.338846 -3.048674 -1.716059 
30.638035 -15.790891 4.418420 
-16.623545 16.022854 4.428699 
34.628731 -17.292738 19.488375 
-16.667437 5.138315 1.477703 
32.935841 -26.350496 2.225396 
32.905743 -23.736685 16.457142 
25.887915 -2.773407 0.451772 
29.417999 -8.835712 11.297112 
26.207371 6.941092 2.401956 
24.141678 -9.687549 -3.293224 
-23.166950 8.194658 10.862985 
20.118633 22.117456 -4.309568 
28.587727 -4.323608 -5.107827 
28.685951 2.530047 2.609848 
-16.318810 11.255789 8.391249 
-9.265381 21.760834 -2.441250 
26.654602 9.322036 7.724616 
23.702044 3.594788 3.691818 
34.502804 -21.407480 11.853868 
28.517294 7.895366 10.196770 
37.792809 -19.739937 0.912237 
-21.128584 12.251328 8.662040 
20.374392 15.163454 3.593740 
-29.336676 1.043933 5.181548 
-21.606117 -7.356657 -4.666664 
14.857492 20.786566 2.428839 
-26.295088 -0.736163 2.494203 
-33.187920 -10.956983 -3.701034 
7.841542 25.886904 18.353464 
8.532624 24.258505 3.300282 
-25.832706 7.132154 1.509683 
-18.760118 0.851839 4.661577 
-18.804432 20.503950 -2.444078 
4.092260 26.903978 5.880905 
27.917259 8.446569 15.648823 
26.837091 0.977311 9.207860 
-20.767511 -10.741470 0.429774 
29.288671 -8.339483 2.918437 
-16.226885 22.546402 5.518433 
30.188046 -14.700904 14.037596 
19.549784 1.638989 10.784286 
7.653219 27.509373 -4.432607 
-20.194296 2.647591 -6.012614 
26.898756 0.989435 4.238311 
-24.366901 -17.845016 -1.225341 
-28.137045 -13.469398 1.670610 
-7.649932 29.417101 6.820655 
24.843540 13.318073 18.953100 
20.774071 -0.761097 8.377241 
-16.085369 6.473001 -10.760251 
-29.387848 -20.665585 -2.435163 
-29.413925 -11.211863 3.195887 
31.863119 -13.167157 -2.944637 
34.264595 -8.453585 -2.311273 
-20.929090 16.118067 -9.420301 
32.929371 -4.853121 -3.338334 
20.171474 -1.010388 -2.578411 
17.800547 19.613638 6.085547 
11.864752 25.663460 6.621689 
-17.129066 14.311382 0.374398 
8.213557 27.117725 -2.414863 
-23.707346 11.419971 4.267126 
-22.548147 -13.383325 4.166972 
-22.174917 9.093088 -4.073786 
-27.701635 4.849727 16.349127 
-31.894325 -23.762617 1.443843 
22.159611 19.243080 8.835629 
25.865812 -16.622265 11.059200 
25.013805 -19.870213 9.282882 
-28.552380 -15.613695 15.209188 
-5.681345 27.051796 -0.302945 
6.240974 29.519135 5.607087 
32.487606 -5.600216 1.184120 
-20.215044 17.279291 -3.686591 
20.850504 15.619136 -3.701494 
-34.022453 -19.447723 5.247866 
-28.460733 -12.593052 -1.421101 
26.294561 12.387771 -6.784973 
-19.806017 16.946400 8.790464 
-6.299717 17.811892 15.478623 
-14.061535 13.729966 8.497633 
-14.982273 20.998129 0.761910 
34.213905 -8.142467 13.123015 
35.549885 -18.971445 11.603841 
21.169233 6.454228 -2.821173 
30.223412 -10.491878 -5.307341 
-3.352947 25.192085 12.490064 
16.080896 20.918882 3.399376 
9.543385 17.091164 15.555935 
-20.744680 -6.437922 -7.788224 
-5.323298 32.761211 4.390409 
16.866756 15.864017 2.765445 
-31.226292 -4.179255 -6.775073 
-28.443274 -13.381801 9.578418 
25.130302 9.806840 3.370410 
19.932837 19.763197 19.343559 
-30.917530 -5.557056 -10.392109 
-12.832928 19.767960 -1.361647 
17.130785 6.269195 19.910070 
-30.944210 -25.297182 4.181635 
27.512022 -16.515070 13.486271 
28.541286 -14.406024 9.226883 
30.577387 -14.778641 4.607199 
-28.955017 -14.043253 1.872306 
-30.597988 -2.178652 -6.537156 
17.403559 21.573059 5.723683 
-25.130758 -3.028986 -2.670183 
26.223175 -16.156607 6.502844 
-23.061737 13.011235 -8.561140 
-6.450831 19.693636 -3.696227 
-22.006714 -11.415353 -7.575790 
-17.447788 0.590011 16.203630 
32.384747 -21.870523 4.713361 
37.048214 -14.626020 -5.656347 
33.839718 -23.615618 0.524906 
-24.727350 -7.198702 -6.468156 
31.553068 -18.236464 15.940700 
-12.513901 24.163301 7.906629 
-26.263290 5.083302 2.401357 
23.809092 2.163057 -3.725709 
-27.103966 -0.721336 -0.730823 
-25.059834 2.953832 11.622470 
-24.701872 10.651529 -3.926510 
12.017323 27.332458 6.338782 
-24.681490 -16.983208 -3.502946 
-17.874878 19.711079 13.894236 
5.712027 19.777058 -7.338702 
-22.525009 -6.633647 4.095346 
31.450272 -4.654693 -4.644073 
-6.671755 25.197289 11.414325 
-21.750051 15.052996 -4.275073 
25.176092 -19.792152 -0.642126 
32.159470 -5.622015 6.980490 
17.325331 5.714549 17.287605 
24.033152 -10.957469 -1.679237 
-9.927129 23.599958 7.101063 
26.158697 10.839400 13.032559 
31.119116 -20.456099 7.930632 
-26.556578 -2.292380 11.262243 
-15.919043 13.638069 1.545105 
-7.703666 18.666418 -4.885024 
-26.575317 6.762734 -3.537635 
-19.929159 -10.472035 7.485600 
-0.498798 25.027155 13.207294 
14.919272 22.040215 14.294739 
25.689735 -15.936957 7.227495 
3.547073 20.038088 -9.515087 
34.940086 -19.487194 18.185877 
-16.873898 15.741041 -5.058192 
14.059687 21.125912 11.423575 
-17.424536 10.695114 4.703881 
-16.288710 3.459870 12.028720 
23.437866 15.896914 -1.673629 
12.384669 24.916494 17.076414 
13.929481 18.676706 -3.406901 
21.130768 13.576994 2.403054 
-19.652493 5.728862 -2.741898 
-8.566072 26.387886 -2.803006 
-2.894010 19.286650 14.998662 
7.094341 30.012060 9.849424 
-23.894974 -15.965327 15.230540 
-13.693129 22.647266 16.575832 
-8.369605 21.662596 14.218872 
-27.914261 2.680111 -3.960110 
20.509939 16.086458 -2.469591 
-4.000405 23.319464 -2.020705 
18.428518 6.334476 -5.217084 
9.336405 24.562582 9.434303 
-15.811533 23.596172 2.838029 
30.457176 -6.187795 7.879231 
33.351635 -20.229935 16.344372 
-13.769691 11.327678 -7.347934 
-29.201759 2.900079 -4.214930 
18.837729 14.850831 9.592745 
23.738743 17.311380 -5.716277 
34.490952 -20.348637 14.337635 
-22.486881 12.544348 10.682313 
-25.798887 -23.040352 6.741755 
-31.174759 -6.599854 -10.353712 
-3.806143 24.100321 11.245162 
22.573177 -16.410616 16.672611 
-20.081169 -12.386291 11.525543 
21.523130 -2.522143 -2.561880 
-18.416546 -0.251091 8.370439 
-19.835474 -2.880118 1.405902 
21.281342 20.585199 -8.339207 
-3.173704 30.072462 6.141263 
27.383104 -21.072937 6.942614 
-23.394882 -14.375705 7.614488 
31.804756 -2.294571 20.041393 
-7.085859 29.647223 8.558987 
-31.753208 -9.371692 -3.176346 
-6.786111 27.067053 -2.836240 
11.657028 22.617657 -0.771289 
21.831877 19.867153 -8.552723 
4.083609 22.630402 -4.057086 
0.968411 27.010277 -1.791577 
-19.927341 12.776462 3.321150 
-21.517593 1.523660 2.373660 
-19.542686 -2.631355 0.340199 
-6.204814 26.699999 -11.474163 
-11.381231 22.962225 2.967613 
28.517336 4.269682 1.045512 
-18.634491 -0.537201 -6.865356 
-34.252102 -19.259085 1.791827 
-22.278833 4.750143 7.642733 
15.842647 19.488209 0.677110 
13.694290 25.918615 2.471174 
24.675201 13.851239 1.504377 
27.653023 -18.247015 5.169145 
29.675838 -15.535131 -0.444880 
-22.311462 -17.605482 4.625413 
22.526373 17.205685 17.127382 
21.226973 10.692161 -6.416113 
-3.694697 22.118217 -2.282735 
20.880785 -2.220285 -8.044793 
-16.103216 20.882895 16.794552 
23.463640 9.987702 5.614539 
35.778191 -23.122433 -9.297589 
17.879375 13.316274 0.263953 
-5.644255 25.562943 4.466671 
-2.062082 29.386679 3.228281 
4.467892 28.719612 1.778168 
31.223934 -2.511948 10.330921 
16.881540 17.468410 13.756128 
5.327602 29.383593 10.901834 
16.753839 17.098942 2.893380 
20.351259 13.816720 1.833541 
13.772839 25.213552 -0.082915 
-31.497993 -8.844722 0.140744 
-21.241228 4.478679 4.291535 
-13.053748 11.509499 9.154959 
4.271044 28.515760 0.198578 
34.760372 -6.888573 -5.469118 
8.005444 25.640882 0.580655 
31.562344 -2.601984 9.457747 
-17.108601 10.188843 6.432310 
-16.647818 4.096177 1.461663 
36.151142 -21.319918 2.120661 
-17.252470 3.324084 -1.289890 
-17.450325 -0.080995 14.516691 
17.952045 23.295403 -0.232005 
29.878233 -23.792593 4.150033 
-22.951103 3.771843 3.514863 
-18.409134 8.351254 -1.950530 
3.982702 28.328640 -0.746922 
15.718950 8.955220 18.057911 
2.868093 26.766556 9.234075 
1.392197 26.452095 3.620282 
26.834394 9.900476 13.257107 
-33.037205 -21.562431 -9.791274 
33.690041 -10.684645 -0.157533 
-31.075350 -25.072670 -4.040232 
32.430988 -17.446369 15.949789 
-29.328711 -14.540597 6.097075 
-21.867451 12.759245 7.297970 
34.387440 -17.216698 5.632470 
10.527283 27.442200 -0.966052 
-12.442475 20.994640 10.691373 
-17.588873 2.465925 -8.192250 
33.330044 -15.598366 5.923508 
22.114456 16.177847 -2.185896 
10.768946 15.962953 16.315647 
-23.715296 0.018919 11.909469 
-6.604958 21.669287 11.639406 
-14.468814 14.393237 -3.287680 
29.467621 5.949142 13.354883 
19.636545 23.901485 6.623469 
-27.048573 -0.728361 -3.253172 
21.445759 -6.484121 19.505329 
31.839539 0.393288 -8.619370 
-17.320053 13.787119 2.266957 
22.874004 -5.641994 4.290085 
29.067621 -20.298204 15.090149 
-18.986637 -2.178358 2.096666 
30.004152 -0.373152 -2.754691 
22.559937 14.822518 -0.742914 
-18.837496 -2.357219 6.369228 
-13.409588 20.910278 4.406524 
23.610491 7.767770 9.513387 
-21.112648 -3.083256 -1.502630 
33.944439 -9.827234 -0.694166 
-20.123121 9.461866 9.127069 
-2.928201 28.991369 5.569643 
-29.762495 -5.407738 9.907085 
29.755459 -23.470610 14.394389 
21.377571 9.343301 -6.195892 
-23.596443 1.052401 11.886749 
34.252132 -5.838006 -8.780012 
24.889826 -6.715762 1.247036 
25.776188 -24.220020 12.401196 
26.815632 0.027205 -2.868488 
15.716930 17.729832 -2.580528 
-9.753252 23.785791 14.564611 
1.999218 28.450226 -0.748942 
-26.121370 -23.151117 -9.686710 
-25.822245 1.218715 11.845750 
33.558285 -24.147667 1.304184 
-20.342859 17.294525 -8.433496 
2.478292 27.623663 8.947993 
26.963242 10.868592 -9.300331 
16.936460 24.907259 -5.659233 
13.660374 25.748095 12.515348 
-23.233727 -15.984111 2.822941 
-25.149834 -14.140868 9.588849 
-0.874746 30.505093 10.891883 
7.336870 26.815582 15.366925 
-27.220078 -13.763881 1.915880 
34.546932 -23.250921 4.931612 
25.425135 12.872286 -2.637877 
27.837183 -4.624568 7.949378 
36.204987 -11.382957 -6.029695 
-19.370998 0.667688 10.478019 
-14.744848 10.683825 -3.783918 
-16.650610 20.791557 12.685837 
19.942093 8.178175 -3.740840 
21.179209 11.298839 -3.015280 
32.405781 -0.999599 13.382486 
3.195403 29.413338 9.911089 
25.135223 15.716881 7.721108 
13.266262 23.687426 -3.282373 
-17.117821 7.363282 7.059697 
-10.678124 16.279026 7.626258 
-4.885645 23.114103 10.475314 
7.740019 24.261374 2.850692 
6.499801 17.860907 17.860058 
-7.377202 27.437805 -2.049943 
-20.440733 -3.846843 -5.906522 
2.582603 21.074217 -5.037799 
9.500472 25.879807 5.919652 
24.413595 14.763429 -3.161350 
-1.941028 23.429693 -4.585599 
19.132532 8.436384 -0.982714 
-21.742958 13.918324 18.910780 
-2.052768 24.139776 8.080129 
18.630676 23.070669 -2.724930 
23.835945 7.498497 2.359323 
29.251295 6.015007 -9.134988 
-31.267796 -12.644395 10.302652 
15.219273 10.241332 14.130938 
27.219421 -8.101363 3.310062 
18.162270 22.719809 0.671401 
-28.299753 -24.689348 -6.994787 
20.292503 -1.298570 -6.047787 
-22.635883 -16.649927 3.183789 
-28.636972 2.316278 -3.456688 
34.024223 -21.999250 12.393043 
-32.656307 -20.314335 -0.914764 
-6.275127 27.472275 -8.329733 
6.681720 27.472622 -7.591037 
5.763175 28.737171 11.947732 
19.742683 0.359398 11.631023 
-13.876145 9.183346 12.329865 
-28.795082 2.752645 16.527384 
15.307105 20.958590 7.521622 
-28.337952 0.475793 11.373169 
-12.443130 23.090963 18.235411 
30.008957 -26.375875 -0.182209 
-21.719213 -7.590197 9.663138 
-32.364075 -7.377629 -3.757134 
-13.277136 15.483769 10.602004 
-28.428402 1.576623 11.344325 
-25.929375 7.164612 -10.848848 
-21.327305 4.209421 7.734083 
-19.635078 11.235023 10.256819 
-22.103708 -5.387939 3.598109 
-21.651943 4.104114 3.419410 
25.613674 -0.790596 -5.691356 
0.119769 27.210606 -11.453886 
-21.089703 3.654166 -5.992859 
22.964094 -17.289021 19.089262 
-8.310010 23.977154 2.442428 
-8.380987 22.927883 0.287336 
-17.851921 1.572811 -1.919208 
-25.555969 9.139291 6.443089 
-2.008807 25.502165 15.036277 
-7.423968 21.938581 -4.136257 
17.261074 8.775270 -8.071051 
-18.010628 -3.221776 12.200521 
32.090015 -1.259143 5.161361 
-0.473345 27.086351 5.787865 
-12.803313 17.582850 9.827861 
-20.190504 3.501456 5.552708 
-24.740067 -12.384592 -5.874970 
17.017204 12.823363 9.148201 
33.086910 -4.019913 15.580811 
3.009991 19.984684 -11.158373 
31.708605 -1.857068 3.236114 
-19.847210 17.615063 -9.907306 
-28.197147 -2.742581 3.243639 
33.773167 -15.601457 12.745812 
25.947609 -4.310639 -4.193187 
16.614542 7.361917 19.939734 
24.269812 -3.165411 -0.643192 
21.076643 16.400396 4.416374 
-15.872475 18.934547 3.457272 
22.363916 7.180146 9.395341 
26.157667 3.657382 -6.021760 
-4.332847 32.751602 4.410339 
5.088358 27.556566 13.469501 
-17.846819 19.741817 12.903817 
-24.612944 5.307360 -5.183486 
-31.945623 -6.112622 -3.245617 
26.327829 -21.224691 5.350471 
-30.031439 -1.899551 17.941883 
28.613901 7.452876 -7.708208 
23.583378 -13.635077 5.334081 
-29.637058 -24.805788 1.928195 
-23.459793 -9.866781 10.585432 
-2.215914 24.551208 15.441211 
-8.356355 24.068316 -1.283805 
25.720253 0.561046 11.929699 
-16.714617 4.387574 0.438955 
-31.676952 -6.074550 -0.768073 
27.596004 -1.751269 -0.955361 
-13.113581 26.376713 1.116082 
-12.195440 15.073385 -3.678155 
13.712846 22.065319 15.689179 
16.961475 20.732580 3.617520 
10.719289 16.467932 15.224238 
-24.597298 5.547459 6.131164 
-18.479206 17.705603 11.022617 
-0.911887 21.975935 -3.400301 
29.415619 -24.688520 11.385935 
33.242252 -13.810098 8.047868 
-24.673290 10.200090 -9.234674 
17.666744 14.549757 -4.384314 
-30.118286 -3.948461 12.104094 
-9.218506 19.730074 11.952525 
22.542810 20.403158 -0.303888 
-25.542162 -6.379935 4.010183 
-30.641518 -6.022630 17.742399 
-14.105142 25.490467 -0.953159 
33.646919 -8.514338 8.247791 
21.801394 21.431887 5.502321 
17.958429 23.296068 9.999263 
-32.339668 -25.228857 1.529341 
-1.048156 33.146481 6.514830 
-0.534188 23.850267 12.968674 
3.281238 26.909431 -11.422398 
10.955738 27.145004 -5.977642 
21.075964 12.823988 4.283090 
25.342878 13.482754 3.209959 
-11.238949 23.874191 6.336074 
-3.695320 20.654068 11.956769 
-22.645412 2.313673 -3.346616 
22.622391 -11.598749 6.551671 
-20.512358 6.876725 -1.581979 
-25.184055 -21.775509 -1.339329 
-26.048723 -2.982574 -0.432336 
-24.141237 -23.383612 3.586917 
18.357038 15.771873 8.047188 
24.243935 0.361117 -6.169027 
-20.745184 9.361720 -5.119215 
19.034981 4.556216 -5.367793 
26.262165 -19.824163 5.625278 
-7.371722 23.743317 11.239183 
23.595219 -3.122441 0.189293 
15.441950 16.287214 -3.213618 
16.999573 20.293764 13.537256 
-23.436878 -16.058804 13.279230 
-16.722105 20.527615 15.823478 
14.504431 17.267893 9.658118 
26.657703 -23.969757 2.463959 
22.938967 9.480947 6.193551 
-22.803402 -0.022526 -5.673918 
-21.883980 12.186431 4.163207 
-10.575442 24.495676 -3.753157 
-31.703461 -9.125401 14.220499 
-31.233557 -9.905394 9.787662 
7.483265 26.230783 8.012639 
24.072521 -10.550234 3.478243 
18.042599 15.000528 4.311513 
22.256721 -6.818219 8.429667 
-25.804918 -13.699121 7.520278 
-13.169405 18.223022 1.458953 
4.332722 24.841053 2.669734 
-14.200822 10.420654 -7.627073 
17.197649 11.135214 7.645895 
-7.209044 21.563498 9.097594 
-15.954043 5.473652 18.743132 
19.066732 0.976053 -0.562091 
8.561225 26.293018 7.395478 
28.565525 -20.337254 6.283125 
-23.963541 -3.630163 11.005753 
22.662510 -3.875047 3.229861 
33.211788 -7.716308 9.383334 
28.776541 7.862178 6.445934 
31.215765 -23.154161 -0.498493 
22.891369 12.314657 12.380776 
-22.988991 13.132896 15.482907 
-34.489239 -19.511848 3.488147 
13.571284 19.885895 10.467566 
23.632076 -5.760918 2.345024 
13.317040 28.935482 7.412250 
-28.575508 -11.097555 -5.068390 
-23.738420 -22.604012 4.855416 
-29.121260 -5.078615 -4.626439 
0.835477 28.669506 -4.860849 
35.872272 -10.317091 -6.529596 
7.229659 25.763456 -0.576291 
10.685773 25.720093 6.226380 
33.929905 -17.001148 14.892010 
28.774206 -23.094997 6.424612 
13.639992 14.562805 11.561597 
-14.480965 23.722071 -9.074907 
20.061817 9.508411 6.305399 
26.906212 -23.086430 11.061024 
25.849945 12.885399 -10.741959 
25.087959 -18.085361 1.539412 
-8.694434 25.448135 16.310011 
22.394165 -10.181962 7.561273 
-8.561266 24.770166 7.755951 
-8.588053 22.267202 11.477514 
19.740355 20.218218 -2.589251 
23.972113 -20.458918 15.165349 
13.026180 14.861325 12.940826 
-28.634573 -7.582156 -5.331668 
27.539228 7.315149 0.671473 
23.030691 8.209026 -1.756031 
-20.802834 10.876083 -2.934025 
18.572126 5.719239 -10.512840 
23.972715 -13.136617 3.840312 
18.203278 16.487736 13.435456 
-27.905146 0.244616 -0.635367 
20.256632 5.872374 7.336382 
32.116230 -7.565578 2.692704 
16.506378 20.587591 11.282593 
16.892643 22.284464 5.392497 
33.768372 -9.641858 10.095392 
-20.744551 16.907591 -6.784396 
-6.236023 24.771542 -2.360909 
32.731846 -11.254427 11.711573 
-24.610632 10.319450 16.813810 
27.701029 -23.535255 3.200900 
16.787186 24.606941 7.238418 
-19.565723 -2.524808 10.753319 
-28.392393 -5.919782 10.064342 
20.221058 -4.768058 11.722309 
-6.114176 23.608330 -2.319509 
-1.779297 23.804014 10.866307 
0.129100 27.700912 -9.621968 
25.308765 -18.510283 0.515926 
-32.460732 -9.924397 -7.802252 
-14.851834 21.423006 -0.060101 
16.312824 14.673661 10.820384 
-2.766142 23.911018 -2.793774 
30.438576 0.665939 10.961256 
-29.459585 -13.761419 2.737684 
26.125740 -18.004028 5.026130 
30.205879 -23.333332 8.925931 
0.034244 22.467125 11.974117 
23.117344 19.003616 2.552356 
-17.456308 -0.728711 13.300488 
-25.442701 -4.920157 4.423179 
22.492178 -5.987511 -6.673966 
3.157310 27.224968 14.059946 
25.441164 -12.361755 1.197963 
30.923109 2.856549 -7.643971 
29.460941 -13.791002 4.891152 
-24.589100 -6.220352 -6.364881 
-22.223852 -4.121972 1.691034 
-17.377666 -0.598447 12.053361 
-22.432699 -7.482943 7.055939 
29.701416 4.698620 15.984666 
23.696859 -7.050821 7.178133 
-13.298212 20.728170 -5.215607 
33.211117 -4.716950 -1.670575 
-13.342779 23.700644 -11.404060 
-31.539909 -7.283220 10.176480 
-22.351616 -0.376107 1.961716 
30.868151 0.006899 -3.634703 
-19.703064 -9.243672 15.960158 
18.163906 23.786060 3.740298 
-31.561493 -13.093084 -0.077228 
-21.676044 -0.194031 -5.746350 
-31.091757 -5.808652 14.638473 
28.291576 -25.359589 2.358843 
-20.858147 -11.127226 1.407086 
-12.333720 26.348484 9.365185 
-30.849981 -24.414347 1.999940 
-27.010695 5.732911 13.194400 
11.015848 27.826157 4.829429 
19.179550 3.227775 -6.719593 
0.356064 30.976793 7.920054 
34.536747 -14.963554 -0.393575 
31.565197 -0.420954 18.328522 
-33.678894 -21.419107 0.062284 
24.746801 -16.090157 9.444098 
34.747387 -14.876624 16.771357 
-0.282485 27.926033 7.302815 
-15.863130 22.545696 2.919729 
-18.772955 14.384591 -0.882944 
-20.319771 13.446748 9.877311 
-4.764616 25.754595 3.874000 
-24.031668 -18.372679 -3.247802 
-29.272438 -4.155278 -1.827363 
-13.086129 16.549574 1.008463 
21.116398 -2.452627 9.192721 
35.691566 -12.446304 -1.914929 
29.499212 -21.845997 -1.295327 
34.175060 -8.124677 12.199109 
13.090699 26.207535 5.808835 
21.276180 10.750711 11.852441 
-15.571629 13.115538 0.689476 
-32.010693 -25.272671 4.154937 
8.254117 23.525759 2.483371 
-21.107656 -7.452964 -7.037190 
-28.261814 -5.157586 3.257719 
31.551752 1.619423 11.982900 
-34.163860 -16.992540 -5.201383 
30.545004 -4.145679 3.227787 
-14.806870 9.839343 -5.090529 
21.441412 21.089117 -5.383649 
16.684460 15.564508 1.857186 
10.101091 29.602514 9.113558 
30.804646 3.397457 5.960671 
-26.995066 -13.097259 3.921957 
-28.402309 3.887601 -2.845509 
33.944389 -19.315737 6.579416 
-20.532780 -8.830478 0.544363 
19.923746 0.783844 -3.375536 
13.415650 25.855436 7.200107 
36.388168 -13.699498 -9.655342 
21.606525 19.130114 -4.241337 
-21.043785 5.721060 3.161607 
25.788004 10.568542 0.108287 
15.691120 23.546650 6.972439 
-29.848612 -12.721799 -0.243270 
-17.889999 12.721124 3.384390 
-10.223296 28.529976 8.792089 
-7.558604 27.277708 9.108359 
31.138901 2.302290 13.331925 
-2.575594 29.367201 6.346001 
-21.623568 -9.653475 -5.757519 
9.566624 29.051134 5.875359 
-29.139719 -4.342039 4.118361 
0.021394 29.035749 7.088055 
33.493481 -12.727443 0.422897 
33.700256 -9.443757 7.759094 
-30.434093 -1.770673 14.729962 
10.478961 17.249834 -11.006340 
-0.123799 23.472092 -1.251099 
-13.739020 16.197515 6.041972 
-5.257844 23.196384 13.140406 
12.345590 24.616093 8.138601 
34.158794 -18.409582 6.590530 
-23.129635 -11.847819 -3.744008 
15.015755 24.569376 -9.800075 
-16.255379 9.262557 -1.735188 
17.929722 14.070020 3.260491 
-19.613016 -3.295015 8.344760 
-18.923864 -4.019813 8.277897 
-27.264519 -17.307032 -2.438521 
-28.141298 -13.531961 -4.421769 
-0.745771 18.903378 17.999317 
-13.285330 12.123196 -7.609683 
31.605717 -16.276781 -2.384350 
20.905540 21.318235 -0.643539 
-27.242378 -0.941429 8.973906 
-20.953878 -8.600491 9.380929 
34.954494 -20.368786 12.014918 
-0.026654 27.339779 14.354149 
3.717089 26.107849 -1.478339 
19.449989 -0.745291 14.981995 
12.574462 26.245964 3.191248 
4.546136 23.177242 0.929605 
-26.408918 -13.028925 -5.291861 
-30.426281 -9.902502 -4.189163 
-19.232918 19.407799 -7.026368 
-22.890118 -9.495961 1.868296 
-16.760286 3.599693 9.226945 
11.862483 24.516003 12.734319 
-29.439686 -20.305273 7.426661 
18.964642 8.525070 0.242058 
27.492590 -14.975501 4.007604 
25.618917 -4.013338 1.273558 
11.081407 22.843691 0.834366 
23.390028 15.979650 16.917799 
19.792940 -2.684475 11.717141 
-2.868629 23.370398 14.840005 
23.634703 -7.411348 0.066213 
-18.875095 14.636128 0.937783 
37.065269 -15.857661 -7.476040 
25.127129 -11.916907 -4.830015 
35.905827 -14.372495 -0.677754 
24.893187 3.013861 9.540587 
21.729298 18.993572 10.240473 
-13.810096 15.124068 -1.817479 
-15.426672 13.492457 -0.648258 
26.188879 -21.106901 -9.435385 
10.758982 22.502312 12.839964 
-11.640265 22.604855 -4.135287 
27.718744 10.198705 4.298620 
-0.961604 29.514713 3.192842 
-6.691277 29.683062 9.443098 
-21.488552 -6.943635 -5.603068 
-20.609385 -1.354549 -5.454580 
-17.548353 20.097801 -11.292317 
-14.828264 12.836932 -1.728785 
-22.769039 -20.076569 1.419017 
-23.265697 -13.073139 -2.136354 
24.744047 -16.995958 -9.602249 
-6.583080 22.511787 10.937227 
-13.716782 13.394585 7.530919 
-16.317562 16.831539 6.607102 
19.260212 15.957771 11.259299 
27.285770 -8.071519 -6.551353 
34.944759 -17.840487 15.042068 
-26.378044 -22.212797 6.748273 
-29.074486 -1.962706 4.694964 
28.491365 -16.297043 -2.223007 
-21.675278 14.727449 2.505059 
12.719279 24.882656 -11.285123 
26.442190 -13.854092 -2.317512 
26.653133 11.570600 -6.530485 
-1.477365 24.562313 2.371248 
21.188971 0.648474 8.701718 
3.955339 23.775459 10.212492 
-33.058979 -10.986022 -5.377447 
-29.384266 -0.262791 -3.608753 
-25.311695 -5.204887 3.104503 
-23.097239 -1.698228 2.531107 
14.021216 19.561312 -4.174165 
-18.532598 11.002159 3.129026 
-8.312823 16.966776 12.926491 
23.186680 -13.796407 8.635316 
-21.300198 -8.910686 -2.953458 
7.875251 24.958614 3.854797 
20.092468 17.745008 5.840466 
-15.543683 24.011808 0.691377 
27.811428 -18.956808 -0.085987 
25.261204 8.758706 3.098038 
-22.867361 13.230873 -3.807093 
-27.380829 -21.896168 6.677765 
31.258759 -10.246518 11.700848 
31.018148 -16.737463 4.881172 
-24.140835 8.191687 0.422719 
-26.138727 -6.534953 7.966516 
7.723302 18.763317 -9.498053 
4.961205 22.696295 14.749790 
18.928164 23.800095 5.094183 
36.657032 -18.553654 0.191647 
-5.950931 26.511023 9.629458 
33.763573 -10.743808 -2.106761 
14.630052 28.327528 7.588705 
-0.718333 28.177258 12.139350 
29.702314 2.950878 -0.574687 
21.110426 -7.483824 13.062371 
32.746902 -10.223528 2.038191 
14.642919 20.525223 13.272788 
-17.157429 2.847764 1.659220 
25.340967 11.227088 6.682201 
19.277275 18.741116 12.944327 
23.660049 -7.265143 -4.893451 
-7.314744 20.603012 12.627913 
28.649767 6.559167 -0.349785 
-16.029644 11.634148 11.069598 
19.998171 14.154216 3.676704 
-1.581989 25.673380 12.792570 
-20.618950 -5.087376 -6.762297 
-14.928671 9.026433 -7.315275 
-19.612492 13.689674 11.860993 
27.568651 7.509649 -0.901863 
16.780012 22.415165 9.497230 
25.838661 12.541396 9.023594 
1.013586 25.461287 -3.272812 
-32.532013 -21.144400 7.037807 
34.407681 -15.051260 19.577904 
-24.320465 -21.206409 -7.178420 
-3.079926 26.293789 -1.995511 
25.596905 5.167269 8.829677 
23.463028 -10.510368 -8.071259 
27.479738 8.903031 16.820681 
-10.451012 27.251705 4.804825 
31.452410 -15.369330 5.889626 
10.419863 30.229607 6.384916 
-19.980236 16.833311 2.294452 
14.669980 13.754900 10.953924 
-24.501297 9.239761 9.678921 
-15.696822 7.291967 -10.789228 
15.892603 11.502460 -8.840908 
-8.699271 25.190340 17.372292 
27.813560 -3.292410 3.098297 
34.139187 -14.069647 11.572075 
-19.778431 18.000195 6.178341 
-7.227237 17.643902 -11.133085 
3.134800 27.614815 12.044415 
-28.662800 -11.181393 -0.187653 
-18.062979 -3.185200 10.187362 
17.958881 14.901381 2.696956 
14.008037 24.964041 7.436577 
-19.564085 2.309089 6.823666 
-25.427610 4.040198 3.288422 
-18.966902 -0.212263 10.238237 
27.380585 -5.683216 -4.139502 
14.384288 17.508642 -0.751619 
-14.616291 21.924824 10.905528 
-14.687004 18.796097 3.411851 
-32.964939 -15.908339 0.857510 
-21.299776 -12.430338 9.026220 
-8.745075 19.302717 10.720947 
-23.142647 -3.287831 -0.477214 
31.602961 -14.658278 4.638060 
-14.656498 11.999254 -2.615190 
34.060146 -23.097891 6.876482 
-26.010376 -4.502873 7.845411 
-12.692140 10.940709 11.528698 
-24.091803 -21.290871 -3.433279 
-16.115728 17.006035 9.628500 
-28.306316 -12.174127 3.565678 
-20.129099 17.945583 -6.713753 
24.290472 -14.851668 -5.127010 
21.534338 18.108709 19.097813 
8.088722 23.585606 -1.534985 
15.608429 25.671976 -2.219205 
25.212517 -21.427742 -3.575247 
-28.359392 -21.227133 7.062110 
30.496016 3.138390 7.370424 
16.759672 9.662407 9.358109 
7.244274 18.934835 -11.091393 
21.551203 18.119616 13.043202 
23.356836 14.522968 3.484845 
33.795509 -4.545420 -8.717344 
-21.301235 15.188812 10.862092 
-2.995703 27.497211 6.759675 
23.439043 -9.361236 -0.490078 
-32.004242 -15.883897 -0.885125 
-24.184687 -2.443141 -3.855313 
35.762772 -22.052742 2.492258 
-22.749653 -20.402790 4.291101 
-29.374720 -2.423737 -2.465296 
26.662708 -8.605204 2.790911 
11.184646 25.242682 16.571459 
24.436165 -13.020559 -3.714147 
-21.054014 -9.944326 -1.758306 
-16.129650 14.447529 10.860062 
26.481117 4.389337 5.131176 
20.126850 5.416343 4.440029 
-31.757008 -8.357862 -3.219834 
20.024870 20.666182 13.897750 
29.711113 -23.087944 11.899317 
-5.867481 29.478828 5.202538 
-21.580948 10.079481 -2.809036 
-30.009058 -12.864589 -2.801350 
8.564557 18.377237 -9.471375 
-18.251680 -0.460560 6.337348 
-7.153901 22.871735 -4.842020 
20.342342 18.368393 13.705525 
-18.747103 17.018396 10.242876 
-27.235548 -2.995534 0.674768 
17.712776 24.221079 0.339009 
-16.953426 10.341698 2.359688 
-13.954868 10.619781 -10.905951 
33.313862 -3.205159 -7.433214 
-21.817333 12.868554 8.253637 
-33.762947 -18.863199 3.990564 
-28.279997 -1.479404 1.639461 
-25.119513 9.975074 6.785584 
-7.883528 21.928827 -2.777874 
32.482681 -13.835982 -0.036548 
33.458885 -20.666529 -1.205297 
33.311970 -25.189037 5.680096 
-23.341713 -13.851848 -3.626047 
-27.242638 3.923638 1.932776 
-24.302628 11.276037 -8.050757 
29.458578 -1.508118 2.297871 
-1.904138 29.882643 4.661543 
31.191442 -4.194299 5.489541 
3.511953 28.469509 -2.439600 
-23.404598 -5.673361 4.404128 
27.164022 -5.654082 1.865184 
21.025814 18.042740 5.905158 
-28.956978 -6.105847 -4.967647 
-31.483271 -5.224868 -6.917387 
14.307517 11.752983 15.473533 
-19.771610 3.220041 4.491594 
25.841095 -22.087076 11.102639 
23.295027 -18.858156 14.765637 
-22.506289 9.696418 8.520226 
15.305826 13.611423 -5.142787 
24.858015 -11.481680 1.834333 
-25.164165 -5.625701 9.285806 
29.284609 5.145680 -3.879738 
-27.984783 -13.798444 8.760065 
-10.872338 14.654360 -11.041343 
31.880484 0.426561 -7.240103 
-27.870258 0.535349 0.536417 
-25.398121 -15.915265 5.628075 
21.733511 9.282131 9.632048 
31.650747 -3.284102 -0.887537 
28.718822 -7.584919 3.507216 
-26.894953 -4.108121 4.159860 
24.643812 0.562342 11.730702 
21.292269 16.010244 8.368116 
15.193922 23.459631 6.113722 
30.233961 -15.913779 6.615319 
9.323989 19.632198 -2.756658 
-18.772953 15.446123 10.984482 
34.512783 -6.892788 -3.921999 
-28.122425 -2.369487 2.357530 
14.812435 20.997131 10.320011 
22.695351 8.933247 6.902281 
26.343401 -21.869818 4.586040 
-23.920126 -6.318297 7.404001 
-34.206024 -21.069265 4.224128 
3.373750 27.020638 12.764200 
-12.446304 17.798834 6.003728 
-7.287187 29.278311 5.790020 
-25.161892 -13.835459 3.541136 
7.414565 25.645300 4.278630 
32.716568 -20.407019 6.608887 
-29.698662 -1.647096 9.485340 
-30.855291 -4.880635 16.015097 
28.782587 7.636298 5.489916 
8.522826 22.063046 12.066064 
-2.164810 22.687025 10.116989 
20.308565 -4.773013 10.730412 
-27.076757 -24.662170 -5.370731 
-8.801392 20.850567 13.806289 
28.459127 -12.762865 2.342873 
-27.275354 -3.236954 2.740987 
13.494999 19.089291 0.091678 
-10.685032 24.908922 15.229309 
20.025723 20.352671 4.879722 
20.002216 -1.599252 19.667517 
-7.611375 31.488537 5.585112 
-17.855375 11.540288 3.397115 
22.086882 -3.054999 10.403204 
-33.650883 -19.741838 4.426503 
-8.499096 25.495680 -3.523863 
-15.140044 6.551178 14.743089 
23.470989 18.689590 -0.593354 
29.359333 -6.337937 9.084970 
-10.894674 13.151432 19.248892 
-14.421269 14.719828 3.086211 
23.860476 -12.745085 -7.351407 
-20.029739 -11.845732 7.613177 
2.638936 19.792252 14.826706 
28.287735 -10.861397 3.684958 
27.126171 -16.256536 9.520273 
31.305372 -7.129893 2.779817 
-13.815158 22.571005 3.923128 
33.756641 -6.356937 -0.630241 
24.524635 15.435840 -4.146856 
25.059250 -23.125221 16.983187 
17.459801 24.244196 -0.931383 
24.522919 -10.886397 -3.528818 
-2.284478 27.165676 -1.457432 
-34.573845 -18.174015 -3.350992 
-5.155102 25.058147 14.053922 
15.890265 22.828598 11.273314 
-18.892645 20.777712 -0.633182 
-10.743810 19.269726 -0.935180 
-19.056524 4.296320 -4.709960 
11.182647 24.018026 -5.063297 
-20.957207 -5.688920 -2.177984 
30.630091 -25.087925 -9.254619 
-0.947685 26.616299 -1.812655 
8.683774 18.987545 -4.713184 
12.845888 26.802372 6.823593 
-12.762380 24.171516 -6.209316 
-33.207241 -23.709286 -1.615534 
-19.861683 17.984797 4.231985 
21.620277 -7.536215 10.331120 
0.384033 28.741541 -2.827255 
-4.885710 25.802979 18.889782 
-20.485159 15.413383 -1.176371 
-14.842122 23.322046 7.910969 
28.785604 1.039662 3.958554 
-29.399912 -7.052857 -4.874740 
17.621599 5.165602 19.879065 
14.013275 25.092859 -9.515498 
-26.320629 -1.305836 -3.424225 
13.008628 18.946272 12.381224 
22.762362 -17.211798 14.626779 
-6.558194 28.421021 4.041452 
-11.825714 19.862234 5.695320 
33.412014 -6.611376 0.203821 
-19.682993 14.237376 10.370434 
31.421896 0.081530 9.899207 
25.626993 -20.072920 -9.478606 
-24.780542 10.301263 5.437442 
-5.282918 19.124432 13.572596 
0.029903 32.876301 6.625530 
-7.131478 24.731079 3.073925 
-8.886101 24.808973 -0.666121 
-17.371216 4.408020 -6.597013 
17.077417 23.344849 -4.223053 
21.240379 17.350565 4.812489 
24.903070 -14.786043 4.780374 
21.875639 18.365883 6.161202 
-6.352773 27.582333 8.907569 
30.382978 -4.571876 -3.491921 
-15.071120 22.929459 -10.015171 
4.603297 18.068207 19.992361 
23.426489 -6.368189 -5.127398 
24.574726 -10.497215 7.938457 
-30.469336 -2.296811 -8.328555 
17.712704 14.793194 -1.656406 
-28.739075 4.085555 -4.738418 
32.051052 -1.220128 4.028471 
-21.105448 14.044264 -1.469887 
-28.510698 -13.677680 -3.378917 
32.759125 -10.224026 11.575540 
20.709637 21.662195 10.897608 
-15.916754 5.974685 9.621917 
-30.697004 -12.044990 -1.263388 
-24.309858 -23.065170 5.538163 
21.502321 20.956579 3.610873 
-10.576674 18.494329 9.665839 
-29.901903 -4.659710 5.190250 
-22.104103 14.375752 16.103823 
23.714752 -11.684953 -6.094458 
23.952566 7.493555 -2.275012 
-22.549410 -13.441058 -10.036811 
-30.620480 -23.574379 -9.698832 
-11.312140 23.419533 -6.034356 
-19.971050 3.921872 8.677782 
-1.396061 25.766937 -5.088016 
-21.280386 8.353733 10.966556 
-10.290463 22.997976 2.749177 
29.939699 4.303966 11.720170 
-19.980797 -4.251261 -10.373270 
24.840891 -19.069143 11.251338 
-1.975983 21.020765 11.870682 
32.591747 -24.548189 1.411914 
-29.464518 -0.786725 7.957950 
1.102403 19.014696 17.757788 
28.899832 -3.751696 -4.283259 
-16.385521 15.299481 3.798042 
34.767250 -18.437038 19.443552 
33.680656 -15.178510 -1.264908 
20.079704 11.862386 -5.186522 
21.928093 3.668488 -6.341076 
10.291534 27.358442 -5.333380 
-23.111633 13.247813 -5.679776 
-19.923098 17.439028 3.507325 
-2.846736 18.893938 16.356890 
25.077337 -16.894987 2.960960 
7.693661 25.227245 1.723703 
-27.523458 5.251265 5.118059 
16.715746 25.057352 5.796933 
14.383031 27.913095 8.721393 
17.541178 18.631306 -5.185410 
-23.312082 4.009339 -5.747437 
21.587887 9.187362 -3.209212 
-11.392890 18.131536 6.245921 
-14.705214 23.920065 -2.894023 
7.864170 29.551407 10.726741 
-26.942930 6.213816 16.544182 
27.518295 -6.825514 -6.776805 
-28.209503 -9.730844 -0.612260 
-22.407583 -12.621126 -5.608318 
-25.211798 -5.097059 -5.130354 
22.393261 -5.087031 4.834051 
25.208271 3.111998 2.463953 
-31.398743 -11.168136 -1.913545 
18.472361 9.553017 2.748510 
-25.482658 -11.847421 3.379359 
7.178424 19.296345 -6.553046 
-28.399412 3.743730 8.184176 
23.367884 16.737093 1.175531 
28.881592 -5.126412 -3.786139 
-0.663620 23.770060 -5.149702 
-11.510251 28.675056 6.342088 
25.792938 -18.050282 -1.146165 
26.502188 8.104500 9.968583 
26.654282 10.853577 3.329750 
16.700686 15.426101 0.858255 
33.652458 -8.921645 0.508103 
36.529484 -22.106644 -9.331832 
22.158251 15.044848 10.944394 
29.678661 -12.487386 4.517784 
-11.127770 26.289457 2.008523 
31.620964 -10.677342 4.023319 
8.519084 30.532188 8.849482 
-3.301960 32.102356 8.784922 
19.411139 11.113181 2.391094 
32.635983 -26.175903 4.166164 
-16.014460 14.531156 8.698225 
-24.718504 7.671073 9.742610 
-22.294800 -6.454737 9.207385 
-32.149338 -8.766105 -8.083948 
26.185755 -19.340885 7.686815 
-17.169592 19.376322 -5.196872 
23.577520 -7.807189 -2.571067 
-24.783463 -3.125350 -0.694459 
28.865351 -22.684805 3.841687 
18.804113 24.310373 6.681320 
0.893094 20.313044 -9.234900 
19.009958 2.928820 10.559524 
-0.924405 23.117573 -0.483200 
-14.072492 14.853018 4.159199 
23.504969 -12.776792 4.570167 
2.938087 28.453129 4.315758 
28.477770 2.454106 4.036279 
21.735266 -12.940683 15.856255 
20.808443 -5.849554 10.274879 
-16.565609 2.804254 13.011137 
-4.798313 20.262028 -3.948581 
5.104899 27.288332 15.108503 
21.957926 -12.944872 17.476545 
24.894625 -15.542214 -2.711008 
-29.034708 -5.520916 3.599118 
12.584825 23.290771 0.107676 
35.985245 -21.419538 4.059152 
5.980501 25.563627 -0.176826 
35.762703 -20.646763 -0.162786 
31.607590 1.081307 15.076712 
18.562654 14.295999 0.677465 
-14.114643 23.174425 8.915771 
29.366455 -15.349270 14.061393 
-29.493734 -0.920213 4.546176 
-3.800765 31.444468 9.800769 
1.323823 26.723631 6.531033 
-2.240870 20.404478 -6.057067 
-30.921053 -9.558897 10.674176 
-21.926107 2.172773 1.880242 
-21.473677 -8.689931 3.192284 
-33.045387 -23.343882 -3.895881 
-16.040930 7.539367 -5.972922 
17.775818 15.763220 12.716320 
-24.884384 4.694475 9.352340 
-25.868376 -9.919279 3.163877 
26.258917 -20.385336 -1.347080 
-18.409075 21.092030 0.837330 
-10.910593 19.632334 -0.073657 
28.390900 7.268425 -4.071949 
-7.427399 31.601000 6.507105 
-29.121614 0.368885 2.413659 
-14.992471 18.072796 13.748557 
-5.877715 26.897890 -1.818690 
-3.375774 30.773722 5.552770 
14.184744 19.773930 12.765565 
-23.313711 11.810859 -11.010656 
16.586613 22.362394 -5.046924 
24.537416 -12.041233 -1.444165 
12.288596 22.885038 2.593267 
-11.762341 23.597961 3.886259 
8.559002 22.842176 1.935524 
-10.928416 14.826488 -9.101879 
-10.477352 20.320595 -2.539202 
7.683143 23.046432 -0.784042 
-20.669430 -4.493353 6.948646 
16.250492 25.439125 10.249289 
24.534304 -0.688625 11.654257 
10.683334 26.107561 -9.755667 
-24.148426 0.631166 3.549493 
20.054523 0.985655 -4.285558 
16.610271 23.065136 14.402399 
-22.716915 -14.400499 -10.001048 
-22.814531 0.158917 11.842408 
-18.237661 5.031854 3.284742 
25.680260 -11.464619 2.323040 
-25.122139 -10.281190 2.735937 
-18.637974 3.528209 -4.135299 
-1.942776 25.709154 20.099279 
-6.758260 25.450165 18.510506 
-20.216219 6.120037 2.736072 
-19.959021 -3.677872 5.290261 
-27.770340 -14.047094 -2.624997 
21.996981 2.158333 1.548764 
-22.174358 13.907139 3.191221 
14.452621 13.800535 -7.740818 
29.942049 3.995178 -10.375003 
28.433279 1.605110 2.956840 
-18.717196 13.975974 11.914183 
-16.559780 14.790049 -1.066540 
9.488259 26.074800 -3.548542 
15.752073 24.109697 14.077941 
20.632853 -5.658427 15.503192 
14.866323 22.174559 3.687498 
-23.720781 6.228027 -5.172884 
31.929926 -22.185614 15.743164 
27.896240 -1.295060 1.352649 
-13.456560 9.627439 17.103273 
4.977933 21.835560 13.865287 
21.371161 20.088247 11.197992 
34.227745 -11.016291 10.711368 
-24.463533 2.859362 -2.550175 
-21.923750 14.990105 -5.356206 
-10.438537 21.945908 1.900253 
8.199692 18.885197 -6.062160 
22.434868 13.618429 10.466091 
21.826105 8.093165 -5.427874 
18.579378 15.731909 9.061257 
5.783677 25.727936 -1.893948 
20.624184 7.482942 2.316669 
15.748046 9.911041 11.762817 
20.550903 11.545572 9.101705 
-0.069959 22.938795 -2.541921 
-23.580257 -18.075689 6.216682 
-20.927364 14.210083 0.998857 
15.261596 17.601460 -0.480241 
-27.334808 -14.817815 0.955503 
-29.808802 -6.328324 -4.515608 
19.152493 20.251921 -4.120722 
24.088867 -5.865706 -4.513195 
-22.375107 3.817597 2.709289 
32.853130 -2.788738 12.059875 
-16.236641 16.739756 7.586001 
17.045586 11.862247 -4.109253 
-21.613054 15.330786 12.075394 
-5.318313 26.215054 0.529576 
-19.302658 9.144290 -5.383530 
-26.373766 -4.233863 3.384686 
-14.971480 16.155254 7.744215 
28.792866 6.499696 16.528656 
11.745063 24.866028 13.708028 
20.874489 14.604847 5.267204 
34.334824 -11.665387 18.009407 
-14.158663 25.784290 1.021391 
-22.768446 -15.370744 -8.454819 
-16.476944 20.674749 10.306904 
26.323919 12.336161 -8.553596 
-17.461294 10.435157 -2.831054 
-20.062958 18.976601 1.426674 
-17.861643 21.344809 -1.104182 
29.173342 -17.227257 -2.477089 
1.731768 24.322393 -0.397416 
32.955772 -23.138756 7.543443 
21.280504 -10.874415 12.197948 
29.807665 -17.047928 -0.707620 
13.706697 11.938429 20.038441 
25.243048 3.496005 -6.228147 
-6.679770 26.564053 7.414686 
-19.191484 1.738177 7.425291 
-29.411089 -17.397839 -2.375990 
-11.565254 18.836897 13.173362 
-15.438015 19.315144 -3.670802 
-10.518005 25.140610 1.123198 
-2.740234 33.638004 5.451931 
-24.715885 -9.724918 2.145156 
30.909676 -13.891845 4.517484 
-10.466464 25.640465 2.773964 
12.770410 27.736074 9.995201 
20.072664 20.914356 12.923286 
-16.214834 19.677980 -2.757733 
5.952739 25.843807 19.300446 
10.252132 19.075768 -3.462970 
24.519524 2.755439 1.953844 
29.152718 6.162736 10.676880 
-34.341984 -18.275213 -5.330090 
16.849306 15.827317 7.852011 
-20.800720 16.446241 2.730716 
-9.967710 22.679283 12.133939 
-0.125717 19.436611 16.233498 
28.163948 8.461853 2.738649 
26.396257 -12.722449 1.600016 
-13.356639 9.621511 13.925779 
23.401686 5.276795 -6.164967 
30.524559 -6.314264 9.217470 
-18.921352 -6.669922 13.833609 
-33.595982 -19.634701 -9.868772 
-9.816300 22.598091 1.977884 
21.912718 7.977794 -2.656781 
30.387043 -15.423368 5.308299 
33.201092 -23.653425 17.706964 
7.649217 27.272312 3.559338 
31.952971 -20.312851 8.988773 
27.844494 8.799067 -7.638740 
24.400511 2.241820 7.737391 
13.967690 20.777483 9.128813 
-13.543221 20.326359 -0.940310 
14.099141 18.418924 -2.539046 
-1.800012 28.107437 -3.805976 
28.369345 -0.153259 1.607216 
-34.172344 -17.921953 4.161864 
2.647006 29.443392 5.164164 
-15.716562 9.337098 1.597591 
-31.445515 -9.686797 6.115883 
23.600594 -3.130154 -2.974739 
30.513062 -11.458337 -2.169918 
3.291821 27.544104 -9.396113 
-20.123888 17.015644 13.274714 
-20.352985 3.822833 7.664070 
20.504065 5.833707 -3.053346 
22.393101 9.423249 4.049772 
22.477320 19.344028 -6.903424 
6.671474 27.032145 -9.368632 
24.824181 12.563587 20.446066 
13.171572 26.269577 -6.099625 
-16.340336 22.028418 -4.304324 
-26.176750 7.559328 16.886290 
-5.497977 24.327314 13.151921 
28.361824 -4.570989 11.004252 
-14.862331 14.204795 -4.288479 
-31.933558 -21.367386 -1.179963 
-1.918836 19.813894 14.450196 
32.781471 -16.732443 12.587190 
-6.925522 22.335016 0.860893 
24.963091 -9.907342 -5.803114 
14.056429 17.093952 -1.580444 
33.098534 -22.995195 -0.171414 
14.344858 26.052950 -5.317166 
-10.535328 16.509857 -5.045990 
-2.415160 18.588079 18.085798 
-7.267162 16.443806 17.548899 
14.122299 22.394846 7.851444 
-8.709370 27.104490 -1.805779 
-24.476007 -20.865473 -0.944100 
26.085785 11.669629 -0.257501 
30.388365 -25.602314 -6.336074 
-25.579550 -4.766244 6.728398 
-9.644343 27.362844 2.359499 
30.676668 -6.365737 -6.313655 
-17.769192 -2.239474 10.682712 
25.638876 11.140888 0.909616 
16.042839 18.603378 0.355978 
-28.382168 2.266050 -0.957435 
-23.256945 0.959998 -5.762676 
16.737339 19.193956 6.512962 
33.639832 -10.272996 5.761183 
4.462111 28.526918 -4.607619 
-23.942541 -19.063463 -9.829836 
28.154396 -19.134640 14.603712 
-33.362118 -14.641289 -7.301892 
-1.946861 27.566309 13.411602 
25.136522 -22.740715 12.405365 
1.114399 28.491499 2.189363 
-31.277142 -3.920426 -4.109002 
25.062542 -22.908476 13.737948 
21.411341 -2.639619 1.365670 
19.336845 0.474152 -1.354967 
-9.177813 15.099633 12.354329 
-23.039141 9.277302 0.147736 
-29.113371 -14.736866 -1.607722 
-9.133745 23.255812 -0.978558 
-20.875175 16.093950 11.176956 
-27.783392 -24.951263 4.169851 
-25.068285 -0.344233 -2.077691 
-20.807528 0.312965 -5.855659 
-4.344794 21.938156 12.811159 
-34.374523 -20.466730 0.690644 
-18.035034 20.598106 -3.081520 
21.846760 -2.229763 3.329916 
24.388908 15.724401 3.140872 
-6.688573 27.451057 7.615220 
18.052063 11.575138 4.190005 
-7.218162 25.957348 14.013786 
-5.750375 27.535175 0.610628 
12.258346 22.497623 0.424391 
32.237602 -14.857898 9.570620 
11.390395 22.914387 8.846089 
-27.053543 5.771112 4.260788 
-4.360231 31.960625 8.818594 
-18.793766 0.806812 8.353444 
29.115391 -24.336685 4.473820 
-31.272173 -14.587077 1.086109 
-21.120720 15.545356 -2.757375 
-20.567511 -4.888027 0.502940 
15.776053 19.718733 10.701676 
-6.164642 32.418880 4.239493 
-5.144269 24.788761 -1.859245 
23.455730 18.316536 1.985092 
21.881559 -4.248129 -10.109486 
-31.256798 -5.379177 -8.552067 
6.067608 27.622622 -1.477718 
-25.459045 -21.393896 -2.320042 
-24.567415 -17.769882 6.266433 
13.445946 14.592191 -10.885652 
-29.600405 0.027767 5.469016 
25.256685 3.555938 6.557972 
20.116169 21.207531 -2.177392 
20.600201 -3.347758 8.640127 
-31.582632 -23.055492 -9.724809 
11.760589 27.023375 0.560548 
18.283630 19.900730 -1.250260 
-15.937522 22.134649 8.882871 
0.735270 28.694511 1.324178 
16.271856 15.633749 12.182395 
16.969078 25.575079 6.711830 
-17.062992 16.681139 8.931167 
32.017948 -22.985884 14.126398 
-21.013401 10.506642 7.088509 
-13.173196 15.730927 8.301055 
23.983320 1.836415 1.281435 
29.248278 5.597910 16.259165 
-22.283096 9.843421 9.688376 
37.376850 -15.686057 -3.044279 
-25.056845 -11.803193 -2.873220 
-11.530578 20.990646 5.439867 
-19.622438 -2.908542 -7.078600 
24.450735 3.935903 10.774241 
-21.742462 -5.325742 -3.033133 
-27.008383 5.753956 0.812102 
-12.818412 14.890602 -2.868910 
25.792196 11.817049 12.421941 
-22.878323 -15.361448 -9.965191 
-23.152218 -13.468592 2.387822 
-24.507750 6.695922 8.686712 
10.850547 23.141684 12.124393 
-22.584955 -11.364966 7.233497 
-30.614567 -5.538175 5.638498 
-27.795691 4.348858 7.697500 
32.039612 -15.362363 5.063257 
-19.646763 8.317899 -4.894536 
-4.979740 28.251305 12.665852 
-27.817858 2.634474 1.561570 
-21.019650 -4.519674 3.095039 
-23.169704 9.579989 -2.732135 
-14.921805 21.820637 16.579506 
-16.317003 6.919113 8.713686 
31.081181 -23.472660 4.701675 
26.707472 -20.681574 6.073878 
29.821697 2.889932 8.516749 
25.461145 -15.527398 5.675869 
-1.671445 23.424782 9.699605 
-15.559547 19.061281 -2.485550 
20.315310 3.765707 -4.977674 
-23.655397 -7.220244 1.709335 
-25.230068 -4.522234 9.767679 
23.882080 -10.116474 4.288566 
24.608076 -2.959502 0.470090 
8.063520 21.753611 13.491648 
24.155207 -17.479540 10.092445 
-33.249466 -24.213751 1.818050 
25.749367 -7.179083 3.883433 
