2.187223 32.305061 9.497581 
17.306118 19.153624 -5.724762 
4.972388 27.599209 11.058889 
-14.617439 8.035288 -3.025318 
8.588786 27.512505 10.659688 
-6.680754 28.190172 0.691572 
-11.667134 16.647575 1.396565 
19.240181 15.372988 -5.322143 
-27.210047 7.650353 6.394962 
6.475994 21.748320 -9.735872 
5.259061 31.859100 -3.766783 
7.288199 29.585234 9.463372 
-16.895950 6.368948 10.454828 
-0.809464 34.882294 9.792740 
27.441120 -7.527279 12.026988 
26.426640 12.422668 -5.553728 
-5.056291 30.293407 6.545035 
17.796410 22.521708 0.826590 
24.317430 -0.605594 -2.624955 
11.367579 23.673700 -2.125234 
7.136013 26.371534 2.492871 
17.897711 6.401973 1.400181 
-2.189168 23.909988 -6.436434 
13.573458 29.802137 -3.684258 
24.828026 15.121739 9.366382 
21.607599 7.188219 -5.672366 
16.349220 22.759756 8.077298 
-11.441318 28.624334 7.386331 
-3.929402 33.816547 16.138382 
-23.485332 13.595860 4.890066 
-19.958363 17.629780 0.083724 
-30.471972 1.113703 14.079774 
1.993088 35.857010 5.932931 
26.168343 12.483736 -4.633106 
21.646189 18.901520 6.083706 
-10.533087 24.868935 3.289654 
-26.629301 10.945080 9.709140 
-19.135698 26.025459 14.562871 
-2.914388 26.322460 -4.705715 
-22.467236 -5.838174 9.916010 
-18.503590 26.604338 15.700761 
6.935188 26.185904 -3.423143 
-21.432476 -4.492437 7.239978 
-26.486902 -5.779548 4.161817 
-30.266937 -2.214370 8.760478 
-29.725748 -3.790952 1.867483 
14.668620 28.796417 1.977059 
23.984058 13.299254 2.480144 
-5.627361 29.937090 -1.616944 
-13.225200 28.023409 -4.646544 
-10.040255 26.220121 8.386061 
-17.315670 2.565460 -3.126050 
-16.979633 30.843861 6.259200 
-26.575531 -1.120789 13.166737 
-6.039007 22.547470 -8.238799 
29.151323 5.441567 -8.352295 
17.075804 15.639048 8.751842 
-12.174897 31.619799 2.093364 
18.682230 21.257826 -4.995057 
-18.937422 3.435871 -0.063795 
-16.564405 6.848695 -4.328297 
-4.988855 27.808908 -0.648430 
-18.158785 14.024199 11.238485 
-20.154528 8.517344 11.650357 
18.557646 23.845943 -7.690260 
22.245958 4.586887 -5.571352 
14.980535 28.380512 2.803940 
-24.819357 5.734991 11.519704 
-7.211681 24.401438 2.696572 
-7.125014 33.456654 10.407803 
11.913146 18.317736 0.951892 
-16.929661 21.999338 2.365565 
-14.383177 26.870516 -0.111577 
-14.753940 8.942245 -1.613022 
9.860171 25.298456 -1.225764 
-21.441824 2.162920 5.357239 
28.190269 5.582456 -3.955807 
25.255548 2.652394 4.126851 
30.068911 -1.651406 2.161936 
20.577217 -2.323952 3.760506 
12.299433 29.344070 10.433381 
-10.541127 24.864948 10.835748 
5.564015 30.177315 8.285007 
-28.633467 3.826226 10.322757 
-13.063210 18.307497 -1.520468 
-11.425188 29.152185 1.218833 
-20.458332 -3.449904 3.799091 
28.956743 -8.654512 2.780563 
19.418865 12.805008 -1.295177 
-7.835222 26.940344 6.824257 
30.761251 -0.059188 -3.949085 
20.200697 -0.117727 3.807963 
9.062302 29.010666 4.791537 
14.830885 10.159969 15.113257 
-11.177979 15.507689 -5.681902 
-22.566872 15.934810 3.462126 
30.974689 -4.301382 1.524117 
-17.065392 25.985512 6.937360 
-22.411213 4.508200 -1.864388 
28.406906 -8.981463 -2.633911 
18.154192 10.764021 11.999703 
1.105009 27.488165 13.959253 
14.485489 23.995457 -4.023468 
-29.416557 3.903168 -1.557754 
25.116737 16.158489 0.210653 
26.563520 4.889241 12.164803 
20.886690 -4.308883 11.835454 
28.333084 -0.669262 11.963234 
-24.382982 6.854756 2.669299 
-18.009233 6.544640 -1.597914 
-14.530326 31.656605 7.046324 
15.804313 3.169190 13.067985 
13.831823 28.075428 -9.304656 
-17.644077 30.410112 8.076379 
-6.418653 34.988617 9.013797 
21.490688 7.315018 3.092423 
21.219868 0.978213 -2.580394 
15.972773 22.918140 -4.146699 
20.857855 16.993008 5.236488 
24.276842 -10.102252 3.566923 
16.925306 12.293907 4.976288 
-14.512365 12.578865 15.141659 
-12.186682 22.935116 4.370800 
10.798077 34.033195 8.729197 
-24.442150 -5.100060 -2.918546 
-21.573404 21.942989 15.303905 
-20.224442 -3.449870 -0.215667 
-12.394506 19.155861 1.112816 
18.441475 0.423680 5.193504 
21.354958 -5.881240 -3.227954 
-8.306070 25.616903 -6.100795 
-5.792794 34.697979 12.744892 
-19.076475 11.258952 3.599889 
21.192511 2.347643 11.783303 
-13.084660 28.962091 0.753346 
-22.516991 20.006536 15.041870 
-17.344435 19.057499 10.960719 
20.111692 9.960578 -2.082998 
9.146016 31.521446 12.549759 
-7.491225 22.439379 -3.691317 
23.049900 17.698387 -2.964924 
-17.846294 3.791178 0.650466 
18.330576 19.264675 -2.650151 
-11.208938 31.149952 15.728462 
19.602592 20.628798 -0.192096 
25.042582 15.228799 0.905563 
-12.452682 25.792547 -2.952866 
-20.440437 6.078061 -0.980643 
21.892103 1.177805 4.449762 
0.698904 27.990667 12.487811 
30.137064 3.297239 -5.638304 
23.054787 12.953097 2.810277 
-22.856001 10.141810 4.067735 
-3.678456 26.221201 -5.060480 
22.394617 9.935180 5.169981 
-21.507898 -4.615416 4.624819 
12.462750 19.739239 -2.274699 
4.986749 25.731527 16.867794 
-0.451732 31.597332 10.191863 
-14.662176 14.433050 7.373929 
-12.292623 13.274941 -5.344231 
20.039854 1.083889 1.351099 
-16.313919 18.867510 4.602313 
27.061686 -6.442766 -3.843456 
4.712743 28.438963 5.532045 
-19.802755 23.179928 5.374517 
-19.065729 20.437265 10.516998 
-30.281605 -2.231418 1.796445 
-6.446950 30.643087 -4.056559 
-18.183172 8.390643 -5.693899 
-0.601686 31.728533 11.571865 
-28.320591 -6.483048 -1.051731 
-13.025892 27.397705 7.420416 
-30.590059 0.253963 -7.750720 
21.049437 -7.744726 11.596422 
-20.675716 23.764971 13.635254 
13.503521 29.656954 -1.454654 
23.368359 9.278585 -1.942925 
19.910582 18.287786 1.555030 
-27.871603 -4.327824 4.840195 
22.129684 9.828849 6.991181 
3.587855 26.363173 -1.053134 
21.360050 18.392069 5.475994 
17.418411 12.463799 3.976472 
-15.037862 21.268759 1.846873 
-13.252760 28.693457 -0.205947 
-16.873295 30.142738 13.371702 
12.563050 21.510807 -0.516908 
-21.908630 2.256611 8.701616 
18.273666 3.225919 -7.053805 
25.418375 12.484041 -3.100342 
0.584070 32.129578 11.672364 
-20.188690 12.685033 5.481448 
-10.401381 26.953259 -0.328565 
-2.469425 35.820198 2.563051 
28.842527 -4.753827 4.240088 
12.124462 17.847507 16.816355 
15.374451 28.131683 -1.742383 
-11.621644 27.323444 4.488097 
-9.950916 30.957458 -8.610944 
11.514167 18.333147 -3.307738 
-19.677038 2.735114 0.061410 
-16.036871 21.011509 3.610585 
21.778885 5.460076 -5.676909 
1.257707 32.533272 4.902879 
18.795782 26.582441 14.606229 
-23.324472 3.976960 -0.648012 
26.961267 6.774295 5.423309 
21.488047 18.503603 7.128007 
20.869101 22.114239 16.916637 
-19.252687 23.884224 4.964197 
12.560255 15.906068 -4.226187 
-24.593184 -3.212840 4.502627 
-29.127260 -0.696543 -2.378756 
-23.700115 7.118351 -4.257286 
-18.600374 -1.291260 -2.483241 
8.095675 34.105839 6.196393 
-8.987368 30.171429 11.940069 
-16.493666 4.785079 12.119887 
3.976584 26.988449 -1.514712 
-4.428097 22.990250 -9.819122 
5.987805 34.825436 3.544571 
-23.386442 17.349485 6.245881 
-5.493395 23.020939 -6.468760 
7.949420 30.667847 -9.106181 
-16.036581 5.598765 -8.257215 
-21.144630 -1.791840 -3.688931 
-20.097252 22.481543 5.811077 
-13.172699 29.932339 1.823176 
14.229124 12.206740 15.015034 
24.053278 15.307495 15.888231 
-25.364250 3.961241 5.513970 
19.205547 15.871992 -4.274922 
18.925570 12.792019 3.250096 
14.277897 17.302464 -5.881278 
21.586369 -5.815687 3.439272 
25.837313 -5.007987 4.580859 
22.888123 9.350286 4.438735 
-20.076475 24.577099 11.709901 
28.336535 -7.182505 6.961812 
-22.077417 2.265680 5.975259 
-12.326824 15.605592 -1.656687 
13.822294 15.986126 10.045378 
18.913393 23.322638 6.841960 
-24.469099 3.215605 8.235257 
-15.609464 25.601460 -5.615176 
22.115799 0.769483 2.716611 
21.229305 16.862236 -4.413549 
-21.306601 4.812313 11.448485 
-12.674126 29.367987 -3.092126 
8.759164 29.027716 5.548596 
17.866901 17.816416 -4.043456 
-9.624899 29.357008 11.950708 
2.781542 35.206863 2.849110 
-22.755037 1.738467 5.605169 
25.065342 11.581800 6.244802 
15.765805 24.126869 5.837927 
-20.494461 1.363608 -1.219133 
-20.197212 -3.659331 -7.430626 
-22.217884 -7.138281 11.650373 
-20.968647 -4.758705 0.148564 
-16.876369 6.323613 2.725526 
-19.865892 10.581182 8.718966 
-22.980566 13.385393 4.203835 
-6.067364 25.009027 3.641506 
16.108074 2.207855 13.932423 
12.695793 29.720177 -2.046248 
-14.881706 25.638388 1.449315 
13.695145 14.692627 10.562822 
-2.010556 29.536419 -1.191983 
5.199472 31.131413 -10.560378 
15.967643 22.505959 -5.207262 
-16.913996 9.765265 7.341021 
17.141800 11.733096 4.401582 
26.806316 -3.570132 -0.813605 
-20.618570 23.802397 12.167207 
12.547124 19.402048 4.592177 
9.716550 28.393816 -0.616341 
19.180056 -1.545405 7.852023 
22.638100 -9.229531 -1.809256 
15.852649 20.302528 4.874211 
-1.510284 33.642536 16.923229 
29.332005 -10.157312 -5.313870 
-18.693766 -1.679483 -5.161454 
-23.186138 5.027178 4.520041 
7.273909 33.275265 4.595032 
19.311655 4.014161 -4.276848 
25.183157 0.948684 9.623952 
-28.149933 -4.639727 -2.067568 
19.037697 9.308835 8.387178 
-29.946072 2.046674 5.463141 
-2.798310 30.823183 3.804339 
-11.709200 28.180147 5.761879 
11.378332 28.955822 9.243034 
-22.349133 1.115343 5.190005 
-7.372689 31.600826 3.614321 
26.100811 9.441506 2.957270 
-10.742176 31.395084 3.969552 
-18.130602 11.215151 9.046446 
8.862749 25.224791 11.312656 
31.074976 -3.412881 -0.822484 
8.276922 30.020557 1.835899 
13.056224 20.321394 4.558949 
21.199926 19.216352 4.501627 
-20.407841 17.392771 11.217036 
24.042744 16.273596 5.497894 
-13.003644 28.379633 15.159978 
28.521841 -7.894364 4.035953 
-10.568254 26.017420 4.593138 
4.838827 30.089985 4.107645 
24.405674 9.876414 8.840557 
14.705720 18.076687 -6.032242 
5.967511 34.885033 10.278951 
-13.183819 18.990284 4.511855 
-16.080202 24.574806 -2.742583 
8.700818 25.534241 -0.781674 
23.034309 16.972383 5.431933 
15.235775 13.407243 -3.968475 
17.766413 5.059700 4.118906 
19.372179 16.779652 3.929493 
-19.246702 20.385868 -0.604929 
-6.146791 29.335897 -4.498960 
16.133678 25.720125 -10.109468 
-19.351688 -0.851623 0.883744 
-12.815042 31.135160 -0.768293 
-21.264919 13.651615 7.004418 
13.476130 21.073061 7.111968 
7.100536 32.545307 5.810837 
-16.473038 30.140274 14.135340 
21.667505 12.920316 2.694122 
28.693541 -2.752826 12.016517 
-10.005650 32.007431 -3.975895 
11.486325 28.198593 8.763186 
27.256987 5.478097 10.195827 
-6.557036 27.829308 3.207840 
13.360426 30.597101 8.228476 
-2.163674 26.803339 3.993635 
22.790773 -10.406381 -5.536099 
15.651284 4.083275 12.786322 
-22.786192 3.978172 11.231137 
22.482351 -7.261969 12.525127 
-25.762129 -1.621659 6.354310 
-28.895355 2.938064 12.154407 
24.068071 7.835574 -2.197567 
30.460457 0.757874 -7.942352 
-5.435064 35.834591 9.244191 
-23.072710 0.921755 -3.783636 
5.920834 30.407417 1.186446 
7.491253 32.265247 8.048426 
3.059043 32.922550 3.556667 
-0.378317 31.514820 -3.188344 
-20.768528 12.951199 6.748085 
-14.385703 8.605411 2.320247 
20.634951 -5.794116 3.299867 
-12.408241 19.022821 4.952592 
-11.113833 26.587620 -4.731163 
-10.780327 27.101301 -6.712460 
23.736189 -0.304735 7.176654 
-28.472027 -0.994950 13.115035 
-29.745926 -4.681244 11.909514 
8.029451 30.987867 -6.665134 
-5.410461 35.229668 11.605167 
11.979401 20.018892 1.223928 
8.067875 34.131046 4.850279 
-16.970972 9.732234 2.797552 
9.220403 25.470871 -2.497154 
13.523855 20.573526 3.011555 
7.866640 29.042206 11.391211 
24.654251 4.348718 12.339878 
19.244005 1.023456 -2.430298 
-19.847452 12.548237 7.536161 
-17.080235 8.488195 -5.632665 
-20.196518 7.606962 11.691585 
-16.743408 4.905701 14.041700 
25.100506 1.900061 -4.386274 
-16.492693 13.142464 -1.276471 
26.272007 8.089477 -4.736701 
-10.920968 31.410061 -4.952936 
-24.230164 5.010151 0.293048 
-23.606913 17.223364 16.603714 
-14.119202 9.844594 -8.636318 
-24.145256 16.512760 15.236118 
13.312349 19.484909 -5.467749 
0.181832 31.019693 4.106109 
18.090822 9.458944 6.994212 
23.130112 0.623962 -2.621988 
-15.343237 24.861891 -9.957885 
19.367327 8.670251 5.433294 
-14.538387 28.584421 6.515127 
-10.722583 19.714184 11.844963 
28.335928 0.999569 13.640713 
10.625286 33.537540 3.130404 
-9.543903 21.147028 -6.000509 
18.377790 17.218439 0.037088 
-14.596630 23.659721 4.427824 
24.928371 -8.489817 -0.693960 
26.883947 4.860747 3.619179 
23.601000 16.507799 15.664719 
-27.076607 -7.246391 -1.043654 
-17.370264 8.907236 3.907047 
5.774054 30.453629 9.061884 
19.964813 9.375348 2.649846 
13.460754 29.209286 -4.246523 
-28.288326 5.924225 -8.256383 
-16.417694 25.997675 9.291910 
1.846990 35.388580 3.223549 
28.433111 -3.375916 5.941302 
-19.148617 13.308903 3.516509 
-6.866822 33.441368 9.312008 
20.640083 11.302668 -2.992431 
-22.564821 9.185496 -4.982050 
-30.528355 -1.642216 0.853808 
24.184568 10.526088 -3.129795 
15.712550 3.237513 9.870583 
-19.921631 -2.956559 16.388245 
-8.924780 31.966932 -5.307386 
-25.304319 14.399156 13.588881 
17.380671 13.917413 8.525250 
22.099613 -8.772512 6.931923 
-30.183825 2.606048 -1.275061 
-18.912712 6.954268 2.511260 
-26.336451 -1.593580 -3.365111 
-30.509510 -0.335607 15.607652 
26.574478 12.312572 -6.575464 
-27.775236 7.262152 -5.529173 
14.825300 25.684082 -3.539426 
-11.881145 23.771797 12.460871 
-19.546772 -1.512923 1.860741 
-3.041327 28.610027 10.084862 
29.294039 5.614072 -2.406543 
28.043991 0.145329 12.083473 
-13.755815 28.588724 15.402203 
28.573721 -7.176292 15.682347 
1.115494 30.680004 -1.599872 
-4.098052 22.880814 -8.568657 
30.613426 -6.048117 1.823798 
21.300844 20.517101 -8.443194 
-5.282147 36.251797 7.158708 
18.970676 25.519686 8.797904 
16.003557 5.516793 16.694046 
18.909748 23.186987 9.300797 
9.862870 21.549948 16.846775 
-24.116087 9.229578 4.993125 
-23.617569 4.673394 0.954732 
-15.890574 25.370918 9.118221 
-7.013001 25.452286 -5.314995 
-25.607435 3.837962 8.365230 
-12.278459 20.302143 -3.146579 
-17.702065 2.039607 12.181379 
27.371634 2.625109 11.026881 
9.119145 23.999022 -2.383402 
-23.735916 -2.595607 3.540525 
-17.284800 12.498090 4.312619 
-29.858038 3.635660 -2.713428 
-30.278503 -1.289985 7.195667 
-13.028341 28.292725 -1.045494 
21.347515 11.536237 1.079568 
24.742044 -0.602415 4.457371 
-16.591480 18.067570 4.596651 
-2.579494 25.589552 2.382171 
23.100454 8.907666 8.918620 
-18.420721 24.404915 11.048833 
30.594439 -2.275779 1.748802 
13.889277 22.923805 0.399354 
-16.058342 17.112867 2.619603 
21.636343 19.946342 -6.079058 
-22.493134 11.422270 3.558815 
20.001406 -3.416647 5.513896 
4.002455 35.202209 14.046294 
18.653584 -6.975661 8.479280 
12.915691 15.990891 -2.686363 
-7.501133 21.300247 -6.110407 
28.489584 1.008209 15.620163 
20.160629 2.241895 11.496788 
-14.494088 31.257898 13.342988 
1.994451 24.040813 -5.647788 
17.754627 13.345050 0.769486 
-2.559913 27.906982 -1.383146 
20.846006 10.094122 11.377310 
31.029331 -2.893401 0.237712 
-19.380646 20.256708 -7.488312 
12.512740 28.367180 -10.334207 
22.226217 14.956884 4.006925 
-17.209839 7.803809 4.425621 
-10.100832 23.506924 14.251320 
-0.114836 34.553867 7.204905 
19.641920 -1.696455 -3.210257 
9.078077 29.985090 -10.468624 
23.625076 11.885230 11.007073 
-11.582379 20.999407 9.759920 
24.919039 0.306979 5.560640 
12.883575 29.892929 1.154673 
9.594938 20.578690 -4.712974 
26.267290 -0.021171 -0.924170 
-26.200968 6.064530 3.268740 
19.714050 12.151716 1.860965 
25.290768 13.619933 6.165420 
-20.118517 9.955667 3.480164 
-8.386632 22.141380 1.606958 
-2.476390 35.477886 12.946987 
28.046946 3.629076 -2.568875 
-25.362154 9.172795 11.566039 
21.246765 -8.946465 -1.761331 
-0.367392 29.226265 0.558030 
-29.692554 3.406999 13.395129 
29.888193 -4.451624 -2.814682 
26.943663 2.401315 6.055550 
-24.150009 16.438599 11.087159 
-24.344385 -2.240601 12.791593 
-12.149519 31.530704 7.523253 
14.806635 29.014660 11.421950 
29.563078 -0.917457 0.303704 
28.046701 9.094204 -1.650060 
-26.556572 9.355145 -5.182526 
-18.745430 10.019392 -5.695303 
-21.634518 14.062103 9.117300 
9.313427 28.923807 11.841734 
-16.162512 24.736427 -6.784690 
21.012770 -6.451457 3.655595 
-11.446465 27.599949 1.048668 
-16.767380 6.977874 6.271954 
-14.844300 19.077658 -4.956879 
-28.239149 -4.118744 5.592901 
10.620214 20.782373 15.168470 
4.510951 31.865320 4.819560 
-18.127893 27.178392 11.326951 
-17.749218 21.013731 -1.969099 
-13.865934 15.469739 -5.190860 
-23.486322 14.651365 8.042685 
21.943209 -1.352492 -1.684293 
-18.759369 28.592609 9.776515 
21.261744 21.350546 16.909941 
-24.258284 16.537085 12.910983 
-11.330317 29.762732 11.896079 
-16.466267 7.007442 7.034811 
12.071327 33.718239 5.214498 
17.760185 7.367762 2.020145 
19.308834 12.115404 2.998393 
9.023871 26.700180 5.232996 
16.503851 20.290184 -5.909359 
-4.193355 32.501549 5.879038 
-1.478181 37.954258 3.397645 
-2.091988 31.008125 11.957559 
-19.699764 -3.111182 15.223970 
3.851584 32.480614 4.653974 
-22.552303 4.260508 0.946580 
-8.225357 32.161064 -3.162581 
12.539561 26.569683 -3.251751 
5.154940 31.579159 4.019012 
-11.854541 18.404318 0.764693 
20.788059 22.294647 7.921916 
-18.574886 21.229240 -8.363225 
6.808455 31.327295 -2.011869 
-11.935939 26.666582 8.483370 
13.384799 17.100725 -4.612550 
-14.959779 29.265339 5.287061 
22.834076 -8.856609 -2.795596 
13.634662 32.803371 4.489767 
-13.112908 24.986317 13.985375 
-30.308235 -0.286786 6.623347 
-30.571487 2.227823 9.529396 
12.938527 29.961853 -4.217133 
26.751823 -8.854725 4.756258 
11.936695 29.458397 -0.024853 
-18.867826 11.575226 6.868437 
19.182409 3.064067 -2.717331 
-17.760067 2.703396 9.967820 
24.325016 5.224633 5.036135 
12.762963 18.001348 -3.394530 
23.967464 -10.261100 -0.798701 
24.276348 15.768723 4.508667 
-19.277067 -0.511570 1.829755 
2.277724 28.549971 10.218284 
-2.207802 28.474401 -0.612469 
30.793501 -1.620110 -0.974996 
-16.426992 8.780010 -5.207202 
27.866901 -3.031832 13.590246 
-30.416721 -1.809423 9.566969 
-23.589617 17.041685 9.838046 
19.989834 -4.915590 -3.256108 
7.193470 29.962334 7.020789 
-20.671402 10.442872 3.850083 
-19.804255 11.427818 7.769548 
-12.395513 29.436941 1.765884 
-12.028909 29.700932 14.199443 
-5.620829 31.097061 -4.778543 
15.603913 22.767673 6.016995 
-12.282142 25.033579 10.203772 
-30.590004 0.653763 7.311627 
-14.832029 8.409866 -2.230635 
-26.782135 -2.870368 13.042897 
-30.420275 0.187238 -0.832461 
22.590986 -8.776076 9.590166 
27.280752 10.365215 -3.893721 
-18.195032 2.805138 -1.047334 
16.579134 17.447538 2.524067 
-26.420815 12.132990 15.251885 
-17.149763 30.904881 9.429081 
-23.316751 -7.565400 10.096137 
10.614448 27.028851 -5.381092 
25.620001 -10.484901 -0.133548 
10.479626 25.287556 -5.432008 
29.475775 5.686393 -6.276070 
-9.357132 26.630144 4.768421 
-22.018162 15.992502 -6.662143 
-17.164309 2.514210 -4.100088 
-12.077376 27.213022 1.913231 
-10.980630 30.744076 -7.377741 
24.122683 3.596410 4.295569 
-15.028469 13.743469 4.318169 
18.769650 10.745828 -1.007061 
25.098101 16.678036 -0.511108 
24.593348 -7.190095 13.293540 
-13.134862 14.528753 0.648244 
-22.115543 13.754476 4.024822 
17.979446 5.670059 0.068991 
19.571815 1.807458 3.080525 
15.133510 18.724579 3.841287 
-15.139303 24.845646 -5.632084 
6.934806 34.566166 5.804003 
-3.202291 26.993612 15.200026 
31.045872 -5.352779 -7.404807 
-7.718986 29.336586 2.254370 
16.448853 5.400723 7.040680 
-23.610367 0.899691 9.388224 
14.676875 13.744025 -4.738730 
-25.416069 -3.784613 12.724102 
-20.553041 -3.792583 7.854980 
17.808071 18.799109 3.654455 
10.343865 23.304123 -4.764286 
1.603652 29.093019 9.395925 
-5.288188 28.502617 -3.997054 
-28.616768 6.308350 11.940036 
-7.672002 21.144039 -3.395348 
28.764027 8.044559 -5.717385 
21.512674 19.312155 5.390742 
29.842283 4.481261 -5.958975 
-18.641167 26.725409 12.992588 
7.760378 21.085587 -8.111567 
11.605090 25.409468 -5.813645 
16.516253 15.755558 0.985927 
22.251869 -8.325502 12.097259 
11.880042 16.816080 -9.313881 
-14.393622 31.025143 14.295666 
8.907298 23.234875 15.193939 
-23.857107 12.890058 -2.022367 
-14.955409 13.301935 5.254716 
-18.463486 12.014376 7.489621 
-11.904466 29.796032 6.430050 
19.596363 10.762121 3.592441 
-27.916227 3.755953 -1.560157 
14.999139 16.751211 11.844072 
3.392548 31.497139 -10.588279 
3.983475 30.064920 -1.641529 
-29.019150 5.390778 12.916763 
-8.469360 32.652279 12.548639 
16.413200 23.000532 7.254142 
17.852295 23.214027 -0.879961 
25.244112 1.237181 -2.929491 
-22.455048 11.446080 -4.806457 
-4.180636 30.599281 11.815384 
22.064009 9.732121 3.100840 
17.894833 0.843750 5.749487 
15.597658 12.180914 -5.315672 
28.666286 -4.010227 4.701439 
-9.252766 24.379625 2.071233 
-14.398154 9.839964 -1.116613 
28.728659 -2.187564 16.676821 
4.884612 26.732101 -0.984631 
-22.445009 -4.598332 -3.197511 
16.261633 12.655952 -2.964570 
15.012782 11.182165 10.495728 
-19.597624 23.411556 10.905811 
-15.994226 13.636064 10.923665 
17.513412 24.160809 9.916516 
21.242422 -0.654849 2.840364 
-9.201601 32.111946 -4.060365 
13.657305 16.054125 5.634909 
-16.070234 29.236221 15.941733 
18.592630 4.071194 -1.702261 
15.453202 17.001003 -5.767634 
10.071473 28.631262 2.868781 
1.463272 27.939203 -2.952268 
15.767076 15.756726 1.419231 
14.755094 28.958021 0.508738 
-22.914665 15.395509 4.220620 
24.696211 -6.581502 4.298557 
23.723938 -7.330677 5.203919 
-12.434447 25.291174 -5.721914 
31.094891 -1.206386 -4.083405 
-23.903364 12.481901 -3.334975 
-21.995268 14.382154 -1.722746 
-1.682330 29.706545 1.115978 
8.731362 29.692024 6.241716 
17.225182 29.937553 7.723248 
14.843670 23.129324 -2.553188 
15.226372 24.694937 -3.281407 
25.855799 9.012537 -4.710775 
-12.202587 31.566952 9.482084 
26.345072 3.233051 11.402197 
20.102821 -8.561367 9.110897 
24.928791 15.921479 -6.503825 
25.579746 -0.959197 12.657752 
-14.942925 31.816196 8.819383 
-6.343431 27.219734 5.672243 
-16.875711 18.824274 3.457285 
-17.091393 12.302434 9.147799 
-13.592221 27.489285 -4.083348 
19.892563 11.415509 -4.933879 
18.756962 24.603247 9.330585 
-11.154424 30.894640 16.835588 
10.415493 32.042103 12.685555 
-27.791405 7.164569 -6.856182 
-17.610035 20.701082 -2.858922 
-17.841364 2.234388 14.826709 
-18.338984 12.621521 4.570998 
-7.425493 25.146498 -3.338205 
-8.237710 20.088938 -9.554044 
-5.675056 32.157936 8.791859 
20.171604 -5.601460 11.369762 
13.806330 32.830029 5.299099 
-10.288686 26.722145 -1.857071 
-26.182354 4.034528 11.128252 
-23.486345 9.136353 -1.796691 
28.838480 -0.814298 3.106921 
-17.501474 19.378956 -3.302797 
-26.510757 -0.895143 6.560693 
-21.621712 -5.416099 8.215142 
-18.958765 3.624705 2.392209 
-16.971344 23.609648 -6.846624 
24.586130 13.841698 15.893776 
-22.132406 -3.034925 4.504889 
-26.529219 4.943727 6.209882 
-21.677568 0.382410 5.515684 
-23.270794 13.141388 8.473275 
-2.744312 31.296137 -2.189924 
19.321596 -0.601617 5.855281 
14.306499 26.311749 -5.961702 
22.249214 11.517791 2.752896 
19.223011 8.827372 3.174172 
-19.953764 19.071039 -3.037499 
10.566758 21.436134 13.922204 
-17.378109 30.452246 11.246335 
0.349935 28.520033 0.511174 
-19.197039 0.434970 2.063525 
19.426805 9.906745 -1.208425 
-22.990282 18.010675 5.740666 
-9.086596 31.051277 11.206945 
-24.637419 -5.491245 9.586174 
14.554902 29.754635 16.969954 
3.771787 31.104376 -0.183503 
18.079163 9.543802 8.191125 
-16.875793 24.119055 2.659347 
18.611420 26.080353 6.306329 
-20.056644 19.068956 -0.806210 
-1.016983 31.223574 8.902292 
-21.155079 6.540345 9.231342 
22.833673 10.093697 7.332135 
-20.684746 18.403643 -6.006709 
26.206533 1.278373 8.339293 
20.855742 11.434699 -4.046424 
-15.860137 16.226957 9.605054 
27.240845 5.883751 7.381401 
-22.450510 2.328415 6.806100 
18.514193 11.993259 -4.641748 
-25.662203 -1.102381 5.670663 
-4.046490 34.304428 15.437662 
6.706711 30.069458 -1.817071 
-15.516046 19.934242 12.154014 
22.158567 -10.507194 -2.534865 
-5.034244 28.536518 3.051363 
-24.987410 -0.699693 -3.691919 
-20.782888 22.255779 9.835155 
18.401142 6.528741 3.512797 
-18.365152 17.494307 2.617256 
-27.336079 2.282273 5.800215 
2.936351 35.425743 3.881538 
27.080494 7.217811 9.409000 
15.136714 8.681143 13.279134 
23.999741 -2.790287 4.710902 
-25.764614 10.224742 -7.509404 
-7.521360 27.313139 1.595665 
-10.299368 27.246475 9.518122 
19.343046 -0.863879 6.861276 
-14.739692 22.043242 4.407530 
-15.798895 17.510931 6.640718 
5.254835 28.921171 -0.511292 
25.303215 -5.248301 13.646569 
23.374069 -4.239256 13.076179 
27.951679 -8.355668 15.475299 
-18.870132 20.123348 9.637007 
21.999395 -3.624004 -4.344420 
-20.846788 -4.745546 8.446547 
-5.947538 25.383770 -4.793526 
-28.798437 5.359775 -4.102839 
-19.968483 -4.743772 10.788946 
-15.260910 14.764700 3.007620 
15.121594 12.550779 -6.225064 
12.855572 24.573885 12.321207 
-13.134845 25.309664 -3.576849 
23.155941 15.324262 -3.948207 
23.504047 16.775793 6.205509 
8.900805 34.296814 5.342794 
-20.241583 4.849264 11.302931 
20.007252 4.948791 2.956754 
-21.076733 -3.484845 4.921406 
-7.468331 26.013512 -6.047301 
-16.276045 21.830730 2.879876 
15.872158 28.307926 12.245407 
-3.514918 37.488800 6.576682 
-2.708877 26.925875 16.837578 
-23.548407 9.921110 11.704167 
24.396196 -5.091852 5.008158 
18.669395 26.970673 6.381704 
6.965621 34.846539 11.541203 
-24.258072 6.363322 -2.589392 
-15.635768 25.376131 -3.401547 
-2.388141 27.950788 3.772465 
26.893776 -0.813751 6.083829 
-2.073949 32.969288 3.962875 
-12.968323 12.255996 -8.851776 
4.560972 29.626484 1.150404 
0.387717 34.564350 8.285680 
-23.260113 2.835795 7.454291 
17.383093 16.937439 -3.214739 
-7.296751 24.930626 12.888539 
-13.341659 24.447998 -6.248020 
12.800217 15.526854 10.508032 
-4.992932 31.635695 -10.580283 
29.025307 -6.067520 8.638766 
27.887939 0.879147 -0.275762 
-9.643497 20.458759 1.355224 
16.265671 22.671820 -2.797258 
0.443046 31.059927 9.056288 
-30.097530 3.287946 -4.377420 
-23.299887 -6.754239 9.039290 
19.881969 1.154745 0.443982 
-7.396875 25.841681 -2.165165 
-22.073296 -4.459899 6.581662 
-30.566633 1.850591 -5.473828 
-29.407143 -5.471231 -1.088662 
-1.616140 35.243301 14.005397 
21.367157 -7.701789 -7.174291 
12.454979 26.534779 9.199195 
20.114681 20.886114 -3.968030 
22.155197 0.523786 -2.017726 
-22.965910 19.012575 15.254996 
-24.534428 2.732544 11.948757 
-28.465279 2.605872 5.743388 
-12.127613 14.460768 -2.850463 
1.593735 28.866501 -3.396613 
-1.522081 24.864220 -3.989386 
12.617804 15.842293 13.791977 
-14.067336 9.650095 -4.089374 
-2.432383 24.796072 -0.307777 
10.238621 22.585258 13.272332 
24.154438 -9.451639 10.895256 
20.649715 -5.140283 -0.955367 
19.417255 7.909925 3.993573 
18.267633 19.997318 2.601510 
-17.877138 15.644668 3.649801 
21.351248 -1.433941 11.236174 
-21.795023 10.069999 4.721534 
24.191191 16.135775 -9.283560 
-23.077013 14.335395 -7.664423 
-29.577991 4.210361 -5.351075 
-19.981747 -2.650899 2.067767 
-21.834332 20.507116 11.241983 
-14.579803 21.906063 -1.967818 
-6.423208 31.671751 5.369045 
-30.051300 1.489603 -1.757591 
-1.487395 28.305340 12.065856 
-23.262352 7.691777 5.178823 
-11.176278 27.406965 9.131509 
-26.865807 3.924037 -1.759316 
1.581367 33.918373 16.944229 
-16.975677 8.963873 4.942813 
23.099928 11.940580 0.668745 
25.079899 -3.266944 -4.295039 
-28.982336 1.198815 12.751038 
15.739865 5.544741 14.933810 
21.482361 19.984623 9.569283 
28.390703 -7.332708 14.260129 
-22.221861 19.638718 10.706587 
-22.069513 11.691887 11.189809 
26.593725 3.362858 -0.972277 
-20.790510 4.575719 -4.238728 
-25.240858 11.599753 -5.240364 
11.303696 23.488609 10.099051 
-23.781347 13.699972 -4.265529 
17.483294 29.005514 5.643196 
18.236721 9.255415 2.991107 
-27.844372 -6.068275 10.112926 
4.278519 26.460257 15.075039 
-19.603523 18.567972 2.696350 
18.093811 15.675733 6.051432 
11.828005 17.029671 12.345861 
0.057639 32.212368 1.878695 
-13.732077 14.103118 11.607378 
-1.881159 32.464233 4.882525 
18.531452 27.318802 13.970709 
-30.003832 -1.093442 12.875896 
-17.599499 24.681753 9.912725 
25.597319 8.803641 9.061041 
23.940176 15.776837 -5.348593 
-7.045342 30.989855 1.798170 
-10.694185 26.167549 -5.291389 
-19.625099 16.111053 8.973697 
17.579082 -6.257130 11.091655 
-28.350695 -2.353436 11.343799 
-0.418595 34.564266 2.221416 
-25.297092 -7.077370 0.278937 
28.165380 -4.685924 4.705571 
14.664967 11.779146 11.221122 
-15.729079 19.022963 -6.008489 
21.928188 -7.250566 4.890716 
-16.452175 4.410515 -1.604602 
-5.228835 23.075520 -3.985863 
23.546329 1.519614 4.991694 
-16.428034 25.363201 4.150274 
-18.405872 13.215587 3.907233 
27.274260 6.443269 -4.448544 
26.338781 -5.014451 13.788220 
-16.478062 25.202433 9.791775 
23.896975 12.775473 -3.450596 
-7.816284 27.105639 2.326560 
-24.940561 8.383120 11.713631 
4.489659 26.808636 13.519675 
-18.384361 20.619846 8.425243 
-12.909400 16.322100 11.831587 
-6.418222 30.666616 -1.661042 
-10.057950 29.080896 -7.456748 
-8.404361 29.229385 3.477205 
17.184904 10.407143 5.758292 
10.448235 29.920933 -8.704285 
-5.546186 28.058022 11.196122 
5.716431 28.823532 -2.529940 
-16.958920 20.920568 2.832594 
0.853869 28.824423 4.869454 
-14.371501 19.388138 2.265594 
-27.338907 -5.194238 4.496651 
17.819534 8.418337 2.772635 
26.147028 -9.829101 -2.172807 
12.773450 17.489758 10.136408 
24.961906 -5.291731 6.578889 
23.678265 10.069619 7.236619 
-7.492213 30.347382 11.922868 
15.465399 22.281122 8.332599 
13.228283 20.475969 -4.008873 
-31.111282 -2.284584 -4.786183 
-19.411257 12.769321 9.875427 
16.690304 22.872049 -4.570359 
20.792048 20.040892 3.675240 
-18.259378 6.212667 -5.333424 
23.385033 -9.695087 3.570785 
18.987816 26.464516 13.381006 
-8.083781 30.670788 9.530085 
20.464407 -5.205147 2.546773 
10.279789 27.894682 5.219755 
-14.484241 23.828657 -6.047603 
7.062998 30.741056 8.819083 
-30.491816 2.378124 7.281045 
0.353833 23.893728 -9.910336 
21.807692 19.831272 6.106550 
-7.611138 33.939430 4.244060 
5.003564 30.076117 7.418614 
16.414486 11.781869 8.031942 
17.892092 23.292450 -2.286863 
-19.557436 13.638441 -3.225245 
-16.157084 9.374807 -4.597975 
19.565174 17.239761 8.285929 
-14.238581 29.221968 5.830576 
29.582088 -9.021828 0.728624 
-1.325001 27.397863 -1.497584 
-15.626268 8.326706 12.294828 
22.274099 -10.476837 9.344410 
-25.690723 -6.332129 8.283902 
-22.818975 12.644529 3.646030 
-9.971750 20.532848 -4.825774 
19.765965 -0.692740 -2.452477 
-15.912464 12.555513 8.270950 
-2.398073 27.084007 -1.602727 
16.324039 30.733332 7.280769 
-14.320460 21.093786 0.466210 
-11.281850 28.541311 0.422397 
11.544708 31.771593 2.840990 
-17.366573 25.233995 4.557191 
-22.177483 20.391699 16.649080 
-13.356427 18.520521 5.241395 
-19.722837 10.502514 -5.588558 
23.720064 -0.465105 -2.054086 
-0.489446 23.932266 -9.911703 
-0.767796 24.535297 -6.951531 
12.889553 28.928320 6.474467 
-17.625732 18.792360 2.989859 
-19.050495 -1.109001 9.316363 
-7.772850 26.012152 -1.428340 
-4.723516 30.410269 2.327417 
-20.639378 -3.573769 -1.243289 
-18.143002 3.503660 7.383257 
-28.390400 -5.477614 2.024340 
-29.329557 2.980639 16.403809 
-1.622919 29.431194 -4.726408 
-7.547483 21.040770 -7.740351 
-15.566073 15.631769 3.210704 
-26.453281 5.161184 4.742879 
9.244541 23.913580 -1.465061 
23.444405 15.797621 3.572338 
22.594585 10.245633 -1.390909 
1.251957 27.003241 -0.098612 
-5.030953 34.097305 11.229073 
21.772877 -6.327799 -4.240459 
18.936152 25.816959 15.963849 
-15.303217 22.392298 -3.786800 
-27.103703 -1.499360 6.114623 
15.685078 27.258888 -4.008374 
13.554622 30.719667 4.810523 
28.378525 -1.640631 4.619345 
-30.406889 0.445257 0.922080 
-9.203908 32.221230 1.168897 
-18.905426 3.925637 3.909609 
-13.097925 24.820333 6.284594 
-16.288855 4.519436 -6.926137 
-5.461474 29.407646 4.279811 
-2.158057 26.468590 2.333735 
-29.272600 -3.296895 11.945062 
12.395256 29.802053 -5.241852 
18.997952 15.562479 2.619958 
-23.582575 5.198359 -0.934519 
21.805696 17.188852 5.469530 
20.254631 18.446369 -0.997187 
-17.070879 30.989187 7.781539 
20.221176 -4.331619 8.619399 
19.015305 4.794882 2.495005 
-9.157455 30.310360 -7.532905 
22.579079 5.025766 10.277386 
5.172044 26.035215 15.195225 
20.889774 -5.987488 -1.437970 
-14.322352 25.876514 5.875834 
-22.111071 12.110218 3.876752 
-12.287293 30.504311 16.824501 
10.824934 21.633642 12.722390 
-9.924647 20.477333 -3.716691 
-20.196882 8.330032 2.958069 
23.713806 -6.401775 4.541535 
4.819601 29.668110 10.179147 
1.877216 31.652822 0.841687 
19.687796 -7.374612 10.683844 
18.405399 24.286501 10.078542 
21.257898 -6.552495 -2.354007 
-25.914591 10.458210 -5.599154 
-14.797742 11.137547 12.120319 
23.735037 11.228608 -1.005684 
-17.309000 27.409161 7.239782 
-26.367640 -7.364612 16.299513 
-8.638318 31.663652 8.797804 
15.580939 5.798048 12.121668 
15.763439 10.525296 -8.768400 
-29.513834 -2.627975 12.415262 
28.921728 -6.954740 -0.440610 
20.536196 18.268255 10.133864 
24.371893 -2.160239 10.097262 
24.136471 -1.504655 5.134255 
25.072100 -9.523355 10.555891 
-22.153959 6.918109 4.646070 
24.757668 15.545793 5.705569 
-15.987756 20.059944 -3.938789 
14.063828 14.736578 9.544348 
-5.483209 30.643948 -2.828988 
28.037615 -8.653987 3.885205 
-29.306719 4.213550 15.183907 
13.889217 26.632204 10.181481 
20.638056 -1.277272 2.907506 
22.458849 0.691255 11.489383 
26.106638 1.514181 2.798971 
29.902489 -8.411780 1.187665 
-25.371567 -5.290125 0.322197 
-15.281816 25.747526 0.672087 
-24.886662 0.346457 -3.687840 
13.759865 22.441973 2.298790 
15.598343 27.849514 -0.462679 
-12.057440 20.557205 -1.108796 
23.160955 -9.722456 9.664833 
-23.157263 14.043706 7.420911 
18.049978 25.214565 4.929494 
-3.915026 28.054333 10.170242 
-1.824191 31.096437 3.813162 
-11.500517 32.248547 0.496127 
-10.371962 20.225962 -2.595233 
14.190099 29.337118 -2.582978 
-8.424683 23.912695 2.163054 
-19.611288 9.339240 3.103374 
-10.761719 25.516418 -3.587976 
19.089897 21.390106 -3.223918 
-30.157732 0.540793 1.801217 
-11.346917 20.246895 9.241177 
9.986415 22.366341 14.350635 
9.428507 30.699072 -4.195360 
-11.202300 30.578362 3.783291 
-26.481331 4.254616 3.746178 
-24.137732 3.091990 -2.725505 
-7.696444 20.943674 -4.292359 
-30.337938 -1.298896 1.879647 
15.774207 27.530928 -5.711146 
21.100077 4.546273 -5.579067 
17.631790 5.516537 -3.860181 
1.332891 31.801485 -10.610157 
-11.282395 20.378351 2.643925 
-17.635225 1.447565 -6.415769 
22.997160 -0.833274 6.567489 
5.259397 28.047783 4.829655 
-21.231583 -4.911510 -7.317690 
-5.258670 31.451508 -5.773826 
21.861593 8.796390 11.230204 
11.593734 28.748598 4.613170 
-21.850183 -2.410337 4.998478 
-23.154463 -1.307984 2.851057 
-0.660642 33.668468 11.820469 
12.880544 31.751238 14.937663 
7.743228 30.303753 1.182334 
-3.726960 36.443810 10.897696 
-20.200787 -2.913050 3.068328 
-13.091092 18.038689 6.979961 
12.550426 28.377453 -2.986572 
-20.713291 0.739513 -2.027242 
28.771851 6.552891 -8.449398 
-12.909550 20.351339 -0.119175 
17.622288 13.449341 10.679662 
20.538027 9.695221 9.894011 
1.116574 31.674526 8.416849 
-28.020502 -0.051402 13.081176 
19.181833 24.993059 16.940702 
-25.074318 -4.179076 0.132812 
-19.028481 18.799919 8.818271 
5.314652 29.427975 0.228941 
-10.432831 21.484493 10.000135 
-9.861830 28.269035 -7.351969 
-5.374041 33.050327 3.572118 
4.136535 27.723539 -2.316854 
-21.460466 -3.661050 6.314890 
11.450500 33.410496 3.099968 
-16.315996 24.979521 12.199136 
-29.396353 -5.493638 -7.246663 
8.448372 20.814659 -7.194266 
18.655420 23.266037 -4.471656 
15.717764 25.230877 4.357557 
13.317598 16.877293 11.503398 
17.738598 -1.641075 9.142260 
-19.504782 18.018303 11.090856 
-12.234421 23.426857 5.314424 
-26.273201 5.811673 -0.957879 
27.897160 7.174548 1.627738 
10.549752 24.246305 -5.244104 
6.873515 23.645008 -1.592054 
-2.887948 29.671227 10.852335 
-4.310854 22.859259 -2.156682 
-20.806431 -1.149214 -3.034179 
17.336964 25.143116 -5.296634 
-14.745302 26.957758 8.069990 
-12.550522 30.834482 -2.414546 
-2.637046 26.363100 5.108382 
-22.659639 14.232289 4.596723 
22.763281 4.477945 2.603051 
-5.292129 32.413960 4.272810 
0.909264 27.726002 -1.907841 
-17.331284 2.931709 12.466579 
15.138844 15.404355 8.318604 
19.637419 -0.577809 8.935542 
25.298849 0.915717 0.365246 
-19.744900 1.927517 3.807924 
-19.709232 -3.562464 -3.641083 
12.519598 25.851845 8.004302 
-30.825834 0.458485 8.465089 
23.201283 -5.655122 -4.421967 
12.399290 32.451096 13.552064 
-1.529966 34.656063 5.556458 
-29.393616 -2.421354 6.047700 
-24.034939 11.827726 11.114411 
24.154961 4.542764 4.140905 
-3.958283 32.397678 1.252657 
-17.060789 6.017050 6.524735 
-14.602492 11.823042 13.626333 
19.043566 20.728588 10.342043 
-21.838724 3.896960 0.506984 
-21.091324 1.849168 10.808748 
-3.156384 31.867645 -10.605169 
10.004036 28.718824 1.780814 
14.744808 21.579887 9.199951 
20.104094 5.938200 2.946042 
-20.671610 15.872477 11.285064 
19.922901 24.479998 14.675753 
16.048321 15.256960 7.376342 
-18.130783 12.442036 9.840282 
0.694898 27.047407 16.858562 
-4.830296 32.184399 12.695031 
-21.235062 2.113015 -1.534332 
19.754637 9.628142 10.193249 
-15.260783 23.908594 -5.687053 
24.808308 -7.235549 -4.117147 
22.884222 -3.868519 -4.429229 
24.441402 14.717843 14.496861 
7.544171 27.503948 5.580195 
24.266556 -3.817963 4.932642 
-12.269634 20.500704 2.959283 
17.416914 13.517419 9.795774 
-15.962077 12.023926 2.248313 
-17.872456 14.979843 -3.370779 
-6.087266 22.050102 -9.732202 
-15.862539 31.534496 10.772078 
-7.079785 27.227943 4.770943 
-5.969902 34.070057 13.710553 
-12.199644 30.733805 -3.338496 
-23.268749 12.325004 10.957764 
-25.964252 -2.342652 13.063251 
10.049309 21.721821 15.418499 
-25.414680 -5.707380 11.120950 
10.537033 27.254353 -0.759488 
23.197815 14.998315 3.597454 
-17.886595 21.214798 -0.840463 
-15.915085 6.332537 2.084751 
24.317305 17.578352 0.213691 
-7.605009 20.798820 -9.618180 
-16.028278 24.786701 -4.893356 
18.733067 15.874788 -3.406262 
-22.745710 13.437278 -3.376476 
-0.142409 30.141937 -0.909312 
-31.052889 0.817202 -2.897516 
25.810369 0.979991 -0.367277 
-2.107116 36.522945 2.049804 
17.731874 14.346148 -2.581711 
-14.661094 18.541691 2.098295 
-27.575760 -4.516079 12.253279 
3.205294 31.751122 3.231912 
7.303958 29.715681 10.573459 
-26.963490 7.960324 -8.439160 
15.681120 29.978228 14.316197 
28.948391 -9.572836 1.012257 
30.974499 -2.762854 1.131560 
-12.846528 20.527330 -4.966696 
-19.781693 -3.218413 -1.391695 
3.161967 30.146612 -0.957199 
-16.138218 16.378124 3.611015 
13.733235 14.128511 11.706134 
-10.060625 25.350389 2.639952 
25.061079 8.738379 9.915462 
24.401207 2.477473 12.106050 
-26.332602 2.154356 5.339845 
12.226906 32.554165 2.534978 
-28.616676 -1.052114 5.686303 
-25.120617 11.210897 -7.717168 
-24.320530 4.945642 2.381629 
-17.878248 19.381647 2.370323 
13.463597 27.767115 -3.795913 
-16.910595 14.119228 0.494765 
-11.128552 21.533529 2.771633 
-1.548503 34.859509 12.702255 
11.402286 28.971554 -10.384835 
18.477289 6.598322 -2.140596 
-1.262401 33.051735 -0.405214 
-13.542236 27.279669 -0.165412 
-17.785610 11.733418 -1.989224 
-23.843746 5.737453 -2.040981 
20.737444 -7.651048 -3.059441 
18.322895 27.197325 13.101787 
18.475967 17.221405 1.037191 
-7.386997 25.010422 0.989573 
18.628180 11.737113 -1.165928 
-25.782246 7.534664 11.529321 
-7.384469 31.817917 -0.290975 
22.549725 18.836300 13.363722 
-4.029425 28.896301 2.604042 
-6.373569 27.456890 -3.282026 
16.010157 10.826950 -6.268849 
-3.164959 30.003508 -4.410185 
-14.008497 9.419030 2.379071 
-12.888440 27.309128 -10.179646 
-14.600641 16.562172 1.723952 
-17.337343 6.284555 -5.313927 
27.828447 8.009377 1.455407 
3.157245 29.132708 9.955006 
7.049909 31.450369 -4.721973 
12.222062 24.402210 1.710827 
-2.617861 29.289335 9.351553 
-13.041921 24.611866 10.369355 
28.818642 -7.043970 9.062276 
-10.077799 30.099346 -7.501899 
18.557924 9.002965 -1.013216 
25.983412 4.469967 4.214560 
16.498226 20.671444 4.360935 
-27.238852 0.568718 5.508504 
10.673886 24.595356 9.884203 
18.026148 24.472977 -7.539461 
19.291018 -0.929127 -5.214075 
14.977147 29.120899 13.021508 
25.442314 1.536059 -3.677718 
18.908373 2.930625 -1.497215 
2.509673 35.095501 12.125966 
2.875540 24.459560 -2.880016 
13.282887 25.285299 12.859927 
23.309654 -8.611892 4.004048 
19.685123 8.905242 8.960785 
25.410183 9.880435 10.586365 
-22.268423 8.312761 -5.044723 
13.586106 21.598192 8.393108 
11.659354 24.875929 11.584906 
-9.861519 31.748373 11.897018 
-4.327904 28.581085 3.956571 
6.573601 22.153912 -6.218046 
25.104622 11.991901 11.918776 
27.473993 0.085674 0.735599 
-6.775048 29.716690 -6.674290 
-2.248428 26.081583 0.053375 
-11.184335 19.830873 8.236602 
-18.089331 1.933143 10.277438 
-18.428570 -0.670127 -6.312798 
-4.635974 31.940039 3.144462 
19.685318 3.502101 -4.979218 
13.314576 28.626228 12.621820 
-14.004921 25.610931 2.743786 
-18.113573 29.583696 10.817130 
-18.178911 29.764778 7.963413 
8.094155 28.047670 10.188942 
27.109837 3.573756 9.269873 
-3.591358 24.779976 1.670460 
-7.363719 34.798790 4.191035 
22.323849 7.773668 3.125118 
-21.798389 4.731439 -3.881070 
-14.103357 30.372162 15.689816 
-15.692081 7.681066 11.739512 
-26.505829 5.965345 9.889860 
13.684688 29.305576 11.195408 
-2.277912 27.481394 14.165789 
19.726105 2.462211 -3.477376 
11.519971 18.780441 15.161633 
-13.286594 29.926668 15.315335 
-19.031422 4.034172 -2.236109 
5.437758 30.832239 5.619436 
-29.421282 -3.796972 2.749279 
-21.138159 1.902775 0.001603 
12.858038 32.574902 9.231331 
-21.801783 19.155998 5.288449 
-23.495079 2.535348 -3.149277 
10.190180 27.772022 8.439552 
-16.470556 26.564796 10.279795 
-20.852879 18.886101 9.048261 
21.422682 19.894632 -5.125070 
-4.869871 31.718376 -7.027800 
25.892857 -10.725412 2.507199 
-24.301897 -6.534856 0.930485 
15.898971 3.299094 8.958755 
-4.303139 29.096245 -1.057283 
0.274865 35.421753 7.291022 
-0.491327 34.034229 9.880995 
-26.404314 -3.593129 12.878301 
-2.504068 28.132565 1.548883 
27.157591 4.423872 9.048155 
-7.524837 21.866053 -2.141463 
-12.440227 24.028036 11.583090 
-12.979102 23.143013 -3.207416 
18.410786 3.943559 8.751534 
12.852286 16.479485 6.909061 
-0.637143 32.556644 -1.032691 
20.666746 23.078529 12.876960 
-17.587666 18.470999 8.329303 
15.895056 23.707220 12.748722 
14.624203 15.555573 6.187259 
-19.249420 24.545084 10.040092 
-19.928385 2.175173 7.007430 
20.937675 18.996880 1.199809 
-26.940022 8.217257 -3.803377 
-24.169069 9.972019 2.888880 
19.124548 -7.368210 7.837759 
17.862795 4.337811 -5.507740 
-16.140507 14.771921 2.688087 
-19.498093 4.461892 11.022538 
21.262701 20.585451 -7.342318 
-5.098328 22.878151 -1.878241 
15.957965 26.772923 1.825703 
-29.904009 3.194865 9.695084 
4.834376 34.017895 10.999994 
-18.334272 0.401633 14.809025 
-9.060428 20.129765 -1.724165 
-18.577278 0.462400 10.269162 
17.825464 -6.157900 14.032573 
-3.445616 28.835186 3.290645 
-3.251658 32.673931 -4.302444 
-29.364412 3.776980 6.292657 
-23.736835 13.290705 7.463528 
20.543036 17.803883 8.600653 
11.779970 27.611996 10.697699 
23.427214 12.235145 -1.948568 
8.651743 22.955286 16.856298 
21.303125 2.309631 -1.567682 
-16.641565 3.481820 -5.516957 
18.381891 2.927567 4.344544 
19.544819 22.559557 -7.118709 
-15.054057 10.383159 13.209977 
-5.811676 33.344051 2.875168 
-11.300340 20.145454 -3.063352 
10.845540 33.535782 10.943724 
11.817537 17.013525 11.509514 
2.658422 27.660374 12.076476 
-21.562798 -4.497796 -1.793879 
15.469162 15.697098 10.494288 
-24.582455 -6.124510 3.522676 
16.500755 27.192659 4.061172 
-22.475912 5.004333 11.560945 
-0.024152 33.843594 7.820165 
24.943676 15.518833 6.704900 
-11.609785 22.455956 -2.379603 
29.949358 2.072492 -3.177216 
13.740681 15.795477 -0.035812 
3.154317 27.408804 -2.834601 
-1.294579 36.984554 8.064251 
-23.339220 -4.683992 -0.197970 
-19.229858 20.164686 -3.895459 
21.593143 -3.721347 -3.526156 
-10.472569 25.859623 6.306406 
25.340918 12.556873 6.363880 
18.517767 9.660671 -0.077231 
16.974903 13.092938 -1.672109 
23.522449 2.173658 12.031096 
20.137962 -3.832312 2.441822 
18.840384 -6.499951 7.400095 
18.723568 27.244305 7.279439 
23.810478 13.978405 -5.622017 
26.735695 1.861462 -1.672439 
-10.859863 22.194445 11.175644 
16.046188 22.292114 4.870580 
11.241469 28.557034 11.567892 
16.702745 11.300817 5.748130 
12.954147 30.167976 4.866406 
-9.205910 21.079374 -3.438359 
-22.636038 15.634550 9.819986 
21.116169 15.757279 4.120597 
21.177040 9.639688 6.329360 
-22.188053 -5.426168 7.324270 
-14.161416 9.039269 -0.090942 
27.119450 3.272140 7.400137 
-0.450902 29.500240 3.731966 
22.003626 -1.635305 11.725541 
-18.300215 -0.597378 -5.086175 
18.617046 -7.490541 15.146951 
2.434839 30.946774 7.343974 
10.133795 26.043694 1.277095 
-2.665962 29.150949 -0.810490 
3.491862 29.786339 8.239852 
6.862231 31.455740 5.574603 
23.478191 0.359181 -1.049270 
-12.531057 24.006266 -6.435486 
15.614152 8.973887 9.882788 
18.617664 2.043210 -2.972160 
-15.213361 25.411402 8.320560 
16.639561 24.688404 10.297999 
18.320698 19.197731 -5.243189 
9.315590 34.358395 6.100524 
13.320468 14.958629 -6.320141 
16.233351 24.313879 -2.193521 
27.457151 0.244631 2.407255 
23.052504 16.624756 10.841809 
-23.754589 12.828475 9.885382 
-24.628000 12.623187 -5.136435 
18.342266 12.664572 12.393458 
16.431562 2.729911 9.883339 
13.581510 31.631094 3.874296 
-23.493259 18.033407 14.415489 
13.900287 16.440907 4.554114 
-2.625300 28.227228 0.421735 
8.922508 31.688120 3.013753 
-26.135054 -4.214846 10.527796 
-16.475857 12.915236 3.662324 
22.739740 -1.653436 4.123033 
0.821956 28.430805 -2.739941 
-20.522568 0.429223 7.355758 
-29.785400 -5.466234 14.921937 
-21.009295 9.759464 -2.265031 
13.684824 17.423897 3.378973 
19.634935 24.295193 16.935122 
9.299738 20.086452 -6.786336 
-17.989466 28.786991 12.304440 
-27.856260 0.716336 -2.892103 
-18.878368 -1.415489 15.019502 
22.314453 -10.525667 -3.345181 
-18.634295 3.452533 1.139682 
17.050291 12.608947 10.503677 
-9.181997 24.768337 -4.397057 
-14.698278 25.268896 2.218022 
9.440830 23.151331 13.975485 
24.642109 -0.899314 -3.326975 
-10.390278 20.609552 13.043657 
25.202192 -9.062238 7.590077 
-7.549192 31.678633 1.865879 
23.205009 -10.457508 1.690144 
9.487091 29.125029 2.494209 
22.992416 -7.000811 3.648621 
-14.904009 14.438866 8.344962 
24.532265 11.674521 10.074542 
-17.217882 26.265957 8.139218 
16.328888 15.581215 -0.424431 
-11.055333 20.837782 4.331839 
17.119211 22.048260 8.989150 
26.712063 4.012083 3.457388 
-6.197471 29.572468 -3.594952 
-16.185612 16.268530 7.736852 
-17.473738 5.970738 5.396403 
10.048667 26.449415 4.530879 
2.699038 26.642460 16.865330 
11.190257 28.163326 -4.935975 
20.462538 -9.955846 14.967936 
-20.988707 -4.977539 1.109014 
-20.624287 17.727428 9.000476 
-21.860666 12.984547 2.787475 
-23.903009 17.320358 13.210677 
16.661821 10.535420 -3.990556 
2.146537 26.964151 0.995646 
-15.152198 19.201441 2.704970 
19.147352 9.531605 2.739710 
20.300653 -1.954728 6.912236 
12.332909 33.659328 5.995148 
-0.616042 32.688194 4.568685 
-22.539652 18.230682 4.830695 
11.706467 29.225668 -2.020438 
-19.982277 18.423502 10.184419 
-11.210586 22.920279 7.089265 
-27.826614 6.251410 -3.184808 
7.630358 28.739681 10.517139 
-18.913431 25.135574 6.402677 
-3.938373 30.737141 -1.744216 
-21.943644 12.758110 10.715995 
0.975089 31.278822 1.071169 
-0.891871 32.852829 -3.989528 
-14.008200 10.900669 -2.943134 
16.692041 28.722128 3.801196 
3.993936 29.044933 -0.088133 
15.006375 25.623135 -5.680234 
-22.518375 2.507910 7.970818 
6.809978 31.751968 7.931072 
-19.340536 24.417747 5.714332 
-21.162594 3.646556 -0.294657 
-6.517111 26.847130 8.651577 
-23.511553 -5.210020 -2.965802 
10.724200 22.524689 -4.394512 
23.596405 2.625217 3.759021 
-20.336159 18.283146 -3.763340 
-10.767393 27.545986 11.623612 
-12.194923 20.075771 0.416513 
-7.710690 29.696573 -3.292967 
13.178965 30.703838 16.973177 
-12.376369 21.068235 11.521436 
23.534296 18.166334 -1.775666 
-18.046759 0.808212 -2.926478 
18.084644 17.450975 -2.332212 
28.992928 -1.934201 13.704575 
-0.482335 30.829605 2.976066 
-6.483679 31.502689 7.857378 
-23.712900 3.315559 4.360359 
2.868940 31.151659 -1.895498 
-25.336332 -2.904899 12.901891 
-25.621893 4.496485 -0.454418 
9.470381 22.535488 15.428942 
18.901762 8.134471 10.453324 
24.176176 17.444248 1.092140 
-14.455291 19.511799 -3.636534 
22.807648 -11.059517 0.009857 
-14.607100 12.529209 -1.269798 
