17.793726 15.619284 12.871552 
-15.138143 12.503363 2.646683 
7.439431 25.302896 6.928000 
-9.577114 25.435698 -0.837515 
23.503880 13.449745 -4.429708 
18.105875 15.877349 6.165022 
7.836882 23.644951 0.998895 
-0.309378 32.231499 7.090444 
-26.934338 -6.227900 -0.863231 
22.621204 8.874654 -2.098262 
21.140970 19.184769 2.622613 
21.841646 0.573063 -2.646794 
21.013981 -11.308804 10.358460 
-0.283532 30.152557 10.080174 
2.810077 31.721827 5.860206 
26.998695 -14.837893 -0.036534 
-12.313725 12.604955 -5.245987 
-25.736952 8.947104 8.400665 
-8.339738 25.007336 5.703639 
-7.094577 27.212332 6.964696 
-30.355707 -0.690571 13.040965 
-21.573240 -4.638035 2.962695 
0.121814 28.452076 16.958597 
-12.508790 22.675274 9.579659 
17.625380 14.425513 3.047501 
22.140234 -12.350782 10.177006 
-20.604853 6.710255 4.228264 
6.227020 22.525970 11.303246 
-20.625103 0.889942 12.052576 
-26.231802 -1.746517 1.843558 
-11.608052 26.929136 7.816921 
-2.319148 29.806030 3.543709 
23.858652 12.412967 -5.381481 
-22.202309 -7.367171 8.125634 
-6.570069 31.658083 7.164589 
14.217028 26.757963 2.205458 
16.272772 16.631823 -3.648017 
-32.001781 -10.523443 11.698862 
-1.516165 32.041550 5.086033 
9.672261 26.318937 13.201455 
25.875692 0.494965 5.191753 
25.087275 0.582741 12.362840 
-16.803364 0.249983 4.000039 
-18.508051 -3.127208 4.325853 
8.432583 29.042906 7.987080 
20.825916 -5.544315 5.160094 
8.596473 27.507915 17.003048 
-9.308087 26.211756 -0.932748 
15.998217 19.091112 7.287161 
13.722342 24.522205 7.460143 
-24.173948 -11.480570 12.619408 
11.147607 25.512508 7.157421 
13.959109 16.756893 -2.291825 
-8.682620 25.180912 -3.628144 
-21.753860 -2.863923 -2.397482 
30.260300 -6.075944 6.039395 
-13.430488 22.187773 3.364631 
-5.592177 20.233427 13.927520 
19.285498 4.847651 -1.799881 
-13.143442 19.964224 -2.287742 
25.119101 -9.108603 6.101681 
14.124289 18.740702 4.568160 
18.928108 -1.932980 5.216085 
-22.198080 -0.399183 4.862020 
-10.473806 19.003397 11.024598 
-23.511415 0.857933 5.486286 
-22.189816 8.836977 1.768071 
-29.570934 -6.264189 3.099092 
20.363539 12.894354 5.455138 
-7.513863 23.647129 7.574260 
-20.962471 14.755864 -6.887061 
-20.365477 11.899538 11.411528 
-15.705050 11.260592 10.815619 
19.428244 6.610169 9.326381 
-25.758762 -15.232537 0.635173 
7.846994 20.775579 11.360057 
-26.132139 -3.969266 9.951447 
10.618374 23.546377 -1.342719 
-27.372673 -1.598895 4.291726 
-28.598778 -11.651976 6.081863 
13.825711 23.777206 12.085375 
18.779984 -4.544101 -3.904957 
-16.924461 9.801606 4.618674 
-2.796470 24.921265 9.039655 
0.844507 31.896990 7.576425 
21.539480 17.085804 -5.357582 
-13.795028 10.889647 -0.882945 
1.880091 25.405540 -0.997057 
-12.952295 24.031614 -4.958894 
18.512152 23.994814 11.201325 
10.041987 23.473139 1.619248 
16.576231 5.536388 11.944221 
16.830254 25.549137 8.577006 
-29.769381 -3.284065 9.667675 
-0.663640 26.722466 2.972662 
-19.631128 15.754368 0.813925 
13.279570 20.778814 13.352968 
6.161044 26.957649 11.793307 
30.040064 -1.670743 12.685571 
-14.133766 19.495943 -1.038987 
19.451063 -0.951686 5.007502 
11.553586 22.044468 9.607343 
-11.275148 24.016293 13.523784 
-23.294584 -6.550220 5.393618 
-17.931206 -0.392905 8.655220 
-26.709879 3.849085 -4.664389 
5.717917 19.898129 -6.562665 
16.693245 7.607398 -0.833159 
17.900101 -2.467176 -2.660477 
-1.720131 25.620447 -4.670424 
26.867634 -0.353268 3.142964 
-20.856934 -3.149443 -1.444677 
-23.829191 -5.202612 4.772438 
15.787101 11.229535 1.333861 
29.498411 -5.499298 2.028247 
25.633602 -3.553591 11.150560 
-5.920813 31.342939 10.639218 
28.594738 -6.642636 -0.386929 
27.203293 2.814313 5.123883 
24.645596 -5.085521 -1.358927 
-19.095453 10.460896 9.798834 
-27.803942 -0.662748 -0.150485 
-19.221676 2.245939 10.835536 
-23.974607 10.496189 10.697880 
-8.668869 27.133587 10.051865 
18.456470 22.406195 4.171907 
-7.288721 18.370083 -7.454631 
24.648289 -2.244425 5.739507 
17.855061 22.689590 -5.807029 
-7.446377 19.859386 -3.612364 
23.522419 2.189146 12.296412 
25.277649 10.507556 12.398205 
-17.102079 6.424983 6.343741 
3.661950 31.635468 5.203955 
-14.839544 24.526978 5.471365 
-1.398720 21.922609 -3.516222 
24.969608 -7.052445 -1.633904 
15.622293 19.099998 4.125938 
0.504574 27.817047 9.683370 
23.738668 -13.492414 5.169077 
18.461817 19.102083 11.619816 
0.541459 25.416697 10.028431 
-23.450068 15.003212 7.122670 
-8.562478 25.700375 4.493850 
-22.077423 3.280961 11.938621 
-21.552197 4.809471 0.295911 
26.820839 -3.473608 7.577718 
22.166168 7.967386 5.479831 
10.238910 20.017321 -2.679932 
18.402935 2.400369 9.642798 
-20.076731 -3.205360 -0.637822 
-18.692333 19.706953 -5.372526 
19.645109 20.538530 5.961124 
9.425701 26.620842 12.468665 
-21.993593 12.115159 4.328414 
-14.451924 22.189472 13.769160 
-25.057623 -10.901934 13.059045 
12.653083 24.857519 -4.577402 
20.156395 21.024435 6.330058 
-32.011074 -6.500138 11.497773 
22.383648 6.366533 5.298552 
20.632914 -3.528187 4.746131 
27.689062 -13.597459 10.210573 
14.845314 26.440901 1.239865 
-2.622859 29.100065 0.028221 
-15.701581 16.262220 5.013556 
-21.221670 -1.461064 -2.855082 
-6.348149 25.670755 11.758293 
-25.725063 1.188334 5.235260 
3.548183 30.202824 14.056853 
28.155703 0.959720 -4.561282 
19.189451 5.800241 5.861053 
-19.303503 6.457893 3.912028 
27.040850 -5.328726 1.564481 
-17.439724 11.025258 -3.164829 
-16.774712 20.634666 11.684637 
23.780882 10.296004 3.696496 
22.725588 1.008686 5.559103 
16.692911 8.878539 -0.144656 
13.789414 19.548738 3.555234 
13.334182 18.016775 9.759442 
-16.740807 14.568888 0.283401 
-23.163824 11.952337 7.887671 
-19.040575 5.713867 0.761323 
-19.887499 -3.559987 0.693957 
-5.019182 22.038429 -2.331926 
-1.377661 21.230169 -5.394097 
-6.495043 29.552849 5.746883 
16.121471 22.899748 -1.791215 
-19.930067 5.228203 10.726161 
-19.421787 4.703166 10.231903 
12.402184 23.704412 13.072712 
-14.968070 11.771679 8.296932 
-15.856479 21.336432 6.532660 
-20.993938 -11.579151 4.303890 
6.893836 20.274351 -4.105697 
-6.141510 28.764412 0.480389 
-3.472757 21.133539 -4.910436 
19.011814 -0.106427 11.447264 
19.284727 12.149013 11.575306 
-12.339493 23.059294 11.427697 
16.817482 19.215849 6.844423 
-23.428125 -6.770000 6.696458 
11.232970 17.088467 12.650810 
17.742769 23.947041 12.542400 
5.911973 31.209940 11.247989 
-1.206201 24.185505 -3.210391 
15.915615 23.393658 3.694113 
-25.731470 6.052504 -2.843832 
-18.298864 19.165121 5.360759 
-4.379465 29.681953 6.792080 
-13.543185 21.782074 10.549447 
-5.501990 25.474669 1.306607 
-2.286266 29.291784 7.411455 
-23.868269 6.039289 9.304534 
28.041063 -6.654345 1.731045 
-20.094196 3.285982 9.664183 
-29.750540 -12.508460 7.798725 
3.399436 31.661467 10.103765 
-25.053280 -2.720652 0.695256 
-20.365801 4.964004 4.831495 
16.174021 13.538710 0.084814 
14.469675 15.949273 9.033294 
26.383114 -14.603064 -4.004993 
23.684729 12.254540 5.434324 
-27.740526 2.003105 -2.889594 
-19.002638 4.759290 7.320499 
28.679419 -4.354121 12.721931 
16.892670 15.435797 -2.482575 
25.869358 -4.442191 7.246861 
-21.016979 -2.153064 4.931270 
20.665451 8.228100 4.966388 
-23.008501 3.232649 -2.840452 
20.417545 14.760739 4.479425 
-19.465714 21.271988 12.030469 
-20.502737 13.358795 -1.004745 
28.523140 -4.078625 11.897449 
24.246803 3.752981 5.310145 
-18.874804 -3.104108 8.812329 
-13.997745 12.966018 9.440341 
14.967709 12.733759 -1.344267 
20.790663 -4.471814 1.728890 
16.803171 0.834073 0.645730 
7.217830 21.557529 -1.949442 
22.369925 -6.342901 -1.038723 
26.539265 -13.917096 3.595673 
27.251558 0.226570 2.684683 
26.938393 -12.890816 11.401608 
19.706198 3.209465 5.767691 
-20.124218 17.069399 11.496483 
-12.781114 26.088886 8.576439 
-21.636887 4.082060 -2.797268 
21.292208 -7.322877 10.438252 
25.770012 10.099583 5.714806 
20.827810 5.099916 3.963431 
9.371637 26.121580 0.105820 
20.988737 12.251677 8.281140 
22.565729 14.083736 9.033356 
21.707281 -5.452955 5.065901 
-13.029416 27.824175 1.463671 
23.758900 10.347803 -2.418294 
26.547354 -8.662004 14.259295 
-16.060213 6.240971 0.583333 
-28.883726 -12.491641 11.810125 
-16.739431 8.500367 5.009935 
9.286756 25.174820 -2.884381 
-15.593453 6.043044 -0.277459 
6.947644 19.329849 -6.184055 
2.124941 31.867371 7.102225 
25.012663 6.900912 -1.763110 
-4.212664 28.850708 13.476475 
-0.640354 28.413076 11.949172 
27.255575 3.060077 -6.059216 
-30.101286 -9.124062 13.295803 
-22.051918 17.583441 13.619390 
3.552198 27.985224 -0.769634 
3.051136 30.004045 5.063590 
21.816013 16.505735 4.782384 
9.608831 23.530308 8.192996 
20.177862 22.010628 7.733798 
-15.509677 14.702215 9.624975 
-15.434625 14.388462 -0.499613 
-17.176907 3.574553 5.136356 
18.030836 -2.342123 10.527847 
-7.011856 23.713223 11.336280 
-18.792301 19.348000 10.149008 
12.565016 24.291397 10.248551 
16.638172 14.253683 1.528785 
-32.473686 -9.034807 12.198571 
21.833998 1.856491 4.283786 
-27.048098 5.182020 9.643125 
19.125946 2.533047 9.968333 
-23.211470 1.253803 6.095769 
23.512327 6.378041 10.473429 
15.277660 19.809299 -2.344475 
-18.620010 23.985191 4.965599 
-5.555002 26.659721 -3.402094 
-13.210827 18.444859 9.156182 
-10.955810 17.412725 12.209116 
5.361439 22.368734 -1.927904 
-20.580662 16.575237 -3.609788 
-28.941938 2.435789 10.495645 
-6.871729 25.693701 5.036798 
-19.617603 23.390209 7.375710 
0.970136 29.511257 15.557011 
19.871433 21.653620 0.520713 
27.529961 -4.470516 5.854032 
16.064091 11.728136 11.607932 
-8.956968 27.556128 -3.916865 
14.176515 12.232446 9.647007 
7.086931 20.643780 -3.253865 
22.979099 14.710053 14.582257 
-16.613071 23.106455 -3.478189 
18.451113 -2.505471 -5.318883 
-5.111069 24.272089 10.542254 
28.082329 -4.859307 0.319157 
-19.466225 -4.841465 12.629800 
-25.354073 9.110761 5.961975 
-27.179083 -13.165592 0.635451 
29.499859 -9.144379 0.210593 
-14.504722 16.447369 8.214146 
-18.379187 -2.482359 0.614693 
-24.396992 8.108577 -6.080091 
25.391069 -3.272696 5.089832 
-21.919672 -12.874640 2.032152 
17.051477 14.247158 10.436751 
15.663190 25.789988 7.218420 
25.765707 -13.452237 7.852558 
-15.500357 22.477884 -1.979659 
15.320073 20.336191 3.313325 
30.838459 -3.585584 14.445204 
15.909781 6.757211 13.666252 
-18.366652 -1.401692 11.030175 
10.567589 23.593670 8.623700 
25.873182 -6.527196 6.382888 
4.840261 27.486158 5.146750 
19.354527 2.920087 -2.722388 
-1.220067 27.573828 -7.049545 
12.881981 15.375492 11.425776 
24.696434 10.563763 10.587152 
28.272579 -2.320536 0.221224 
22.793505 12.778623 9.607574 
-22.036495 3.389685 -2.932111 
11.914789 23.873600 -4.578585 
20.862974 17.977272 3.880923 
-15.838519 5.226969 -0.572791 
17.334639 8.005486 3.526531 
23.768066 12.218202 -6.180252 
19.153341 -6.544575 -2.591006 
-27.047922 5.683569 10.408914 
21.557083 3.085006 5.175714 
3.972042 26.682642 7.284351 
29.259243 -11.520784 13.357243 
15.515557 19.672195 7.061964 
28.432951 -11.358238 3.094509 
-24.248352 -5.903898 6.631609 
-2.137073 26.113222 9.984375 
13.136443 21.702162 -4.250848 
27.405928 1.828345 1.864495 
10.283652 22.045942 9.527949 
-21.060749 10.342110 -0.637633 
19.695782 -7.219250 13.817761 
17.216545 2.184651 -0.543626 
-10.079735 19.844816 10.567524 
30.326307 -11.939763 -2.911031 
-21.079275 -5.642667 7.804943 
-13.810216 23.676382 12.014538 
-29.927870 -10.256573 5.219225 
-22.094376 4.605290 9.541671 
19.207296 -3.603848 8.642485 
-21.722631 -13.678472 0.583365 
15.066413 25.911293 -2.527451 
-17.899712 11.287630 11.177962 
22.933657 8.804152 3.170155 
-31.271168 -6.380079 12.388372 
8.819352 26.518620 4.886976 
-17.457172 2.191961 -2.585469 
-4.348504 25.677242 -1.215126 
-3.371684 31.833212 4.810614 
-18.074005 -1.828056 11.890172 
-15.062739 8.569317 14.208726 
-4.285088 28.333271 1.877110 
-22.181993 -2.917082 11.798855 
-15.341843 24.743166 14.955903 
20.157345 20.805275 9.814076 
-0.736572 25.919600 -1.079720 
-7.685433 23.085127 0.904654 
-17.227354 5.956385 8.413236 
-15.621267 25.363510 11.730547 
-19.374266 18.109699 5.534765 
28.109200 -6.459798 13.947525 
-5.050020 31.979847 6.767556 
23.494337 -13.797977 2.526656 
-4.908734 31.789347 9.870472 
-28.266195 4.264307 11.066239 
10.387630 25.033426 13.930174 
5.155910 28.714025 -2.693766 
26.777683 4.168212 -0.411140 
24.624308 11.617924 0.824443 
17.508537 1.424956 12.249971 
-29.856800 -10.980277 4.734527 
17.659889 6.410351 9.095464 
-28.407860 -1.499620 -0.999993 
21.431881 16.926903 -6.421997 
18.915249 2.581675 7.664878 
-28.404524 1.829467 11.153401 
4.676667 29.192196 15.692461 
16.370932 23.675400 1.447775 
-16.805882 6.382698 1.348631 
21.979738 -11.147159 7.636302 
-17.350628 13.382484 0.359789 
14.598866 12.449618 -2.098111 
-10.744370 27.428928 5.189834 
8.483444 31.079172 7.285661 
11.297012 21.614374 10.491604 
29.747896 -4.070508 8.268948 
-8.606769 21.122791 -1.102126 
-27.112858 4.591328 6.287212 
-18.039328 15.346529 4.677779 
-14.967822 23.293818 -3.033647 
16.894381 0.920484 -2.609923 
-24.819969 -13.812859 7.591311 
-30.677296 -4.841223 5.950930 
17.121403 17.153757 9.341187 
20.333794 -7.943118 10.279546 
-11.611108 27.142183 0.733644 
-13.107749 14.529925 3.419713 
22.972788 5.491136 7.796893 
-5.007287 28.053158 2.882671 
0.997144 21.830931 13.872025 
-20.212904 4.526590 8.709565 
-25.476929 -2.449237 5.020715 
-14.759561 22.211061 -4.461545 
-19.785545 4.550814 7.710343 
17.029280 23.475388 14.170626 
-22.162428 -13.603811 -2.332880 
-15.288482 21.325760 -2.450700 
-20.882679 -6.627115 9.804424 
-28.487026 3.989734 12.398411 
-16.547970 22.707607 4.945455 
-26.167675 -1.698536 3.412908 
-21.420498 -10.505625 10.153901 
2.133846 31.876915 9.406594 
-19.897919 17.499130 3.397327 
17.609127 12.820977 3.852842 
9.443195 18.312336 -3.747451 
10.946902 17.264883 -3.405662 
-19.897718 -7.785564 2.897228 
23.259449 -4.300843 0.927330 
-8.309854 19.164957 12.398991 
-17.935919 5.345394 7.350841 
-9.970644 26.290113 4.387235 
-18.515394 4.822051 8.083722 
-14.684343 7.265544 -6.088469 
-16.412443 3.844903 2.941354 
-19.777086 2.841291 10.769650 
-25.087637 5.934649 2.801404 
-20.912003 -4.420671 4.485509 
-18.740738 7.529872 11.501078 
22.902300 14.569098 1.812820 
20.245707 8.936354 9.686005 
20.778084 20.082369 2.665843 
26.541922 -12.850537 2.854520 
-16.956100 1.684163 4.788389 
18.775974 15.293395 0.622995 
-20.251318 -9.858205 3.323903 
-28.141361 0.838992 -2.500701 
-27.914537 -10.063248 -0.478141 
-18.890055 0.407243 5.095697 
24.556625 -13.861509 8.219006 
8.281233 31.087299 5.948208 
-4.074948 26.653706 8.475041 
-6.235485 23.118334 -0.829439 
21.855284 10.612785 11.972681 
9.440431 17.351576 -6.282812 
1.588491 31.926765 6.352974 
-24.091362 -2.834465 5.480413 
-22.563545 -5.341191 -0.105884 
-8.561730 26.380657 -7.290070 
13.158983 22.998938 6.904889 
-0.800096 22.954039 11.933157 
20.798885 -11.697983 4.528635 
18.938452 15.301351 5.204943 
-29.376951 -13.244380 -0.813130 
-0.327806 31.068056 9.805634 
9.375977 21.502176 -2.000646 
-16.854744 0.338780 0.691435 
-25.146452 -2.725292 4.366741 
20.463772 -0.362579 4.269598 
21.985641 -9.056917 4.968307 
1.689821 28.697187 1.177988 
29.161970 -10.579131 6.049221 
-26.658947 4.984497 5.696433 
22.399984 -2.938819 -1.335992 
-7.807870 25.001347 -4.138294 
-17.066790 15.756775 0.531550 
24.546619 12.095692 1.441381 
-0.008737 27.475563 7.333463 
-20.895823 -2.798431 -2.453168 
-20.529112 -10.490420 2.315815 
24.496994 -10.868653 5.804705 
23.179361 7.379560 2.434234 
25.367151 -13.255767 12.691584 
-8.650859 26.031578 -3.216038 
11.720930 19.867685 -0.186321 
22.950739 -0.451992 5.122898 
17.235977 -0.506039 4.280038 
12.957184 21.234184 9.936502 
18.870480 -2.960239 15.266970 
-26.065355 9.055784 13.592790 
-13.789400 25.761589 6.182710 
-30.642727 -7.947772 6.046235 
18.811321 9.348449 9.095678 
-26.294493 4.752546 -4.682276 
18.796204 11.054751 6.911163 
13.217810 19.198067 -0.332639 
30.952015 -6.625000 6.979399 
3.769281 24.667248 -0.415833 
19.746679 17.555519 -2.553447 
26.362202 5.534574 -6.335920 
-27.300488 0.729299 1.944818 
10.033785 27.106949 -6.125237 
24.189959 11.548490 -5.475359 
17.701859 -0.404078 -1.292501 
0.364213 29.585718 9.565484 
-29.944178 -7.594635 6.204487 
-14.071646 10.467702 -0.055516 
7.227403 29.912971 11.433677 
-4.059835 20.526812 14.966599 
-28.395258 -13.422920 9.257976 
-24.106901 12.949935 11.611473 
-18.071033 16.519865 -2.315116 
-5.191207 26.744259 0.990582 
15.648209 16.613396 10.413432 
-28.952082 -4.255400 0.312334 
18.830896 0.477728 5.065938 
30.094383 -12.073664 8.964831 
-2.355826 23.961040 -3.950695 
17.340910 0.564037 -4.746773 
19.453777 21.809038 4.811980 
13.680772 11.397296 -6.876237 
29.697887 -13.802638 14.001737 
15.695680 21.952295 1.098845 
-19.981659 12.825554 -2.737187 
27.507145 4.680257 10.359580 
-15.814688 17.879622 7.499266 
18.453217 1.841652 7.175764 
23.319977 -9.840810 13.418799 
-24.301851 1.679214 12.337533 
14.033893 12.798584 8.014791 
21.251102 8.867063 12.253206 
19.753035 -3.718977 10.489906 
17.709919 21.110363 -1.886451 
18.978455 13.519861 -1.036309 
-15.730133 21.919270 -3.089635 
21.449907 16.432777 -2.281002 
13.409338 26.689617 6.049627 
23.488783 3.583031 5.582885 
3.885444 26.491594 14.461748 
-2.660459 28.298365 5.816895 
22.098234 -6.225208 10.469742 
26.616531 4.842068 9.499173 
9.353186 25.883131 -2.258307 
-20.525139 16.036053 -1.325307 
-16.137032 20.407179 -0.112040 
23.349009 4.567957 -2.246894 
-8.412415 25.829021 -8.305827 
16.686419 21.204096 -0.751649 
17.832216 8.072613 11.288766 
25.302954 -4.707078 12.946622 
2.597883 31.685226 10.277537 
16.790232 14.326117 2.898086 
-8.301668 24.560497 6.546484 
21.209629 -11.221207 13.935684 
4.994919 21.081144 13.772857 
6.629307 28.905926 -2.755448 
-24.094307 7.776030 -0.985036 
22.745384 0.091738 12.421309 
-20.612986 2.825618 11.759952 
21.267532 -12.127295 -1.570317 
-19.706800 -4.152691 9.608176 
-29.587269 1.169543 14.085705 
-24.287794 0.286741 5.835747 
1.617702 25.221207 12.947652 
-30.703321 -8.016866 0.077975 
11.252768 25.466856 13.914311 
-24.419983 -0.183331 12.389187 
17.245611 3.046300 -0.322439 
-9.717154 27.160219 14.621589 
18.054079 17.422428 9.880310 
19.306358 18.248486 10.257500 
17.825666 -0.810683 7.898990 
-26.973394 -13.955523 7.922402 
1.409408 28.127001 -0.307066 
-9.263892 24.521439 -0.533892 
-17.285213 13.339697 4.115347 
-15.677858 24.480228 4.015836 
9.863157 24.391815 1.167550 
4.780463 25.734108 13.967573 
0.917699 23.503586 -0.883888 
3.773063 23.715721 10.577176 
24.827635 -5.508593 5.954920 
-24.875944 7.171562 5.388698 
-17.773567 17.602579 6.046863 
-14.427985 15.684679 9.234310 
-23.345091 -0.954631 5.191250 
-7.072793 23.151493 11.930948 
23.635439 7.203766 3.476747 
-12.575616 28.063953 2.106484 
-24.788523 -6.869055 -1.287637 
-21.221512 -1.448208 4.551057 
17.269497 5.843159 9.830118 
8.019579 22.807428 9.390610 
-16.705631 24.014750 15.323468 
23.525124 3.706693 9.563886 
10.221279 28.272923 8.014674 
-16.414043 24.050997 1.470162 
-10.606627 21.530420 -1.173373 
14.747773 26.639362 -0.649605 
24.383856 11.268767 16.201946 
17.616449 6.750803 10.039339 
-7.125848 25.756907 3.255434 
-25.058567 9.334579 4.970194 
9.841786 26.433249 3.150640 
-14.146617 25.516129 7.816167 
25.266190 -13.554206 11.698957 
16.126957 6.299623 -3.159199 
21.682570 14.400458 11.673510 
-27.476307 -4.127613 4.217175 
11.998113 19.578655 11.647891 
-2.019730 24.385874 0.696879 
17.513071 25.228924 8.812198 
-26.375675 6.310512 9.731374 
-30.340969 -9.363205 3.265893 
28.135443 2.240207 -2.060850 
18.487812 12.031824 -3.096281 
-29.780441 -3.844539 6.850417 
21.241379 0.014701 -2.585063 
18.008646 10.243428 -0.710683 
-20.716629 -2.244991 9.371693 
-21.228395 1.473436 -3.181036 
-24.069008 1.027028 6.156781 
16.672039 1.471399 3.251875 
8.413645 26.244148 -8.537459 
-12.378994 17.345982 10.511219 
-7.344310 29.102768 1.400628 
-15.685929 8.341037 11.379192 
-28.354826 1.491063 7.041023 
10.271795 24.060938 13.682083 
15.806202 11.266663 9.350466 
-13.952538 14.067340 9.514008 
-12.398431 19.789921 -3.174385 
-16.203161 25.923769 8.097655 
-17.001123 11.956878 -2.863528 
9.057817 26.549459 -3.279674 
-28.555593 -0.654458 7.012262 
16.648369 14.307590 4.619011 
12.671143 23.700993 9.642754 
-16.444221 6.918093 0.717814 
-26.394588 -3.451961 3.596304 
-24.301542 6.726882 5.042178 
0.251812 26.949717 0.148834 
-18.990334 -1.223176 6.036525 
-16.144228 2.377545 -2.315365 
-9.129176 27.107037 6.659627 
-27.926859 -3.969805 11.740410 
17.098997 15.705261 -3.214934 
-21.414371 15.630054 4.355369 
-20.475960 15.342519 4.828203 
-6.143408 31.517662 9.481215 
-21.238058 18.162878 8.724623 
24.458664 -4.360512 11.539876 
-25.060839 -14.174764 3.824102 
-4.464763 28.768190 2.583140 
17.358377 8.183437 5.011300 
24.049410 -3.367478 11.771830 
-28.262632 -13.106833 1.915727 
10.600395 28.346445 6.951987 
16.945402 13.348382 0.499665 
19.204748 21.674767 13.989285 
-23.565317 14.706437 8.271254 
-17.324503 18.365717 10.507936 
-26.997316 -3.463251 8.355186 
23.258711 12.799339 -7.143037 
-18.251986 12.115862 11.811501 
26.868839 6.757027 13.625132 
14.538730 25.107265 5.026936 
22.944248 8.978324 -0.360824 
-12.492229 25.919809 15.168015 
19.041637 21.894123 2.203164 
25.283028 -5.676321 13.382668 
15.679590 9.100213 11.325436 
15.865475 18.401337 7.881879 
-28.673252 -2.457382 -0.843087 
-16.034201 11.666751 0.914982 
-29.309422 -4.366429 5.906661 
-3.424594 28.186432 5.065131 
19.510218 20.223509 16.689856 
-23.221466 16.508406 9.722803 
21.096664 -11.701178 2.363058 
20.324217 -5.741667 2.465742 
-5.132862 21.352316 -3.458479 
24.183620 11.460567 3.154538 
-30.062656 -5.523985 -0.934672 
22.233099 -5.500459 1.666471 
-16.833729 22.161442 5.435279 
9.048333 21.602879 11.458694 
-15.615997 16.073151 0.146246 
-11.894338 27.320906 4.992458 
-24.654175 -11.620337 7.228739 
20.008081 1.277966 9.641440 
-1.316989 29.421740 2.722795 
-27.461067 -10.888198 7.027283 
17.563251 13.263654 10.118633 
-14.162359 12.829203 8.133483 
-26.232906 4.446894 10.576208 
26.645075 5.674781 -1.753283 
18.615618 17.485022 -3.570616 
16.466259 22.426014 14.688381 
-11.497450 26.949121 8.786263 
-26.843678 -1.207818 9.617673 
18.365314 13.629692 6.126576 
18.443874 6.333749 3.129057 
-4.186352 25.602074 -2.244879 
29.893501 -0.641087 14.530386 
-20.504469 -1.979089 -2.711278 
-2.672750 29.852261 7.001151 
-30.937725 -9.109232 13.052528 
-4.821151 27.277042 2.956253 
-21.836809 -13.686410 -0.249083 
29.900406 -0.630259 13.618374 
-16.630053 8.336860 4.135488 
-7.181769 23.471041 12.817533 
-1.748872 27.122877 8.185447 
-26.499331 1.142457 4.797813 
11.426709 19.723883 -2.315399 
-4.984648 25.062496 10.218570 
-14.731214 25.905352 8.549335 
17.700499 -0.189087 13.527528 
20.630804 -10.227033 13.904245 
25.644745 7.324748 6.287480 
-18.633043 -4.866488 -4.640970 
19.107859 -1.451969 6.168694 
5.078948 27.456594 8.175370 
-7.048580 23.706814 1.400340 
-2.044278 29.386845 14.547270 
-18.533169 16.581711 6.372399 
-23.156418 -6.754621 11.897147 
-20.084183 3.878430 6.311994 
-13.939563 11.075607 12.631798 
-26.038391 4.720797 2.572658 
25.214077 6.720043 9.449428 
19.942780 12.596059 9.338807 
-29.594326 -6.185092 2.283554 
26.994534 3.877402 0.293554 
4.193856 28.652445 -0.811860 
12.670524 27.435888 3.489446 
-12.890184 17.909431 -0.782650 
0.131815 28.793159 7.766123 
-13.951909 9.198025 -2.234344 
-25.695953 7.389237 9.421116 
16.544867 0.072509 2.486037 
6.780755 31.747627 7.864384 
-28.100975 3.644561 8.642005 
-17.962271 13.225033 10.023232 
20.588770 -10.672923 -1.384227 
25.418524 10.428400 5.024341 
-21.757868 -5.432284 9.856990 
23.206949 -12.639555 7.850748 
25.886160 -15.000024 -1.165125 
16.130943 11.356215 10.517548 
6.464727 24.553257 1.540530 
10.255469 27.837776 1.942679 
-3.220407 27.525640 -0.373302 
-15.385848 22.297632 4.022197 
21.600439 -7.741932 8.051984 
27.438494 1.755967 1.030678 
19.697132 19.919197 -6.913950 
-23.081230 13.619321 7.987591 
-10.745112 20.026196 -0.108278 
-26.406582 -10.067626 13.473977 
-3.950606 23.406071 -2.092257 
11.901105 26.500984 16.172762 
-21.271173 3.974590 10.467512 
31.352610 -8.982570 11.090919 
-2.908297 26.320160 3.370608 
-16.238634 24.141432 2.331710 
-20.736513 -0.731664 12.030376 
17.453632 1.264956 13.200937 
16.059071 18.550917 -3.743299 
-20.421001 6.998173 5.097477 
-28.237518 -8.435556 1.575179 
-11.918861 28.043833 2.585552 
29.065680 -5.466784 0.114860 
-23.529171 -0.699529 -2.738929 
22.937527 -7.749366 9.414692 
-9.526549 26.874971 -5.271783 
-12.619394 15.201064 3.834762 
-18.590816 7.383129 4.354968 
25.770098 10.479985 6.428338 
12.128612 26.190165 -2.293436 
25.823383 8.745069 15.119262 
30.274008 -11.899586 -4.360401 
18.389214 -3.457660 -1.502147 
-26.127079 3.836867 2.780561 
-5.724825 23.671484 -2.474202 
12.236876 23.854115 5.675721 
17.409624 15.739222 5.719990 
29.036848 -5.388026 6.330206 
-14.825098 6.504603 -3.670725 
-26.445877 3.574260 4.550403 
-16.052322 9.220359 -2.997278 
-19.700790 -9.433946 1.528058 
25.963449 9.289920 6.158978 
-25.767525 -2.029353 11.860022 
-24.764498 11.335272 10.438169 
15.977244 20.548494 14.290303 
-23.998789 13.542954 12.588497 
-12.948318 19.432360 12.119377 
26.050959 -3.408686 9.196561 
22.361910 17.263069 7.686361 
-15.578413 15.786748 9.265024 
27.338285 2.344836 0.203895 
16.813860 3.672315 0.736297 
22.060293 15.013826 1.725840 
25.466408 7.593024 -3.295887 
-21.197609 16.412676 4.011110 
-19.219625 9.176919 4.857688 
1.634783 26.936344 9.719037 
-8.170290 30.898092 7.500836 
22.910267 -1.820204 12.206137 
10.112574 23.008209 8.923471 
-31.942047 -8.038735 7.754117 
-20.231045 17.044640 -4.915350 
-7.231592 27.889072 -4.675229 
-19.341036 -0.728125 11.568887 
22.555630 5.437382 6.802565 
-25.843895 5.862345 -3.721641 
-17.528357 15.751774 -1.797739 
21.180573 8.413664 4.342033 
-26.676729 5.126842 6.704916 
-1.152313 26.223694 4.416202 
-27.357834 -12.576162 12.998785 
-19.551025 -2.553218 6.311418 
-12.296587 16.679489 3.293211 
-15.483781 4.692785 -4.407741 
16.521694 4.161679 1.701845 
-17.247646 5.867076 7.599221 
-3.489970 27.482586 -1.587138 
-0.670672 27.293949 -1.899039 
19.932878 13.161046 -0.440541 
11.222383 23.004642 -4.409814 
14.877498 20.150646 0.109716 
-18.508186 1.685882 7.450030 
-27.200100 -3.257581 6.248656 
26.599403 -3.437224 4.767218 
-25.069595 4.750933 -1.901157 
-19.394178 13.654043 5.728748 
15.462041 25.770639 1.273367 
-11.428276 26.020216 -3.480009 
-13.887464 25.877331 -3.654361 
15.678119 15.990797 4.932755 
9.973075 22.460129 -1.355067 
-25.186102 7.412982 6.106614 
-6.048222 24.314613 0.593224 
21.414856 5.827907 -1.694411 
-12.032223 26.898148 -0.156650 
-20.264381 -6.724365 13.387263 
25.929592 -13.081585 -0.032489 
8.027698 28.024214 16.109705 
23.986712 11.201028 -6.965958 
22.376532 17.351955 8.661369 
24.421261 -13.535904 11.118906 
19.602692 -2.985952 -0.356235 
-10.157380 17.197004 13.788194 
-27.094469 6.831907 12.990014 
13.861373 21.491404 -0.793915 
-20.517036 11.859505 7.649265 
-22.887875 -7.486360 6.643011 
-6.262809 27.587921 14.280128 
28.000765 -1.044986 10.199538 
16.688673 10.495166 -0.989908 
-17.506353 7.897630 10.829689 
-20.029949 -7.141242 2.334023 
-3.340960 26.584217 11.184413 
18.473497 2.020976 8.887580 
-18.738934 20.093393 3.513788 
-14.501476 7.399526 -3.910765 
-8.003698 17.831890 -7.384529 
14.322207 22.934572 11.439642 
-25.592562 6.779956 8.884596 
-23.068380 10.811831 10.780926 
24.544136 -13.858976 1.300183 
1.602583 26.845100 7.033767 
-4.830528 23.572800 10.339563 
14.546231 16.251579 7.356464 
25.565922 -9.300801 -1.463828 
-22.784996 12.251632 5.202169 
1.654751 28.323740 6.982700 
-25.007034 11.031206 7.475537 
-25.373083 -13.848437 9.979256 
-18.767418 11.898755 -3.077664 
-10.937880 20.686247 11.524984 
-19.265917 10.856930 9.117232 
4.219732 20.115141 -7.782202 
-11.330433 27.210722 4.437129 
-15.838562 7.909584 4.141908 
-15.710426 24.341759 -4.066318 
-20.096254 21.644379 10.251410 
17.282270 23.395485 -4.867658 
-27.046719 -10.202265 6.578066 
24.560093 10.899361 -3.241291 
29.465412 -0.867645 11.429852 
-18.122274 7.999350 11.328709 
-6.788583 25.205885 -4.348602 
-1.112959 29.007215 13.436574 
-16.284946 13.301612 12.064936 
-21.943071 2.051507 5.447343 
5.181802 28.315577 2.203110 
16.623146 8.127810 1.949775 
-19.345715 -3.364355 10.892107 
25.663109 6.228006 1.774374 
-22.672676 10.513648 11.535363 
-17.792912 6.900383 -0.061358 
-25.051657 3.024681 11.986632 
19.466574 -4.028944 8.021090 
-14.943400 20.524395 10.946522 
20.888676 4.216338 8.652165 
22.603661 -4.424452 11.293368 
5.285168 26.018744 8.668916 
-17.878094 0.547907 13.876978 
17.640509 18.259371 9.688970 
26.186657 -3.780297 6.505237 
-1.703983 24.649868 10.352307 
8.505277 27.764828 9.074185 
6.823268 23.093168 -0.516493 
-6.278938 25.473637 3.251749 
19.432076 13.900088 12.854075 
23.368607 -10.422637 9.756872 
-12.763752 20.522957 -0.330237 
19.844877 -7.943709 0.379017 
-21.886419 -2.042261 12.026175 
-13.681970 24.352421 6.751329 
13.886820 17.150751 9.428767 
23.173212 6.254135 5.141856 
-24.362206 5.098166 -2.014752 
-16.069094 6.703249 2.817720 
21.952063 14.381547 -0.121563 
-18.812101 -1.586088 6.807529 
-18.798464 2.939572 5.142813 
21.226105 -11.589006 6.052838 
-14.562201 7.602253 -1.505685 
-10.916597 26.328688 16.013098 
-18.203642 12.029930 4.813842 
-25.794453 -14.100418 2.481495 
18.273182 7.412112 -0.184604 
11.183561 25.814837 -0.847305 
9.150792 25.335888 -0.152502 
-15.128756 8.192996 3.608196 
25.090397 5.689155 8.106575 
20.763948 -6.795366 5.539240 
-21.856667 -10.645510 6.361767 
4.760691 23.673595 11.334697 
-23.851761 5.827278 4.650786 
22.843466 12.417845 6.214546 
-21.858053 -8.100247 8.483607 
5.675516 27.371029 -1.785724 
-5.721366 20.539852 -4.419436 
-21.820683 -4.080818 3.564310 
-27.478071 -0.836284 3.999556 
-5.065766 20.063009 -6.519013 
16.742905 6.562439 10.445951 
21.250994 18.266542 2.934545 
13.380031 24.848957 9.723366 
-32.155872 -8.000565 10.367904 
-20.461109 -4.815563 1.984310 
23.396898 10.759042 11.266113 
-10.395685 27.108713 8.156080 
4.466754 28.376444 4.930048 
-22.534206 -11.428432 -0.365868 
28.782778 -9.811024 2.672256 
26.107092 3.955522 11.575824 
30.910278 -10.815809 0.814002 
21.705212 16.899111 12.148488 
4.806738 25.395966 0.585842 
20.328533 -10.116802 3.215058 
-13.790968 18.127106 4.877736 
9.311538 18.075268 -4.543719 
-10.981832 26.213112 12.412495 
-18.094921 12.820197 -1.893189 
-12.544781 17.785797 4.129785 
1.294948 28.593300 2.028349 
18.348558 15.784916 10.859100 
15.945146 11.997013 1.053705 
-18.726368 20.471342 12.822239 
-29.770781 -6.711862 10.693308 
9.934441 20.068913 11.100908 
20.679270 7.368351 0.933358 
-0.744001 27.558605 12.660569 
-12.575218 14.676494 0.142045 
25.540039 -15.140655 0.849255 
19.601648 3.259332 7.443032 
11.911298 24.532154 5.887458 
26.015541 4.948096 9.985801 
-27.535419 -9.320262 7.212266 
21.972912 3.119335 11.951359 
-26.903458 0.061759 4.237406 
23.646349 -0.825882 -1.958271 
23.904140 9.575331 -0.946404 
28.675709 -11.663652 5.678362 
-22.572210 -9.617736 6.452256 
20.502058 -1.723702 9.703523 
-29.177622 -6.644705 4.554306 
5.109209 28.189205 14.988765 
-16.858112 20.821619 -7.634018 
15.609361 7.317901 14.618310 
27.011494 -5.792946 -0.974299 
-16.571949 11.936591 -2.033987 
12.455709 19.053772 -0.694779 
-20.054754 -2.350893 11.501624 
-6.575873 27.486319 -3.795167 
5.240975 27.891569 -5.799335 
-0.665269 28.959837 2.412934 
27.438095 0.953252 2.364308 
-25.959915 -1.784493 0.555438 
22.589216 5.790167 8.519901 
-16.140539 13.189554 4.979992 
-28.130877 -13.350160 3.532839 
-18.414780 -3.204803 2.892827 
-18.832228 17.294287 5.957564 
9.305346 28.115191 8.259286 
-21.113552 -9.352820 9.675385 
-7.532997 31.383600 6.934515 
8.474587 29.604126 6.610900 
14.846373 25.695938 -5.187871 
31.513742 -6.647418 14.609063 
10.405797 24.641184 3.080368 
-12.655374 18.983280 9.391053 
-11.716451 26.786776 6.789373 
11.170077 25.558977 -8.488215 
-19.697027 -5.123990 1.382039 
-2.320390 24.625692 12.470386 
25.005314 5.664158 4.315127 
24.252438 5.761957 -1.640435 
-15.986841 17.887192 8.296965 
19.929276 -4.497476 8.848802 
18.598965 18.701992 5.799697 
14.041297 26.429310 8.752199 
25.897591 8.108639 6.311526 
-9.803399 22.037392 0.082000 
-18.572428 11.150186 5.475043 
-13.935065 20.394403 -3.521941 
-17.110237 20.139753 -2.373679 
-19.945988 -7.974948 4.419589 
5.759897 25.428749 1.951997 
26.196987 -9.885979 7.038294 
-16.310911 2.033998 -4.272608 
-18.638762 8.839947 -3.122247 
-15.301515 23.993052 13.699073 
8.370816 28.971870 7.084462 
20.555733 19.037214 12.470066 
-10.081667 26.485876 -2.706016 
-16.123716 7.155412 10.584288 
-14.807192 22.467047 4.534569 
7.846638 23.213202 12.357736 
-19.954504 -4.242800 6.102522 
-4.921245 19.762278 16.367411 
25.446009 -4.661938 9.167161 
12.529314 19.710983 12.491590 
-28.360897 2.427366 7.479002 
20.512751 19.785816 -2.711210 
26.177542 8.037729 14.985107 
2.074548 24.338097 9.868486 
-28.923807 -3.593543 9.728117 
-8.287515 27.149639 5.908493 
14.725183 9.092860 -6.620868 
-12.313593 25.444996 -3.280806 
14.046899 26.476471 -4.176649 
-12.854167 12.329866 -2.514065 
3.151635 28.054852 -5.403545 
18.755991 1.217994 5.378897 
-19.619440 2.981926 8.260606 
-27.096487 -8.635648 13.555756 
22.857248 7.328501 1.586582 
-24.713247 1.172200 5.716362 
-19.673298 17.216434 5.236529 
-26.666985 -1.038112 1.716994 
8.375054 29.386038 1.302727 
17.793207 16.588331 5.892011 
-28.037354 4.759582 12.180412 
15.837122 13.092248 4.767621 
0.709063 24.500320 -0.107873 
-18.680342 10.835381 8.278546 
-16.311378 15.906861 11.701388 
11.477947 19.725035 -1.349371 
-15.842129 24.600119 -2.636596 
8.573270 27.239510 10.401357 
6.456147 23.576151 -3.283190 
0.857583 28.243202 12.669255 
17.126467 17.253130 5.799466 
29.758520 -4.464854 10.924753 
12.913006 21.288000 2.831037 
-26.213284 -6.471286 12.966200 
22.280474 -12.432016 9.225659 
-16.966383 17.123707 10.566078 
-4.635704 30.247641 4.731852 
19.536396 21.045982 -1.084675 
30.623249 -4.923645 8.379006 
-20.004583 -0.294811 11.852521 
8.097042 19.115446 14.063059 
23.642529 -1.416438 12.306774 
-17.745119 -1.892955 4.323531 
-3.649015 32.167992 5.810743 
-19.485388 5.003881 -1.976237 
12.916490 18.980482 8.577917 
-21.365097 7.087466 3.585280 
21.153883 -8.437705 -0.150427 
24.067368 -14.878372 2.568051 
-29.287750 -12.371543 3.229953 
15.568265 16.051254 -0.088725 
21.647345 -6.589628 11.419478 
18.413397 22.123810 -5.739074 
-25.708452 1.030777 -2.216441 
4.263210 26.447124 2.115209 
22.947079 -14.375831 0.926817 
-27.048351 -11.559896 6.695051 
-9.531622 26.351479 0.647928 
-13.752937 18.336750 0.170085 
-0.939753 25.291468 -1.655568 
-17.591619 -0.704655 -1.217907 
14.877769 22.978161 -4.277735 
18.947161 -4.080273 14.067872 
27.431770 -7.734871 6.968709 
13.963795 25.501049 5.400274 
19.820509 -7.989592 4.020197 
-20.327486 16.371344 10.645870 
13.075036 13.489237 11.026086 
-23.943306 -3.820983 8.979014 
20.197470 11.532895 5.583861 
16.128712 5.978173 14.740372 
-10.324183 28.691473 3.101090 
-14.476393 9.840265 14.292993 
-25.350615 -9.039966 5.337974 
-16.744062 6.939223 6.828172 
15.033868 8.598865 -5.576379 
4.080478 29.510040 6.290426 
-23.129366 -6.529333 7.487288 
22.428116 7.672410 9.911709 
20.240211 -4.341041 10.131407 
27.901175 -1.650488 9.441722 
14.563244 15.466146 -0.986369 
19.355494 1.600512 4.432907 
24.781488 8.415472 -2.685365 
-20.205486 14.235058 12.673982 
20.071836 20.284369 6.759569 
18.623632 -1.202439 5.209133 
-28.098707 -1.775504 11.089778 
21.158609 14.393430 4.458303 
16.062611 11.215841 0.459487 
-0.060827 31.735397 5.866703 
-23.813761 -9.251067 9.175299 
-26.143633 -15.131157 11.161512 
-20.705854 7.404112 1.588667 
-21.022253 6.671794 1.662048 
-3.429326 21.870693 -3.070076 
16.638809 24.570469 12.673491 
-20.817917 13.460155 4.310290 
23.862465 4.548837 11.608096 
11.179417 21.721794 1.701116 
-2.311059 21.696915 -3.544981 
-2.753432 28.286903 12.237320 
-22.720989 11.070974 3.822490 
-9.183604 23.178038 11.007894 
27.313097 4.488738 9.371637 
11.174278 18.222498 -1.969970 
0.912543 25.986717 5.293906 
11.263977 24.635830 -1.302655 
-16.413820 8.288925 9.477622 
23.034281 -13.022861 0.090368 
22.190317 8.339447 12.264089 
25.258219 10.928673 5.792409 
-26.623005 -12.923760 6.084863 
-18.982368 16.818943 -0.624934 
-20.987389 -2.259267 11.793326 
-19.555626 11.099764 5.762279 
-13.971960 21.776472 6.704644 
30.890327 -7.460289 7.107556 
2.324204 25.022070 9.504282 
21.020435 0.178381 3.705423 
16.096531 16.689554 11.286848 
-26.565556 6.927596 10.439857 
4.496633 24.116266 -0.059182 
26.864872 -11.662060 -0.457741 
-7.013737 26.675203 -7.479201 
16.640892 3.301891 -4.748258 
7.838560 26.885084 5.149624 
19.682178 19.956205 -3.008847 
-25.513136 -10.256502 -1.045176 
-19.630198 3.367654 7.142579 
16.995323 21.852224 -0.449733 
9.178542 21.462427 10.564445 
18.654261 -3.597548 10.243752 
3.407537 28.719704 1.456707 
27.308392 1.129773 -0.600790 
-11.352895 21.209496 -4.012346 
24.143799 2.867957 5.392329 
26.664310 4.844212 0.934092 
13.948532 23.419706 6.344755 
-27.309181 -1.325593 11.534219 
22.381552 -2.400736 5.110797 
-28.966755 -5.073921 6.080187 
9.478128 27.901674 -4.379202 
27.081827 -13.792315 9.406336 
-20.767838 6.089500 -0.534805 
15.226338 8.872596 -3.887260 
16.117886 24.688107 -1.531802 
21.771715 -11.233209 12.443917 
-22.966974 15.036414 15.861564 
-9.340218 28.762230 4.967747 
-21.588736 -6.834623 -0.746136 
27.642263 -1.424791 10.812166 
-3.730078 31.831104 10.657324 
-12.471696 22.579973 8.729350 
-7.489489 20.839413 -2.077756 
21.606918 -12.224202 2.067456 
13.981028 26.338799 7.069501 
-27.444645 -3.667997 11.044909 
16.466507 4.406275 -3.771702 
-20.596422 8.707957 -2.306053 
21.169334 12.014773 5.108032 
-21.898149 13.888832 12.216753 
-24.252728 -4.943844 10.232343 
-11.181886 27.689802 3.368566 
-22.734087 -1.442298 9.527625 
24.664326 -9.356322 13.911591 
-2.975750 30.815845 13.246149 
-17.978687 22.777306 4.391047 
-18.073215 0.869127 7.479100 
25.991026 4.746723 3.663605 
12.006696 22.600554 2.955557 
8.154958 21.327663 10.430242 
-8.574374 28.003181 -1.347801 
6.133602 30.118507 5.182178 
22.093548 4.504973 10.971699 
-16.115383 19.350828 13.280663 
14.343566 21.714426 -3.955354 
-22.210773 7.565862 9.525763 
19.973860 -4.595325 7.729367 
-14.314936 13.673895 6.542179 
16.661718 13.458059 2.944109 
21.947298 15.462892 4.301928 
-8.074798 26.497910 -4.231290 
-21.866724 9.413255 -0.884293 
24.645533 11.863778 6.759917 
22.782728 15.350415 9.889579 
-22.835464 5.437218 6.023964 
-16.858702 24.381115 13.323888 
19.248150 2.916910 6.518657 
-20.254681 12.419770 9.186604 
-11.014440 26.503328 14.834889 
-6.798410 31.565733 7.919702 
1.027685 28.624098 4.143993 
-14.866117 11.695822 4.081869 
21.851719 -1.078293 12.215022 
-22.768227 -11.942591 9.329397 
-10.328862 25.682419 2.371588 
25.166012 -11.037471 -1.114502 
30.891146 -8.964148 12.877464 
-19.764271 18.792294 -2.712251 
-28.965265 -12.557590 4.376918 
-9.046188 27.119362 5.676940 
16.580667 22.604347 4.589011 
-10.574394 25.075359 -8.194993 
-7.091808 28.219761 -2.372542 
13.717714 13.477134 8.558387 
18.567236 13.837188 12.863416 
-0.798083 26.868320 -2.796555 
-16.545822 3.375604 0.169076 
-10.899554 26.767303 1.259863 
-16.360622 24.372786 -1.067231 
-20.011541 16.502916 -0.359456 
-21.916811 17.381577 4.986099 
21.254738 15.179893 1.651784 
-2.566158 28.295897 -1.651368 
-19.329590 18.021914 -6.291584 
20.295458 -8.992399 0.712288 
14.957150 18.036240 12.805980 
18.030338 1.394953 7.754377 
20.189455 11.816719 8.203838 
-2.548244 30.228743 14.498788 
10.897597 15.528912 -7.324152 
19.025373 16.042395 0.098803 
-22.013554 17.409212 9.642351 
-21.994043 8.532800 9.622561 
-7.060954 28.922525 3.562222 
10.122247 25.439697 3.606954 
15.073914 23.783146 13.852401 
0.579480 23.989857 11.017217 
12.629972 25.664124 -7.324846 
-9.338701 25.985958 13.817175 
-10.009523 16.275768 16.093296 
20.132498 19.527761 11.804840 
-0.078158 28.106684 -5.643107 
-17.341078 22.010929 -3.405998 
18.566921 22.032049 0.178335 
19.324396 -4.552244 10.413220 
-22.201767 -5.623173 6.277633 
-28.746515 -12.238395 12.645245 
16.554613 4.612115 14.495182 
24.501059 -14.966888 -1.242654 
6.587267 29.162914 12.854974 
17.835907 9.869656 8.038849 
-28.201511 -3.355594 0.479378 
-22.754799 10.086679 3.514816 
-6.053992 28.323263 7.018553 
14.849052 15.470471 4.616129 
14.948667 22.793411 6.184664 
6.089926 21.047457 12.896102 
-31.131310 -11.716107 9.874077 
-26.210756 -5.089879 12.310644 
-18.719460 9.681352 10.842499 
-11.748813 21.752985 12.155827 
-17.254896 25.315601 6.911614 
-25.753490 -5.772930 12.568230 
-22.953287 13.605416 6.021346 
24.626360 -4.798240 8.419011 
-4.799249 27.668451 5.232086 
-27.210447 3.021066 -3.906124 
-24.068596 9.183519 -5.095017 
13.039805 23.461382 -2.508823 
19.873144 -1.327749 11.664301 
3.452509 26.205992 -3.233427 
-1.019276 28.711361 -0.350916 
-2.578179 32.421028 7.903403 
-25.431227 -13.964267 4.552495 
-20.084848 -6.035311 4.983211 
18.834909 16.583935 12.833493 
-5.396108 26.487617 -2.472306 
-23.909542 -14.038678 11.637374 
29.447680 -11.010438 5.078435 
-24.317894 4.205908 5.314466 
-22.353409 6.692747 5.146016 
18.315151 -0.307126 11.107940 
23.303648 5.745411 6.951956 
-25.282574 -14.807597 12.332496 
17.586512 10.942936 -2.912702 
2.638964 22.840036 11.390517 
22.469482 15.236395 11.497624 
22.708702 15.394109 13.484059 
27.346359 -9.171434 11.165410 
0.758679 28.681402 -2.803654 
-23.358881 7.456599 11.502593 
13.424858 11.813200 13.071140 
4.310323 29.882521 14.225345 
-13.887877 14.576265 -0.757780 
20.668049 19.053772 13.959590 
13.877518 13.631932 7.532965 
-23.460096 10.922260 4.122765 
-10.275542 20.024328 -2.658499 
31.433140 -9.914471 8.708320 
19.477119 19.875372 5.000464 
-24.374840 -6.698184 12.493334 
16.404499 4.199416 2.842492 
15.877126 12.671957 -0.267600 
23.632563 9.097651 10.588257 
-25.550682 -1.806079 -0.580012 
17.868773 14.992679 5.977087 
-27.331835 -7.884239 13.474265 
29.163317 -12.651010 8.341397 
-5.376175 26.702137 -1.513956 
22.578129 -5.713510 7.156697 
9.682373 27.268476 11.974606 
0.993308 31.848524 8.339494 
19.574429 5.252763 9.498380 
-26.751301 -0.786011 0.967594 
16.697514 8.334470 2.849750 
-0.491829 28.818714 5.151382 
-19.133165 4.606451 8.583182 
17.541294 18.438374 7.118859 
-22.527422 7.977114 11.815885 
-28.498108 -9.423923 7.268590 
-12.947207 23.102961 3.205379 
19.024529 20.917120 16.726345 
11.836994 15.670311 -3.559969 
-4.654983 30.031263 14.294790 
11.462093 27.097858 13.862762 
-25.179625 6.895227 -2.658442 
-14.059326 25.283049 7.022062 
-20.208910 17.275089 -1.627494 
15.248566 20.031401 13.966300 
23.430237 -4.870762 11.942440 
-23.058062 15.685189 10.718625 
23.805258 4.666831 5.344538 
-19.050819 23.885117 10.812564 
20.437008 -0.071810 -2.574114 
-31.357304 -7.225976 6.083776 
2.215003 21.082253 15.414647 
-21.564341 11.571883 8.467430 
13.700183 12.459425 -4.131186 
1.811972 27.806610 10.610628 
25.469637 9.439528 15.248519 
-21.365263 7.867713 1.083968 
27.735180 -12.693912 13.110403 
-16.637388 20.749985 4.791305 
10.204172 24.784636 0.420340 
9.454349 27.935705 -0.936407 
-24.367033 -6.121850 -1.165778 
10.965815 26.197941 0.703720 
20.268831 2.681203 9.266365 
-22.035172 7.156975 3.091190 
6.795632 27.032660 4.718793 
-15.959527 3.096362 -3.114238 
-3.955202 23.492376 -3.061011 
-30.512499 -1.648002 12.084150 
30.995190 -5.476315 10.567225 
23.047802 -13.849262 13.741446 
-21.417992 -0.712128 -3.007468 
-14.834211 14.965513 10.709278 
16.618841 23.568399 4.408984 
23.087023 -8.100368 5.721642 
25.949043 -5.757507 6.590417 
12.586201 27.023987 -0.400399 
26.614868 3.727442 2.946928 
0.667968 27.138376 10.431135 
-19.597349 -3.722116 14.757097 
29.170801 -3.878184 8.909605 
-5.509504 25.355076 2.482111 
19.216587 4.851726 3.917517 
29.115480 -7.607118 6.702878 
26.005362 0.482554 12.204225 
-32.608643 -7.869061 14.347232 
13.338381 13.809044 -2.600596 
-29.179310 -6.260722 5.650102 
13.334919 20.591267 2.143567 
-16.580814 8.430263 6.542606 
-30.322266 -4.926309 12.016220 
-25.770542 4.236261 11.467317 
8.067705 22.586580 -1.675761 
1.824080 28.094221 -1.266891 
20.491171 12.204497 -1.098623 
-18.405327 3.796474 9.322677 
27.374397 4.608438 8.091287 
29.605648 -11.514239 7.228207 
-18.237154 23.507689 4.129994 
24.484314 -12.714259 9.529315 
19.111807 23.618818 10.558070 
0.182709 26.297972 5.492958 
-3.861328 31.526886 11.514304 
-18.254860 18.357153 6.392540 
24.698914 -10.386402 -1.362183 
27.278055 3.054098 0.909195 
-23.969774 12.349540 10.187749 
6.738860 31.679262 8.845999 
7.262581 25.748644 7.588829 
-23.211206 -5.315631 5.695783 
-16.385389 21.186882 0.725473 
-0.055640 26.236618 9.710647 
-8.429453 27.890530 12.924051 
0.617888 27.512169 11.182273 
-10.113280 24.955574 1.587071 
12.936013 23.686819 11.299737 
20.489864 9.696382 4.282399 
-29.954693 -4.249782 11.686503 
28.232040 -4.244174 3.066248 
25.390244 0.985908 5.576076 
15.701839 25.046804 12.826128 
-21.512716 -3.962511 0.900151 
20.494202 9.526000 12.073090 
15.684216 25.136112 -4.865139 
11.660742 17.578596 11.374092 
13.945429 15.647871 2.519283 
-14.025919 17.387962 -2.989392 
-28.021620 -4.581643 9.168291 
-27.380428 0.963664 4.518221 
16.364416 8.650958 1.155445 
-7.817945 28.096268 7.030095 
14.212911 16.226238 -2.933291 
-13.587293 11.733263 12.149902 
-22.877375 -12.174128 -0.110412 
26.745901 -8.113071 6.963794 
-11.885059 23.960167 6.508818 
20.232998 -9.300286 13.869856 
16.420635 24.060106 15.620226 
13.421021 27.307575 -0.450700 
-21.599604 9.910144 -2.598946 
-2.673525 21.548897 13.277472 
-21.628260 4.884820 10.338614 
27.467764 -14.497698 -2.476723 
22.167892 14.631977 4.413905 
14.763296 18.203751 4.795864 
-22.156477 15.239124 4.355463 
14.476285 24.073814 12.681095 
17.364389 9.040427 4.644626 
13.951549 13.803889 10.897843 
24.300005 -7.728991 1.256471 
-5.048783 26.335453 2.850666 
-17.726086 10.031156 5.339330 
-1.527410 30.813150 13.065854 
-28.698580 1.545554 10.298839 
-18.478500 4.356180 -1.623782 
-19.953585 17.704012 10.518074 
-23.424858 14.293282 8.990655 
26.580833 0.322725 9.785296 
19.683241 -6.758831 3.618169 
21.214352 -3.064472 9.463480 
-29.246572 -4.825268 12.198349 
-23.641510 7.202949 0.281402 
21.768106 -12.650023 12.301420 
10.513088 25.204344 -0.304124 
23.406940 -10.790863 13.348811 
-16.714382 7.262053 -0.178044 
16.792700 1.208452 -1.635970 
26.602573 -13.795763 2.043237 
-6.252378 28.369743 -3.582368 
28.233282 -7.103653 6.341258 
24.827042 6.135355 8.978859 
-26.773008 2.922889 11.607388 
-18.324915 4.884451 8.932624 
18.327797 19.155922 6.585441 
-19.191097 -3.526591 4.507882 
18.309328 3.224795 -2.526799 
-16.713282 15.197071 12.451043 
31.185619 -9.488770 11.708561 
22.483414 14.373977 -7.316863 
-24.663031 -14.099273 4.733383 
1.078405 27.330912 13.887912 
21.640579 -2.853221 5.030765 
-6.545123 29.528576 13.005124 
-28.419300 2.644088 9.856021 
14.432922 15.989393 5.807438 
-8.722274 26.133526 12.966369 
-16.413429 1.248898 -3.349547 
24.156553 -6.183751 6.025791 
-9.460580 28.967871 2.948441 
-16.779980 20.905773 -0.151644 
-7.272460 20.470491 -2.774405 
12.076786 14.311948 -5.994961 
-18.074987 0.912847 -2.803806 
-16.292870 18.546864 -0.707648 
-6.786186 24.416164 -4.062975 
2.516615 26.812468 6.697455 
-17.315235 21.209209 0.520211 
-27.777267 -13.092131 11.458591 
-12.792544 24.846643 6.441897 
22.513390 2.986981 -2.660483 
-11.098911 16.359642 -2.268536 
-18.917439 18.809694 -2.197969 
-29.828886 -11.548314 7.015232 
17.788128 11.770916 5.955302 
-1.666337 22.711130 11.676552 
23.110916 -13.790154 3.342807 
16.421047 4.205576 -4.825092 
-30.854063 -9.538239 0.180093 
17.375412 17.797037 8.919008 
-14.851193 6.641294 -1.896371 
-18.881819 19.670889 11.110570 
18.361649 -2.756728 1.630132 
-0.936235 27.422470 13.761183 
14.035165 20.309387 13.628676 
-12.700226 23.977188 6.757610 
17.924667 20.644184 -3.278144 
-14.788310 18.873264 -0.137584 
11.398534 23.192444 2.814432 
-23.201096 -7.382724 -1.209317 
-13.037520 17.838661 -2.170234 
