12.049224 29.840906 8.979453 
31.576492 -3.517323 13.188802 
23.243675 -6.754156 3.073073 
-6.133638 30.696201 9.884891 
-1.778112 29.300175 6.677258 
-27.309528 -0.200787 -2.237986 
28.401655 7.041790 15.116008 
-18.453180 -11.444334 8.377528 
-12.555917 19.850746 6.730398 
-14.865991 24.479240 4.385512 
18.671921 14.153885 1.028538 
-12.738338 21.967304 11.126649 
-25.848139 7.575854 12.636538 
-26.752234 2.082228 -3.372353 
-26.107662 -15.948882 12.564399 
-26.875813 -0.978198 11.051268 
19.372736 -3.025238 9.088477 
26.811657 3.247612 -1.745522 
7.513959 23.111208 0.471994 
2.547590 29.930845 7.762949 
20.400499 18.377037 -2.755650 
18.174292 10.914658 7.358780 
4.921294 35.574768 5.267216 
-19.532995 5.136716 2.846700 
26.336819 -2.701048 10.844748 
20.996929 14.342412 3.033107 
30.397341 -5.016200 13.134664 
-12.046298 21.384096 10.436365 
19.880480 18.702497 8.565266 
-19.803610 13.361650 4.733529 
20.878010 23.586464 13.273413 
-18.384014 2.029879 3.967513 
-18.249926 -12.894290 -5.577380 
-16.296152 14.746278 -4.626518 
29.560314 -12.810533 -5.298276 
-7.908224 27.595121 11.390333 
-20.953259 -14.620095 4.869459 
22.610321 -3.538160 -1.676028 
-5.019377 27.334724 6.387940 
19.016335 20.480139 -6.602640 
17.478863 22.580700 -4.849707 
11.069160 21.745810 0.102864 
5.493073 25.795509 -1.424704 
-5.917211 30.705990 11.372467 
23.725021 18.241156 7.113905 
25.444582 15.136584 10.106115 
9.543745 20.612661 0.966628 
-19.597942 -10.737933 5.644753 
-20.517859 17.439545 -4.454929 
17.504570 14.998212 0.648278 
26.587891 -6.773248 10.955848 
-21.063288 -11.511586 12.644124 
-6.596279 26.975281 5.951596 
26.666430 0.151262 3.279869 
27.221498 9.632352 15.240555 
20.854309 1.056276 -3.932596 
-25.799770 -14.603788 9.853004 
-13.428428 24.855717 -5.449702 
-19.313673 1.482115 10.941267 
2.155686 29.194061 5.441565 
6.638125 18.488451 -0.422887 
-14.794846 17.026413 8.555613 
-16.245337 8.118033 -1.994586 
-28.599226 -13.065318 10.589209 
-28.917669 -10.669284 13.049535 
13.474277 28.093044 -0.407384 
-20.502556 -6.150057 1.133937 
16.243267 1.590841 0.248540 
-14.846271 22.545572 4.913788 
-14.210169 17.953623 -1.802232 
-16.503576 -2.340063 5.415760 
23.838495 11.775295 -1.085421 
7.644777 18.519232 -2.353489 
6.726791 27.414639 8.253325 
21.480583 -6.360760 -1.621054 
-19.484968 4.862202 5.110419 
-12.966234 14.727324 -2.668777 
-21.453917 -6.294982 -0.065964 
-23.441511 -6.491766 5.854056 
-4.061698 26.533663 8.255207 
28.339699 -2.326638 0.273583 
26.169804 -2.622960 4.418625 
-28.070683 -14.350939 -3.575752 
-26.397223 -7.819269 5.763844 
-14.786838 24.014687 -0.543903 
-21.073193 12.577739 8.294860 
-12.606651 23.009874 11.219935 
-27.986671 -12.189777 13.213141 
23.216547 8.247195 4.387726 
17.385586 7.296443 8.699177 
-16.717281 14.602841 9.062154 
10.858288 21.835190 4.156507 
19.338745 -0.197859 13.788284 
16.630365 22.355553 -0.917100 
-23.441322 2.853304 11.084489 
-18.150589 18.132214 4.308269 
-15.459642 9.952373 2.082742 
24.210224 15.565062 4.842329 
11.698105 29.128244 15.404337 
-27.743282 -12.195967 4.680513 
17.602154 20.184097 3.056478 
1.271596 23.816362 0.296151 
-21.193455 9.132429 5.074686 
16.327148 12.029990 9.544267 
12.328443 18.115852 -0.830252 
-3.923220 20.788805 -1.626782 
20.387917 23.920614 10.037166 
-16.750954 13.298603 0.305516 
-11.466984 20.869074 2.565714 
-17.710188 3.950621 8.266500 
4.180150 30.512239 16.423700 
15.302762 21.544468 -3.837936 
26.530735 -1.561200 -1.026509 
20.256300 8.825511 3.869279 
-6.954485 21.697271 9.503941 
-17.714636 2.587485 -0.785880 
-11.723823 20.086342 -3.077865 
12.980906 28.483902 2.840082 
-18.312420 11.632173 9.948380 
15.977617 4.097192 -2.142921 
27.738253 9.249300 13.059500 
21.113039 13.813095 4.659918 
15.162143 25.812559 8.204844 
-0.759923 32.869205 7.520461 
18.352325 7.507538 -2.342897 
15.942758 22.422844 11.556134 
-28.970963 -3.795890 12.283585 
17.396870 5.308015 10.752520 
4.984753 19.610909 -2.461746 
11.091681 25.469328 -2.951520 
-18.675331 23.595922 13.128580 
23.525120 16.481930 3.830876 
20.459852 20.659241 9.508673 
18.097670 20.667629 -0.519429 
16.515848 7.548666 12.917612 
-21.839994 13.177773 4.754095 
-7.449273 26.820894 -2.314844 
26.729820 3.811311 1.862127 
21.068047 16.942741 -7.340493 
17.932552 14.562618 0.114048 
9.918869 30.550610 10.800095 
-28.773760 -7.172083 12.363175 
1.680716 32.644936 9.709445 
16.168652 11.652164 7.659545 
8.434895 28.332779 11.390683 
-19.620157 -4.654201 -2.750212 
23.093811 19.959330 11.255053 
21.337040 -4.278394 0.316621 
25.737350 -9.860852 6.848848 
-20.351709 1.404039 11.231977 
16.443069 3.668442 1.031873 
-3.718193 30.921965 14.288044 
18.677757 8.990016 9.769073 
19.863707 -0.557646 4.007430 
-19.249651 -5.522992 4.985154 
-28.382835 -11.786277 5.893874 
17.812677 15.365461 -3.078922 
-22.896540 15.582144 14.217552 
-24.078033 9.499855 -6.024292 
-12.126470 12.832332 -1.658918 
27.427420 -8.519129 6.101233 
20.542620 21.489201 10.224966 
-0.882370 32.970135 5.985394 
-10.848620 27.373314 4.899682 
4.862771 21.248936 -0.864132 
12.946596 12.224270 -7.073009 
20.689358 11.255831 8.034820 
13.298408 15.851246 3.034791 
6.253200 25.768883 5.451064 
5.932157 18.856901 -4.557024 
11.213878 20.953541 0.162391 
17.703344 -3.218114 -0.086919 
25.254656 11.585835 4.515150 
25.750763 6.063691 1.129871 
-12.866570 21.440502 -1.471046 
-25.063631 -16.874582 -3.197231 
23.223417 18.699806 7.576505 
16.128344 1.319333 -2.947654 
8.704083 21.034592 2.466918 
-15.621527 18.886955 -1.947461 
8.453424 28.731276 12.179385 
-17.379293 14.705520 3.843946 
26.025303 0.113778 -2.328290 
27.611622 3.469769 -5.400743 
-2.843020 24.302250 9.058635 
13.869595 15.662998 10.114252 
10.304621 20.393192 -2.708320 
4.744583 24.451176 10.930845 
16.219273 13.631477 0.325754 
-18.485405 18.596743 -3.932724 
22.154285 12.948253 -2.618595 
-22.801020 -14.867500 5.370066 
-22.496189 8.573880 11.850370 
-5.980633 32.121773 5.783062 
-27.285667 -0.218466 -3.094974 
30.336273 3.226409 13.908111 
-16.211044 13.741253 3.819117 
15.880093 19.176842 4.972513 
-2.479587 30.045538 16.492338 
-13.293877 21.866426 6.032324 
24.305059 6.248998 -1.947147 
20.923269 21.538189 9.440016 
-18.506948 -14.605745 3.330808 
27.865438 3.681208 -1.721725 
-25.830509 1.346123 11.194469 
29.112291 5.522666 10.412555 
-0.780492 29.247414 13.459945 
9.918936 21.316885 1.152842 
13.223703 24.476439 6.518271 
9.920693 33.623501 8.280480 
-20.855671 12.502459 3.778204 
12.779716 18.940676 8.907285 
-24.023623 3.577375 -1.709962 
-5.733712 18.578793 -7.609613 
-13.056814 23.639776 11.504153 
-13.120194 25.256359 -2.288281 
-14.230305 6.441847 -4.696675 
-3.320650 30.039976 12.046945 
17.948624 -4.556704 -3.762968 
-11.439969 24.019503 9.747842 
-12.954646 17.642382 0.564096 
17.352676 2.911434 -2.879269 
26.285707 -1.257599 3.065097 
-20.034653 18.280384 -4.307736 
-25.056765 3.979409 1.650522 
-24.820675 -6.525724 12.793750 
-21.178366 12.431051 7.366717 
-23.375416 -8.483278 -1.697859 
20.447308 17.251122 3.707942 
0.207982 31.645432 14.184819 
27.344486 -4.173872 7.999309 
14.187093 9.266601 -6.867638 
21.657833 -4.364322 1.048753 
19.621244 -4.961891 0.631636 
20.554197 -8.393473 2.962393 
28.305904 3.983970 5.097599 
26.337645 12.628194 12.647407 
-11.445379 13.285609 -3.246584 
-16.597008 -2.652255 -3.280174 
27.175070 10.742204 12.238853 
18.720366 0.995746 8.201888 
-5.422380 28.115236 12.378483 
-9.205880 26.548491 5.161403 
-15.115189 11.910171 5.025642 
21.868483 -7.313512 0.163660 
21.620796 16.471136 -4.820873 
-19.192984 18.976910 -0.298847 
30.227875 -4.828979 11.914783 
23.254284 19.332897 10.142600 
20.696203 20.378485 5.666267 
-19.359011 22.725981 11.560238 
-18.634121 11.654420 -2.714371 
-19.134048 8.682493 8.665633 
16.807838 -1.516508 -0.826580 
-16.492832 19.629433 -0.847048 
-19.363430 14.077420 0.976572 
26.594799 1.932979 11.061969 
-0.725871 29.278366 2.962503 
-16.650232 3.611789 0.090325 
22.253048 -9.259047 -2.070570 
-26.535797 2.805359 9.185301 
-18.126579 24.898905 8.132771 
-3.377289 23.768784 0.265295 
-23.244270 8.481000 2.764107 
-26.436768 -10.398846 13.615479 
-18.144083 -11.899116 -0.061558 
-15.119463 2.952690 13.961805 
-11.989865 25.661392 0.054370 
-12.232174 28.765219 7.769738 
-24.293180 9.685424 -1.329149 
11.812739 25.705196 6.527755 
11.318216 19.980446 0.021902 
15.327055 18.907635 4.457197 
30.265476 3.150203 14.927706 
28.106682 -7.133734 -0.730651 
5.945932 34.327835 9.227940 
-14.954245 3.752640 14.099936 
12.893862 23.349838 -5.616599 
7.091950 29.529469 7.592955 
-18.238663 20.379044 -3.891449 
-19.470757 2.978839 3.972401 
25.324118 -9.694757 5.607909 
-2.578887 29.118898 3.135497 
20.763716 3.310461 5.119508 
-22.015385 -14.532905 5.317292 
-19.375246 8.989266 3.738101 
28.438543 -6.241827 4.618944 
-15.353149 -2.441228 -0.367557 
30.942053 -6.560874 -0.760869 
27.363390 1.459082 3.628302 
7.935445 29.781111 13.863917 
-14.846214 12.879969 2.655748 
19.795286 -0.078977 10.597504 
-17.422878 5.651566 0.454648 
-10.752733 15.060466 -2.225820 
-22.855406 -16.348852 10.578810 
24.522223 16.312967 6.148831 
-21.909630 14.260939 -6.145901 
2.775659 27.079874 -1.682821 
23.450312 17.508041 4.781349 
-0.021198 21.760241 -0.336606 
-17.880598 -10.952303 2.082924 
-15.388782 9.502851 1.248024 
-19.148767 10.875092 5.432548 
-0.713596 21.995802 0.292828 
7.088457 32.401218 6.682244 
-17.553555 2.849322 -2.874899 
14.871233 10.783264 0.549088 
29.496180 2.333636 6.805181 
-6.341177 30.631317 8.977652 
-1.058708 28.665640 -1.086212 
3.586298 28.843201 1.062759 
0.783500 32.851185 3.760538 
-8.758372 23.244305 7.202373 
-17.049425 24.579865 14.648561 
-10.740703 29.807478 6.312741 
-15.226686 1.285675 -2.144335 
-23.694754 8.824911 1.762299 
-18.503662 19.202227 7.337896 
15.142570 26.749651 8.204420 
17.555462 26.428782 13.796461 
-24.698294 9.587399 15.926738 
10.927689 28.556236 10.286518 
21.493534 21.666351 15.822373 
-23.696640 -4.469842 3.678192 
16.889450 -1.440545 1.981862 
-16.396433 2.291989 -1.748302 
-15.104118 20.307241 0.499376 
-20.914824 -12.901697 -1.828575 
30.098322 -6.962052 1.169034 
-23.350456 14.114624 10.924963 
-14.261842 24.606709 5.178296 
-5.768352 21.685089 -0.266063 
20.756706 23.667561 7.280073 
-6.911505 17.800961 -7.564560 
-16.510391 7.751002 4.373564 
19.598265 19.986126 -4.302740 
-7.450645 22.493019 0.477496 
-26.955809 -14.258582 4.777998 
20.662645 11.852037 9.993474 
6.359437 25.789478 10.552035 
-22.393459 -16.276215 1.807359 
2.476485 30.153383 13.556877 
21.641344 -4.665829 5.578053 
-25.911707 -14.774170 5.321182 
-19.192991 -12.176258 7.450696 
-10.091159 26.015900 9.800371 
-19.250896 12.128046 4.350384 
-21.410028 18.345852 7.402847 
-18.962551 14.068201 9.263934 
-15.911784 9.714394 7.762581 
-5.765158 22.279833 1.077080 
11.819503 29.610210 12.632193 
-17.206364 -8.270094 12.246847 
-15.017940 14.034990 -4.459661 
-22.959778 9.984194 -2.738686 
-3.803174 31.014431 3.588395 
-27.168024 0.774328 6.107282 
19.635883 1.680321 4.939512 
-17.791395 -2.899981 3.951942 
20.345165 -11.084232 1.993343 
-24.042774 1.169561 -2.350563 
18.756222 2.273361 -3.771044 
-20.544292 5.315178 3.257594 
-13.525180 25.450134 9.686626 
1.951276 29.747860 9.097504 
-13.110609 24.525623 8.692128 
4.384838 26.241365 6.424911 
9.865554 28.445784 4.910398 
16.863361 17.382601 7.851061 
-26.827354 2.921646 7.638870 
21.604683 7.613417 0.314192 
-19.678654 10.835393 4.584877 
-17.370523 5.006112 5.461048 
-25.513451 -7.508451 6.174469 
7.531896 26.477100 8.472679 
-22.239576 -13.677318 8.213202 
-6.916122 19.029802 -2.714788 
-5.693052 29.299595 4.425461 
-21.454313 16.995369 11.360461 
15.397382 5.335483 -4.039516 
-2.337772 26.491604 7.521474 
-22.657440 -3.550427 5.039544 
-16.698484 -7.134576 -2.756326 
-17.631481 -1.344661 10.584561 
17.605829 -3.435352 -4.057956 
16.017107 20.971237 2.482161 
-20.738117 -6.382487 7.821470 
1.614154 31.778440 9.799425 
-9.217731 30.233662 8.248525 
28.840473 -6.214756 13.100008 
16.542660 25.848969 2.312660 
-14.403235 6.168743 14.497218 
23.261629 3.916449 -3.217423 
29.404758 -1.699306 6.028858 
-25.689058 4.516940 -1.411384 
-16.550665 15.404105 4.667105 
3.674242 24.773436 10.967356 
18.692110 10.533013 -0.369822 
28.561047 -12.484057 1.679946 
12.985106 23.478588 8.798877 
-19.956820 16.866413 10.079055 
19.244970 -0.118111 4.640379 
18.009802 -3.383304 -5.998105 
16.921509 4.478271 2.221870 
21.008877 -3.510422 -2.123709 
26.293835 -3.831903 -0.347748 
15.210350 22.451721 5.524147 
19.095749 2.284749 8.858910 
-16.893593 23.719307 3.329067 
27.220894 -9.523534 -1.092875 
7.087492 20.376966 0.391619 
-27.361177 -12.861502 5.040503 
-27.162600 3.703844 13.185207 
-10.483504 28.398624 4.383172 
-22.948456 -11.473845 13.231636 
17.487782 20.019625 8.011424 
-19.275976 12.035203 -2.377968 
-2.453309 24.373112 9.742321 
-24.459848 -17.230684 0.154950 
-0.713824 31.961809 13.125066 
21.333969 11.881435 5.442168 
-27.459440 2.892568 13.355362 
22.143837 -12.116498 4.651700 
19.452396 3.921936 7.823870 
5.300646 23.013243 2.208496 
29.898109 0.832950 6.901511 
14.086241 27.249500 -2.728473 
12.270487 22.081646 7.706533 
-20.661911 -4.718854 0.680937 
8.386507 21.415524 12.201434 
9.910571 31.231325 8.754910 
-22.509340 -11.724594 4.378765 
-26.364584 -4.922431 10.264795 
16.409019 1.001564 1.270985 
-16.233517 24.829319 15.414828 
-22.846512 12.401126 0.518321 
30.458521 -8.975492 2.557116 
4.672004 31.384405 7.812236 
-14.785698 20.730434 8.636415 
8.768802 31.354919 12.400293 
4.686489 21.523825 1.853188 
27.457087 2.839159 0.343439 
15.310685 17.821144 -4.040741 
10.327623 21.035582 -3.338726 
7.810547 19.066185 0.587578 
-22.909630 -5.037816 3.663706 
-19.095531 -11.958454 -1.908265 
-21.184692 15.846083 -3.523232 
-27.029093 -11.138048 0.269796 
-20.142515 11.903094 7.894921 
-24.514555 8.006459 5.214500 
7.180858 22.463924 12.004388 
-3.417387 20.267342 -3.936500 
-24.504063 -8.962391 5.824354 
-20.033281 -9.560138 12.230319 
-26.564611 5.120876 14.347672 
-0.646055 26.580097 5.193022 
2.002380 27.291567 7.013487 
11.700870 19.997557 -0.802610 
-19.737402 15.228210 -1.438956 
-28.943676 -4.676260 11.528785 
-25.025146 -3.398816 -0.620627 
30.972887 -9.475695 -2.550042 
24.555651 17.400455 13.657372 
22.330336 -4.206662 0.636770 
-20.940947 -0.418289 3.859178 
22.932047 13.969837 8.323598 
8.940113 25.277655 5.029377 
-13.286085 24.368692 -7.082006 
14.471940 26.872816 4.462747 
17.957376 9.304293 7.283640 
-17.040699 5.843931 4.826172 
-9.107557 29.519037 12.355305 
-14.335558 21.719133 11.796956 
-23.843407 2.326761 0.215159 
-15.398670 18.194571 8.717811 
-9.712303 16.178444 -2.971584 
-17.844807 20.853682 -5.519221 
27.520523 -0.743659 3.432129 
13.082081 15.086121 2.479800 
24.415997 -14.493884 4.056181 
17.304026 6.113788 15.224068 
-26.109573 3.956807 -4.136222 
-10.743188 24.026402 -3.047099 
-6.081876 31.149509 4.648764 
-25.050785 -11.300924 -1.201983 
24.328897 6.839150 0.849747 
24.198389 -11.502691 5.451098 
23.601025 12.131752 -7.003368 
25.794619 5.991596 -0.308053 
-19.559412 -5.688720 9.387320 
23.138294 -4.898248 3.315186 
14.915327 7.002730 -3.380249 
-18.379030 -4.616456 3.979436 
14.075100 28.518286 12.632978 
-19.507895 -13.158232 7.839104 
-8.474501 20.512608 10.128059 
27.002167 5.443080 -4.316080 
15.281442 24.176460 4.893654 
20.807955 9.643618 4.435192 
-19.177235 -13.698121 10.079021 
-20.116192 6.243599 -2.022415 
23.620028 6.283842 10.900876 
-23.019737 -10.289728 5.469429 
-20.693611 -15.065928 13.582406 
23.903502 3.199437 10.917295 
21.138418 6.863689 -0.318139 
-21.852362 12.930708 0.283817 
-20.167370 12.637072 10.266970 
-12.871999 19.903873 -2.967301 
-8.232226 23.880442 6.836858 
1.289623 33.120544 6.530148 
-18.799194 -9.459069 -1.118069 
14.005793 24.250914 9.286756 
-18.552944 -11.254385 14.969109 
-18.052595 -9.196568 9.790998 
21.075081 21.809776 6.564289 
-4.832221 21.594744 13.151311 
26.697809 -7.947219 -1.557356 
1.136018 20.366531 -7.688373 
-20.604103 13.373658 4.336762 
-24.139372 -14.308147 3.182408 
21.480005 7.383248 1.195354 
-15.427772 0.718883 11.604345 
-25.148088 6.655187 -5.483684 
28.351917 5.619135 8.223088 
14.621831 7.870317 -3.592937 
11.600588 24.656738 12.218454 
10.481027 30.433260 7.835210 
22.853340 3.795422 7.241238 
-0.298595 31.391476 3.993657 
24.412199 -7.977437 -2.183980 
-6.412486 29.158285 6.157252 
-24.862427 9.867091 7.009267 
1.934648 28.365231 3.028389 
14.777694 7.940940 -2.043924 
-27.547228 -2.514109 9.153770 
-18.983450 -5.763684 2.618177 
-12.933715 27.577246 11.888176 
20.114023 -3.872004 6.483848 
28.934139 -11.538544 4.869572 
1.686031 23.766996 -0.526039 
-18.673361 -5.238008 9.884267 
22.748270 3.197719 10.801509 
-21.502903 9.839486 -3.329151 
10.181509 16.666590 -5.657261 
-16.335474 18.912457 7.361313 
-24.071669 3.822343 10.134558 
24.483099 4.442977 -2.654696 
18.750599 -2.265594 10.472041 
16.886341 4.171150 3.415243 
6.401443 26.581373 5.850884 
-7.330153 29.937923 7.142373 
-18.912800 3.322190 5.455273 
-16.460466 9.344358 3.817895 
-26.509729 -15.944395 2.224642 
-18.081938 -8.084119 1.371042 
-2.183963 29.065401 1.526760 
-10.086136 25.071360 5.390543 
24.362001 -5.001574 4.231200 
-1.464545 22.517319 0.111442 
-23.922247 -2.095013 4.741164 
-10.269101 29.582148 9.163930 
27.694387 0.524297 3.782721 
4.273567 28.060715 -0.758243 
-7.664772 24.433718 11.062409 
13.854368 24.836023 -4.608357 
-22.529646 -17.349150 2.816255 
-22.766531 -9.301805 9.095335 
-7.449165 27.725542 4.753880 
-15.866831 5.844499 9.251698 
-13.723413 24.075809 9.419113 
-20.104544 -4.025702 3.679917 
26.858894 -5.013950 -0.978161 
-19.914110 -5.962355 5.422084 
21.172459 22.153851 8.700676 
15.218036 26.682623 9.031432 
12.181356 23.712631 -1.068931 
-22.837076 -15.908196 9.101655 
9.396805 19.960365 14.106637 
-20.957603 -5.594127 1.470165 
21.265297 19.904121 8.110885 
6.037589 24.902304 0.926392 
24.061972 5.762200 3.563654 
6.313986 21.058540 0.838410 
4.171710 26.968672 12.287952 
-17.997108 -9.351760 0.053044 
29.808952 0.048443 6.548263 
26.941435 -0.941195 -1.347449 
26.020954 -13.737580 1.571878 
-16.537146 6.013495 0.967099 
-17.332989 17.943844 -4.335019 
18.732344 20.398079 -0.980533 
-8.239141 26.633114 5.326159 
-16.107864 22.606255 -5.802289 
8.816081 26.822052 5.975541 
26.913891 0.989650 4.155020 
16.862959 19.942797 -1.324220 
-15.808379 22.153790 -7.908913 
-1.657448 24.712774 9.501601 
22.727581 9.547728 8.558419 
-22.720507 14.722286 5.679306 
-28.570610 -2.962198 11.349962 
22.979965 -14.734160 -2.139920 
-4.122784 19.666731 -5.920601 
-25.999010 2.392551 0.525683 
-18.341623 -14.268276 1.715237 
-16.854719 -6.200320 12.348027 
22.556849 -11.605462 1.341635 
26.663025 9.542711 5.335481 
19.355188 22.208199 3.366382 
27.480488 -11.482055 6.123121 
-19.180519 1.134874 -3.646907 
12.442031 16.071663 1.628469 
20.961647 10.533686 10.042302 
-19.226957 19.734760 8.776333 
17.121365 6.092522 13.282001 
-14.631527 16.564260 3.599796 
-14.154094 11.769850 8.886190 
-15.850050 2.955925 -0.585331 
-20.163252 -8.836338 3.248280 
-17.030067 19.159563 7.848174 
17.671745 -2.239628 -6.076675 
12.290353 17.880615 2.289287 
-29.190569 -3.796731 14.305264 
9.589461 31.994049 10.377062 
-26.275465 -15.240185 9.965768 
9.390161 25.612204 -0.097956 
-20.022482 -10.802368 12.252229 
13.496632 11.054608 -6.991437 
3.665311 27.728279 7.619932 
-15.311756 1.971561 2.541783 
-26.480724 -0.948389 1.025440 
25.316689 8.102590 -2.239240 
8.380284 27.053619 -6.739229 
0.223697 32.469059 11.464264 
-20.825308 -1.991587 8.739022 
6.016605 33.651573 10.894017 
10.801034 25.808903 9.108806 
-10.799250 20.463060 -3.079831 
29.625990 4.226695 9.259900 
-28.820078 -7.839038 -0.493806 
-17.346024 4.198718 9.133359 
2.652023 24.836020 11.137155 
-21.257204 -1.755736 11.548151 
-21.947504 12.828107 1.992849 
-18.364643 -8.541633 9.052802 
19.785145 6.657374 3.902496 
-13.805999 20.389948 11.055422 
20.219635 15.514827 4.312369 
-10.881154 26.039192 -0.689402 
2.334924 29.177134 4.459306 
19.043793 16.136374 11.404810 
19.815046 10.241755 3.881952 
20.030441 19.185646 -3.714147 
23.328945 5.352602 6.007991 
-24.982655 8.008488 8.471292 
-17.432219 -4.760122 3.714942 
10.997666 15.652649 -3.539309 
-15.330203 22.964535 -6.944542 
16.041840 8.512578 -0.989511 
-19.786594 -6.591061 1.891973 
-23.344137 3.759027 10.709932 
29.636105 -11.252934 3.762986 
10.745564 26.206501 0.607578 
18.788250 5.311544 0.417544 
-16.374645 -4.775093 -5.072223 
21.373558 11.263716 -3.449994 
7.619946 23.110804 -2.694462 
5.863585 27.602654 -6.469996 
22.243534 18.862312 8.882357 
-11.346022 29.441780 6.785192 
-16.901348 -8.315248 -4.690895 
24.186867 -5.517053 6.394104 
-8.966756 25.490314 -0.337999 
-15.266460 21.107430 -0.923953 
-25.933662 -2.134776 -0.302709 
2.619769 24.216419 12.102956 
15.841914 3.862432 -3.063586 
-21.429274 6.553014 5.334130 
2.575608 34.461678 9.628322 
25.736151 -2.524692 0.148997 
12.203458 16.302137 -1.127183 
-13.683694 25.181517 10.667933 
-21.023794 -3.127031 -3.089834 
-15.947045 -1.064476 14.177926 
1.730953 32.652298 5.436316 
16.513559 3.589742 2.100889 
-17.731661 12.502488 8.226720 
-17.976643 9.996086 9.926578 
-19.198893 3.715226 6.362644 
10.944137 29.895519 9.355985 
17.025471 -2.241980 -0.112436 
-18.924780 -2.001945 -3.588169 
18.726452 25.959156 11.486453 
6.556666 27.873758 -1.877771 
-11.357375 21.551706 9.870160 
15.935079 26.873678 16.114952 
-14.912836 9.562410 -0.144044 
22.221869 10.870026 -3.189528 
-16.909842 22.577246 12.289589 
-19.604614 5.969012 -1.388438 
1.863993 29.853724 6.289799 
-4.129479 27.179008 5.170476 
-25.560186 -13.707983 -0.079131 
-29.044275 -12.084300 1.621416 
7.403292 19.283722 -0.909401 
15.089260 20.005926 6.233627 
-2.869959 26.437252 12.390178 
9.613969 21.655630 -0.272680 
-17.775637 10.319022 8.536586 
10.584553 30.848385 5.952816 
-18.884289 2.697431 7.247565 
-23.702816 11.216773 6.997754 
16.588497 25.491831 3.204753 
27.242636 10.187162 9.491352 
-19.879343 7.692450 5.103714 
19.523607 25.364222 11.349778 
-16.041433 18.445677 9.624949 
-16.025997 7.792867 5.563789 
-12.914434 10.309821 -4.193316 
-24.244247 -11.351353 2.360537 
22.959261 -3.711128 8.591980 
2.157756 27.984156 1.550858 
-11.209449 25.939493 4.902182 
-29.022791 -10.008324 7.216352 
-5.980540 25.091618 -3.167346 
28.957766 -0.206608 4.189815 
7.667548 33.869663 5.044017 
-17.041922 -4.052898 -2.390944 
1.681902 28.367264 3.898951 
17.142115 20.886723 1.029274 
13.178491 28.756571 14.030971 
-15.547850 17.561996 -4.368617 
-19.309507 18.607483 0.567723 
22.662313 12.780205 6.353749 
-10.951497 14.720733 14.183294 
-9.779013 28.839235 14.008223 
15.672952 24.250675 -6.592643 
25.854761 -7.958337 5.287911 
-12.941687 13.584213 1.356384 
-24.590307 7.295434 5.563727 
-11.611384 18.635748 7.982972 
-9.748903 20.719646 1.678207 
-9.990616 14.756516 -7.379105 
-25.223040 3.787741 -0.880985 
-13.580254 18.171570 8.517613 
-21.141941 -17.080948 2.962034 
-20.888182 -2.452212 11.388102 
6.909710 25.426777 -0.764630 
-18.685387 2.868949 3.542998 
19.474005 7.452155 -1.821748 
-18.548025 -9.830330 7.432638 
-15.742704 -1.311294 6.956594 
-18.781483 -1.400057 11.025736 
-25.278738 -10.216574 10.421546 
22.742607 9.740529 4.725781 
18.352478 2.174102 12.434278 
6.085652 27.282135 2.284669 
-12.222389 18.354740 1.258184 
5.804259 27.505339 0.922159 
-17.420553 9.411545 10.187986 
-14.462352 23.191889 -7.970386 
-11.236864 26.058786 12.412357 
-11.061518 21.332169 -0.709907 
19.849054 18.966812 1.961924 
-14.827445 13.800820 11.290917 
-13.677956 26.210936 7.445990 
18.405376 0.554146 2.478867 
16.479826 1.260477 -1.366755 
-2.194025 30.690519 4.769279 
-4.481579 25.217840 3.969203 
22.393970 15.127262 11.315803 
-19.938774 21.074814 15.084815 
-6.667967 24.983923 7.143072 
-15.249960 1.255178 -0.009901 
7.588657 34.228096 9.055828 
-20.365044 17.076694 -0.496325 
27.332441 5.283636 7.141428 
5.898544 27.428322 8.065794 
16.102686 13.821121 10.792895 
-18.400587 -10.154544 -0.782098 
-11.337703 13.173528 -4.097520 
15.841942 21.439646 -0.321451 
-21.833738 16.853611 16.194242 
-19.956001 11.120442 5.425890 
-25.205444 -13.783821 6.423828 
-15.036882 4.511084 10.396185 
-18.189779 -14.520844 -0.489904 
-20.524445 20.465439 13.896244 
9.772786 30.303995 13.796290 
27.482237 7.661643 8.389997 
-0.249823 31.481285 11.465802 
27.465736 4.761143 -2.797508 
27.585585 4.211795 4.116457 
-20.233713 2.116988 7.804176 
-20.892729 10.918512 -3.341694 
-21.843527 5.959473 11.281725 
-5.229083 27.838116 8.193554 
7.113716 18.989876 0.049380 
-13.513232 15.494699 5.615963 
-15.777394 -0.274224 14.090054 
15.262527 13.373047 9.310814 
14.264956 15.594358 2.811116 
11.967544 25.463839 2.555076 
-3.225146 24.853319 8.288020 
27.149784 9.269491 7.479375 
-4.771597 24.297834 8.654073 
15.657851 11.892014 2.057675 
11.528901 24.064106 4.922085 
22.678667 13.221743 10.717042 
-1.026735 21.449041 -0.815542 
-15.781583 12.800128 0.473641 
23.541162 11.690654 1.904605 
27.789314 -1.700321 0.566378 
11.189960 15.512907 -2.194313 
21.210127 -3.238063 14.779151 
16.884987 26.527647 6.636724 
0.299590 30.907425 15.714579 
-14.474592 13.597578 2.457495 
13.977899 20.536682 0.446225 
-22.654015 -8.607485 5.594907 
2.412081 33.218124 11.585357 
22.587051 3.854305 -0.541990 
-19.668331 -13.737284 13.691559 
-7.150115 30.006264 13.350826 
-8.479993 30.519876 7.419292 
-16.494055 19.479040 5.332305 
19.301012 9.432685 10.170678 
26.545208 9.723065 9.537514 
-22.111263 -16.243835 2.571768 
-22.487560 9.745436 9.405033 
24.466097 5.250304 -2.358886 
19.881765 16.977514 0.094297 
-10.288751 16.685999 -1.006078 
-17.326687 24.933609 11.046620 
10.548425 25.818521 6.443875 
-15.299891 22.761482 -1.062886 
20.682440 5.314413 10.465728 
-15.135085 3.802607 10.741923 
-25.535028 -11.658274 13.505135 
14.884973 20.796631 -2.586897 
-26.901390 0.854177 -4.397617 
-8.033907 22.604128 9.051597 
11.352297 17.583742 -0.144713 
-1.644846 22.268354 16.154325 
21.841368 2.054342 10.937741 
11.603478 21.447922 -4.410855 
-22.948246 6.551679 8.541113 
21.009445 12.040133 4.564477 
21.490572 3.647019 5.128878 
-17.432884 21.474640 3.897483 
26.056234 -7.414924 1.718478 
-25.745584 -4.043745 7.892771 
-25.005672 -6.561521 6.258019 
-11.510418 23.771105 8.721774 
-22.370565 -5.492287 0.973849 
18.661283 0.121947 -3.768150 
-29.101707 -3.845443 15.420378 
-4.111878 29.707405 16.499754 
13.457177 14.713969 12.653939 
14.936189 19.204891 9.635389 
-6.642414 23.370588 9.118613 
-6.238092 25.992115 -3.128028 
14.012273 13.260409 11.482556 
19.986059 23.969332 15.063089 
-24.074129 10.723486 -3.802141 
-16.572485 -4.034549 13.962462 
14.913446 11.630505 10.308425 
10.537320 22.098497 -0.483887 
23.613770 -3.547916 1.956100 
-13.521867 24.446449 -3.043057 
-16.914938 -3.973678 15.253481 
-7.828798 27.558859 0.810675 
-1.138360 28.358870 -1.855831 
-20.864771 3.245341 10.725507 
-12.430156 22.598888 5.380361 
20.461790 18.445166 -5.519051 
14.047633 25.108597 10.339401 
-0.330367 29.977057 6.159344 
19.003674 -5.194759 -0.074444 
29.446354 -10.649687 1.233269 
20.954397 -12.713532 -3.174057 
-13.795605 7.894284 -4.704865 
16.136520 27.409798 12.058438 
29.088614 5.900383 13.609104 
20.614462 19.870665 6.546827 
-15.393466 1.701171 -1.434315 
17.901749 7.476845 9.403234 
-25.324471 3.808312 0.883346 
29.992348 0.977265 8.385385 
-15.893111 -3.569678 3.394501 
-24.055470 3.893276 4.605733 
-26.668589 1.211212 11.005109 
19.478800 6.121881 2.562753 
20.240475 15.363943 0.105285 
10.261517 21.610250 -1.555792 
-14.153473 16.765930 -4.253187 
-16.754812 25.453259 10.717925 
5.517369 32.668652 6.840726 
-28.642405 -11.948429 -5.702581 
-5.354898 26.572275 7.067601 
-20.065075 3.152936 -3.120911 
-0.079080 27.011282 6.419719 
16.317724 18.935854 -3.926649 
-22.487024 5.281340 9.173172 
-23.365194 3.985052 7.289272 
9.086632 34.745041 5.212434 
16.775295 24.063908 11.799240 
25.843657 -12.231014 5.913808 
25.290443 8.901257 -3.238969 
24.630753 7.825522 3.376834 
3.634526 22.550377 1.356710 
-19.204956 16.918116 11.998507 
25.551979 -3.602052 4.139762 
-9.220531 23.117809 10.238338 
-21.897829 12.715518 -0.600252 
0.310258 26.127060 -1.410929 
30.590820 -5.229632 -0.778853 
1.332676 33.281704 5.715277 
-9.480484 18.002478 12.323528 
-23.986273 3.592247 3.395638 
0.730379 23.036247 14.566808 
-19.146194 -11.232707 2.834581 
-15.432315 21.216322 -0.038815 
7.160085 26.726940 9.897653 
-26.305849 3.544723 6.128932 
-18.030279 -8.736622 10.838470 
-17.710373 16.083206 -4.557139 
27.749159 -12.960954 1.368340 
-19.286350 18.603266 -6.791331 
8.043946 32.085205 6.296504 
-12.902123 27.480015 10.729799 
-10.404815 22.112211 -0.294968 
18.523365 17.187141 4.489800 
5.259484 19.521538 -1.655052 
18.289490 5.863804 9.865936 
-24.007792 -4.786235 10.020712 
22.046194 -2.873448 10.845562 
-15.709076 -1.250955 8.026517 
-15.817042 -3.084828 11.312109 
15.354712 6.303952 -2.271048 
29.274578 5.096391 15.022655 
-16.825125 16.264729 -4.704762 
12.065199 18.822659 2.413130 
-26.799471 4.129932 10.234065 
-23.711269 -4.286042 -1.683120 
9.380063 27.969833 8.567677 
22.361864 21.349548 12.298390 
22.914320 15.039168 9.092752 
1.665343 30.910364 10.657554 
22.787464 -8.060554 3.418853 
-1.821637 25.396570 3.328432 
4.206907 20.723400 0.065546 
21.426973 12.767917 7.385722 
22.375729 -6.593719 -2.172631 
-23.675377 -10.134320 -1.834018 
-21.454987 -5.600613 -0.636758 
21.236534 17.581770 3.238845 
-15.908813 6.551611 9.751036 
20.226147 9.964325 10.430399 
17.862473 12.306521 0.391427 
18.992485 25.803595 8.575885 
-25.463491 -13.578804 12.966567 
-7.458516 25.116339 -0.449779 
5.620839 28.143921 2.726774 
7.116603 30.204777 13.232507 
-5.882981 30.103310 4.039375 
13.170648 19.309778 0.776735 
19.002306 -0.249147 12.754318 
13.651766 14.088578 15.607728 
24.902050 -7.323649 -2.095584 
-11.376260 25.999495 -4.380497 
22.066261 6.648396 5.026489 
30.509043 -11.125780 2.565186 
19.852455 6.236037 10.835690 
-16.714495 17.385296 11.506209 
24.789503 -5.259809 8.684777 
6.920821 27.405565 12.998419 
19.758236 -0.580486 2.426879 
20.557373 0.323254 -3.902454 
-27.686920 -2.546912 -2.217851 
-8.763710 27.081299 -4.024615 
26.012417 -1.904154 -1.828191 
-24.727787 10.633063 13.765240 
23.366129 -8.627386 3.157361 
-28.819088 -7.970016 -1.557829 
8.860637 24.403740 0.021143 
-27.477865 3.040550 12.355535 
-26.343252 2.398581 4.756871 
-15.509785 14.631635 -4.628424 
-16.389696 19.772526 -0.069715 
-23.061846 -0.021004 11.697091 
26.846991 11.441300 12.012426 
-3.702264 19.558163 -7.663073 
20.669296 14.534807 4.740263 
-2.547104 28.506771 13.488984 
24.829969 -1.591988 4.160249 
29.648874 0.924309 10.262837 
1.842698 33.776249 6.853201 
-19.168949 13.789797 11.837518 
21.911497 5.507469 -2.925731 
-15.964893 6.849717 5.864575 
16.899017 26.505774 7.584465 
-19.643812 6.460899 3.570477 
-24.804472 -5.894452 3.458099 
-28.027880 -14.485755 -1.882258 
-20.365122 12.564915 4.714341 
26.300674 6.591002 -2.401436 
-18.639809 19.085295 -7.720374 
-20.570673 10.948039 4.744907 
-26.268970 0.746627 1.398661 
-24.744486 -17.096640 -1.363660 
16.285637 19.343596 7.512504 
-5.840316 27.307249 -1.122142 
-19.520845 -9.813381 5.758530 
-28.642120 -13.199011 -3.817373 
15.247168 12.604959 8.401327 
4.094669 27.972513 8.425599 
-15.387129 21.737026 -1.393209 
15.091571 23.275219 8.430741 
-28.490719 -8.644592 13.236175 
-23.840126 -5.504820 1.077406 
-13.963115 14.888787 3.860214 
-5.694517 31.576653 9.268646 
13.537659 15.418527 -3.440633 
-20.105345 13.084941 3.318345 
-25.664371 -5.769691 8.798619 
-16.526146 17.561890 7.631772 
-17.087524 3.706317 7.339846 
12.072773 18.415121 0.103248 
-27.988382 -1.292217 9.538520 
28.032263 -13.021087 2.878514 
29.319847 -2.305371 -6.002910 
15.187651 19.103186 6.770534 
-25.523394 2.314550 -1.189936 
-20.456398 -12.586322 12.156570 
-0.275357 29.213854 9.248507 
-26.423002 2.956363 -4.234725 
-2.283851 26.815243 -2.681553 
22.345573 -4.970780 14.691260 
21.155008 -3.807817 -1.398829 
17.936111 21.585505 11.700648 
17.816950 26.336628 11.022470 
-20.813904 18.630537 9.138137 
-18.707628 4.471611 -1.428174 
-20.482695 -15.082680 12.463625 
23.508938 10.586658 10.873048 
-24.124960 10.271796 9.573176 
-12.431609 26.626530 16.480492 
-22.693186 2.208495 11.298781 
-20.700016 7.324189 5.291451 
-12.061113 27.620785 10.704469 
-14.610144 8.556055 -1.169931 
-1.675172 29.511971 10.904483 
22.748947 5.945237 10.849170 
-23.289650 -2.200151 -2.581321 
-3.994873 21.150587 -0.669830 
-18.981264 19.274797 5.647375 
-21.384895 -13.561048 6.487224 
15.365598 9.462770 1.712344 
25.817102 9.506927 3.738597 
20.444382 13.930526 5.236665 
-5.011621 21.313822 0.104753 
7.553221 18.286398 -7.510917 
9.719819 24.020382 11.081406 
6.647003 25.381609 9.331154 
17.573942 8.249110 7.230151 
-2.374813 27.118063 12.889387 
29.795118 -11.541912 2.361863 
13.686194 21.344831 -4.737250 
-14.669868 26.692286 7.453556 
-17.689249 0.363086 -3.670999 
18.640841 -2.580382 -2.631462 
27.394192 1.923434 8.574373 
24.832596 2.219005 8.280947 
18.197800 21.594601 9.090072 
3.774459 20.440102 -1.408588 
-6.749539 22.089756 0.503435 
19.329281 8.121719 8.540110 
16.884825 23.822157 3.498540 
27.275436 1.979693 2.006870 
-19.252169 7.450021 4.165409 
-8.410913 27.050379 9.618714 
-14.223599 18.737139 9.982120 
-26.395712 4.955061 15.754487 
-23.384710 5.517248 7.046166 
-12.546777 19.529848 3.068902 
-11.649774 15.300958 0.018979 
20.483027 -0.261182 2.642063 
-12.706058 25.475725 -4.299666 
25.928450 -14.965084 -3.117054 
-14.942579 19.075693 5.791845 
6.679343 22.230320 -2.380203 
-27.609383 1.953352 14.532468 
-10.954592 25.616484 1.963633 
18.395893 15.617811 -1.861437 
28.466890 4.379632 6.415228 
15.280367 6.078408 -6.647715 
31.085503 -9.476693 -0.249573 
30.122215 -11.995361 -1.755540 
18.357908 20.622026 4.728862 
12.316381 22.867481 9.377696 
-27.828739 1.337947 10.383029 
-17.854393 22.553625 12.190935 
-18.693808 2.950050 -3.258337 
-17.012598 -6.147957 13.657240 
-16.670902 -7.147642 -3.717645 
-12.089362 22.772717 -3.759810 
-20.782791 16.463007 -2.211836 
7.074463 25.805117 1.019306 
-19.184675 22.785229 13.535086 
-21.250559 -13.380162 12.226313 
19.037807 25.588112 7.099986 
-7.769621 19.662189 12.617184 
16.155510 12.606897 2.749326 
-11.559850 22.094170 6.812603 
-15.746781 -2.121203 -1.698164 
19.188950 17.124228 3.755340 
19.104988 12.005152 10.737602 
-12.057432 22.352831 -1.605792 
28.262226 2.871632 10.479502 
-24.399397 -6.559289 2.312348 
16.636896 26.414160 5.150408 
-29.395090 -8.589368 7.948827 
16.608204 -1.064846 -0.119639 
-20.948765 16.648483 2.998222 
17.860914 6.510220 9.058420 
1.663178 23.707430 13.036590 
-20.080200 21.228436 13.944256 
-17.943846 -13.004543 -3.835474 
-11.815344 15.420705 10.195622 
-25.366499 -13.009542 6.697874 
8.411163 27.375156 8.161846 
-27.561262 -8.783888 13.412073 
8.469150 25.048010 10.900040 
-7.200774 23.026842 -2.216575 
-12.940887 14.244225 7.476957 
24.290922 -13.478200 4.059576 
11.303797 24.172581 1.396823 
-28.914181 -9.330714 -2.869252 
-13.253692 13.348829 -1.201483 
21.694643 -2.374694 3.367129 
18.442772 14.669861 2.556196 
-2.793356 28.065845 -1.116352 
-21.996872 -12.440104 5.026484 
-16.678251 -4.754247 -0.628231 
19.523102 20.621590 5.061134 
22.906595 -6.410696 11.353294 
-6.156845 27.707716 6.224497 
-22.043003 7.448504 -2.609044 
-20.758696 -5.901442 10.146515 
-16.158363 5.750301 0.160043 
12.998221 26.133039 -5.833596 
19.771122 19.271799 6.348724 
-3.863559 25.005219 2.958568 
12.753546 25.865646 -5.069133 
19.884205 17.569613 8.370662 
-24.632076 -16.394253 12.434216 
-1.278996 27.501566 -0.896649 
-8.974048 28.027575 10.391047 
-7.278611 19.088934 -1.937895 
-27.102703 2.216007 8.810337 
26.944418 -4.278284 6.676080 
7.556812 27.356880 -1.603181 
-17.469559 17.089294 4.946076 
29.468390 -2.109814 -1.891586 
8.574052 33.523445 10.226623 
26.953491 -1.046767 -0.522287 
-9.808447 25.848602 3.609617 
-16.577816 17.495108 4.807744 
0.193265 26.453350 5.624822 
10.940577 22.914228 -4.756486 
-10.265735 23.517122 10.693276 
3.684610 22.302713 2.180622 
21.775103 6.961927 8.579084 
-20.652004 16.432613 -6.529359 
20.899540 18.466246 9.704096 
7.426970 25.241302 -1.853398 
-7.653220 30.367352 4.874180 
21.110842 -2.739540 -3.134739 
-11.263383 19.739058 1.820279 
-27.374630 2.744930 14.459044 
19.848606 -1.210512 10.577313 
-24.800877 7.788683 -2.552287 
29.638012 -1.144829 6.813480 
24.301838 14.205366 8.629148 
22.310198 15.812430 2.442935 
-21.470287 -17.489367 0.698031 
-11.522833 24.766169 11.510877 
-17.321705 -4.345457 8.197445 
-29.058241 -11.984200 -1.290933 
14.853121 28.163486 12.248726 
4.679771 28.528193 -3.046834 
19.191746 11.942009 5.021636 
17.240650 -2.299461 -4.360066 
-0.130847 31.382330 10.525066 
22.201212 12.346693 3.326698 
-29.568935 -11.258120 9.042365 
-20.233671 -15.002489 10.628591 
-18.115532 4.501955 10.204910 
-16.174788 15.808205 -4.748654 
-19.582197 -6.747330 9.132565 
-24.841768 4.665757 5.691801 
-13.159447 25.284456 1.210839 
-23.040949 -12.403164 13.060602 
20.108438 6.331379 3.183597 
19.954535 -3.008863 5.234564 
16.883413 7.911258 9.135187 
21.504477 9.492249 -3.176204 
-22.075970 -9.680638 13.075033 
-18.850220 22.489498 15.330093 
1.876054 27.832586 8.502568 
-24.235022 -11.350964 -1.576666 
4.808794 22.350313 -1.141466 
-18.176098 24.089870 6.123837 
-15.279752 2.351656 1.572470 
18.691172 20.691702 8.604310 
-24.206835 -17.285656 1.387837 
-22.957302 -5.198268 0.464394 
1.801194 26.561388 2.102031 
23.985710 11.280044 -6.944065 
-10.336419 27.970156 5.047272 
-17.262348 18.616419 3.931628 
22.458364 20.540094 10.406717 
-26.064663 4.154010 -3.082744 
24.751587 16.090124 6.950944 
-23.200037 7.634578 4.346726 
18.537182 1.510687 11.341326 
10.019745 24.932377 8.316264 
11.015501 16.170193 -1.755808 
24.391850 -6.522170 4.228266 
-5.080889 27.482302 0.945079 
15.283038 7.136438 -1.160492 
-15.710207 11.086654 7.999642 
27.607037 -3.639747 5.406655 
-19.323334 7.690947 8.962661 
-20.080980 -15.053566 4.429203 
-15.368665 0.485602 -5.485792 
-17.854372 23.354382 11.934900 
-16.437147 18.291174 8.190495 
29.699438 -5.241876 2.659567 
-8.423938 21.071997 0.275048 
26.322063 7.091030 7.359077 
-12.491506 14.200546 8.171959 
-21.446562 -0.509248 4.722852 
5.526862 24.080326 0.451892 
0.918766 26.547892 5.902329 
-15.714954 -4.074059 1.036436 
24.210436 4.090465 10.621309 
-14.724217 16.000769 11.170035 
13.344472 22.983534 9.648048 
-18.476360 -5.267546 3.237732 
-16.419920 26.484221 7.153663 
-23.553446 -1.310096 4.833341 
5.612994 28.323406 -2.036484 
-4.776858 32.341785 7.188169 
23.451532 -11.254341 -1.472073 
-20.128057 4.049641 8.691442 
29.089840 -10.222635 0.606811 
-3.895501 32.445877 7.171410 
24.355354 -11.310833 -1.371364 
-8.668039 27.884377 6.041224 
-1.775517 32.142227 3.717167 
-13.877300 17.830780 2.808492 
-20.767723 13.504542 11.193990 
10.075727 31.845535 8.170830 
-23.813799 6.344565 9.149733 
1.848146 33.949650 8.525672 
-14.482975 6.660717 -3.003884 
0.271368 28.712963 11.618303 
-12.959547 21.176544 4.278535 
19.360025 -3.207149 3.363804 
-20.676464 7.365971 4.335894 
-19.968203 21.111904 11.162463 
-20.068079 -6.174497 7.175972 
-1.478529 32.883709 3.828526 
-10.826259 19.500429 -0.057085 
16.825188 16.510880 7.278503 
15.838766 21.717878 0.906772 
-3.160825 26.756958 -2.218411 
-29.618145 -8.466380 10.156729 
12.124856 15.873501 -0.148696 
17.885761 7.053343 5.600574 
24.422232 17.234571 14.573306 
17.590822 18.332355 8.965183 
16.663902 4.246930 -0.322084 
7.517573 32.791245 12.160880 
-20.363947 10.131474 11.505583 
19.137436 9.223389 2.861741 
30.783766 -10.830903 -0.862978 
16.622375 20.588240 3.126736 
-14.331699 17.246462 -3.590194 
-5.221336 26.353024 5.594085 
19.883720 24.440735 5.555899 
24.421749 10.258278 8.567388 
-22.253405 -3.060286 0.398801 
23.200993 9.015088 1.464615 
-18.263321 12.212722 5.114859 
-23.255556 10.297727 4.075596 
13.849068 22.120430 -0.713804 
-16.432043 -5.014085 1.368781 
26.563816 2.243805 -2.054411 
21.073540 4.699620 6.555602 
-12.616179 26.993565 15.366806 
7.300793 21.743322 0.420350 
26.753908 -6.948092 11.934011 
8.675241 26.688377 10.268159 
26.162117 -13.643677 4.931167 
-26.318125 -2.885791 5.142478 
9.814466 24.946173 1.501091 
0.529909 27.091537 0.296849 
23.390966 11.057754 4.068695 
-18.218332 15.781533 4.729369 
7.380135 25.763645 0.086189 
-29.461422 -5.821270 15.342081 
23.016239 2.466360 3.964670 
9.566588 31.219765 10.554297 
11.076507 29.609497 14.574152 
15.189946 27.215622 3.923702 
-8.501977 21.932562 1.300401 
-24.187233 -12.696026 7.221016 
-27.701277 -8.325774 5.774376 
-16.378380 16.750605 8.056288 
12.832965 29.370192 9.511027 
-15.589755 12.858050 11.297220 
-19.950178 -1.979962 3.119289 
-11.609618 26.503216 10.142516 
1.395126 25.000166 2.514918 
-20.606638 5.025697 5.617560 
-28.263857 -5.705236 -1.437827 
28.144241 -8.465998 5.691385 
24.524414 -15.083697 -3.266245 
25.270491 -4.054274 10.539854 
13.285059 21.320194 9.658601 
30.446476 -0.899906 8.186477 
26.634779 -7.511164 5.741136 
-15.464632 -3.470837 1.990675 
-22.305162 13.525765 -6.082419 
-2.953145 23.093061 0.379420 
21.442163 19.286800 6.684265 
22.804611 20.565960 13.287986 
-10.452649 23.604694 7.081556 
-18.416100 -3.994843 -0.688223 
-16.339500 10.630454 -1.089052 
-25.029221 -15.835639 3.107594 
-8.806774 22.096157 2.249763 
19.366241 15.834726 1.257979 
19.471437 10.580897 8.020996 
19.481731 8.977068 -3.410607 
-27.844809 1.113069 14.599715 
24.084629 3.145123 -3.141770 
-3.919334 24.598797 8.709548 
5.763577 18.926023 -3.300693 
24.882652 9.714667 -2.761605 
-15.494481 2.153799 15.492255 
-16.030964 11.134305 6.565977 
16.203691 24.980680 11.525602 
-14.029975 21.905836 -3.533816 
15.956773 9.688429 -1.780228 
10.939780 26.196348 2.074516 
15.975024 19.894178 5.970488 
-17.022039 13.244515 3.191634 
20.451540 -3.240605 0.096309 
27.810068 8.336405 15.178273 
21.415625 -12.627728 -5.359014 
20.733776 7.990483 11.432640 
10.273250 26.189785 -1.001793 
-19.341223 -3.489388 3.532461 
-23.364817 9.507267 3.754941 
15.548588 6.401066 -1.492534 
9.410746 29.720449 5.207136 
-19.350248 -3.847971 8.219935 
16.208593 9.118547 10.392796 
23.719910 6.111960 7.232056 
-21.786755 10.682287 -3.162507 
21.421751 7.920670 8.837818 
10.463259 24.048895 -3.825034 
0.806145 24.588888 11.003411 
-21.533833 -12.614496 12.579318 
-19.108707 13.766226 1.995105 
-16.188360 -0.876768 5.152641 
-4.618599 31.598356 10.709720 
-1.972265 22.513861 -0.498470 
-25.258528 -5.759202 2.737813 
21.438417 -5.110342 -0.380671 
-24.762207 9.893282 9.261827 
-8.207287 22.174711 8.101256 
17.587244 4.473910 11.932576 
-8.102505 23.844742 -2.258690 
9.888712 26.397131 12.572666 
-29.067713 -5.504122 11.340827 
-5.644102 27.297728 11.726122 
-13.304748 19.315582 2.948787 
20.788315 -4.373682 1.638928 
-18.673569 20.728979 6.391182 
23.282719 3.430103 4.543618 
-29.286947 -7.892255 11.901535 
21.213223 6.653368 4.747977 
-26.800854 1.160186 -0.309926 
-10.992319 21.400381 7.326786 
-23.499279 3.449296 4.101659 
-23.899347 -12.275927 13.246943 
29.808220 -9.121337 4.284253 
31.253853 -3.176739 10.943379 
11.604258 17.557703 14.444002 
19.292044 -2.065147 12.298537 
23.178486 9.780337 -1.382996 
21.386854 13.066083 -3.041532 
5.307582 24.148190 1.930139 
-20.601025 7.551278 0.034645 
-10.927765 27.377186 16.492121 
28.040573 2.377337 -5.186987 
-6.278267 20.797234 -0.435939 
24.712215 10.630136 -3.942511 
-25.536974 8.321229 13.835176 
-22.543545 15.345798 16.140263 
-22.364862 6.422400 5.238693 
18.348078 7.035847 -0.637665 
-25.411804 -7.927721 5.201272 
-6.379801 29.900513 9.298039 
18.220778 26.099970 13.050215 
29.202497 -1.390943 9.263865 
22.255781 -10.267489 3.976713 
27.113359 9.369498 8.511868 
-3.258155 30.479023 4.644761 
-5.831305 28.082802 -1.593802 
-20.131727 -13.632200 8.042150 
-2.495879 23.583080 2.027465 
-8.209735 28.469349 9.728419 
21.037241 -4.720709 8.251851 
-20.046896 18.102684 3.733284 
-28.577463 -10.712366 -5.784935 
-22.687370 -14.493561 10.725205 
6.984164 25.071026 1.703828 
-19.740120 14.645408 0.333403 
11.804220 14.037920 -3.864637 
-16.493084 14.731202 4.242558 
-15.537504 25.250429 4.044137 
18.685846 15.214381 3.181541 
-13.397746 10.154663 11.452619 
-9.447007 22.697527 8.472241 
-14.103012 26.214874 15.248470 
-14.795816 18.484777 -1.651808 
13.359633 28.855291 10.558949 
30.262180 -4.840248 1.160387 
-4.255263 26.677666 1.848376 
1.472831 33.121651 4.860263 
14.567046 28.446566 9.463626 
-22.964918 9.308535 11.730214 
15.498437 15.939402 2.890102 
18.532885 1.538698 2.691233 
24.541321 7.996993 11.331944 
-21.581671 6.324767 0.165003 
25.350363 -7.408499 14.548958 
23.811264 -13.822614 1.076597 
15.584620 19.954880 7.691886 
0.997173 26.106091 3.216540 
-14.901031 19.802143 5.422143 
-22.037912 17.023127 15.207767 
-24.069559 7.629023 -0.565596 
23.062090 7.018782 0.197726 
25.601397 8.647977 3.639170 
-17.046631 -7.233630 12.292132 
-18.437693 3.167119 9.336929 
-17.785055 20.679199 -6.629313 
21.110956 -13.289817 1.907131 
27.949591 -2.328986 10.547173 
28.224201 -3.100959 5.028627 
16.208138 17.993826 -4.051989 
21.085587 5.301646 -3.095040 
-5.949157 25.522345 -0.179598 
-23.324596 -16.468214 13.465254 
-6.738492 21.421385 10.246755 
-0.868450 27.308510 6.490066 
-25.243608 -9.707121 13.618622 
16.916752 24.972513 -0.293152 
28.464226 1.222742 -4.966825 
25.881235 -3.284987 1.310178 
-27.343872 -12.277205 5.704272 
14.238793 18.865696 -0.094942 
17.044291 -2.428561 -3.030205 
-13.292816 12.982549 6.577677 
15.065987 15.151385 2.769595 
-15.240047 22.053938 12.096266 
10.843950 19.784847 -2.396840 
10.537313 30.813786 4.996469 
14.111032 12.810345 0.588702 
-23.195360 4.909168 -1.494590 
-19.415667 18.436573 10.214044 
5.405172 31.802446 14.273743 
-19.084917 4.049417 9.159300 
-10.866150 14.591276 15.953787 
18.489313 16.077488 8.325618 
1.293302 26.185619 1.458784 
-14.533652 23.365412 9.726509 
9.501258 27.428215 11.464496 
20.452774 -3.498309 12.811039 
1.404048 28.832060 1.473972 
0.533380 27.268015 8.511051 
12.294445 20.192034 -3.582484 
-26.446634 -11.508029 13.511699 
-28.013102 -13.871338 8.337959 
-19.941130 16.381964 3.264148 
-15.856528 7.708482 6.779974 
-18.080738 -11.833730 2.168227 
-8.309824 25.084085 3.254191 
23.122559 4.575158 9.556682 
-27.848616 -4.938176 -6.167113 
17.989855 25.455099 16.028084 
27.333124 -0.224047 -0.897093 
-18.513832 9.375211 3.297879 
14.335903 21.603775 10.609496 
-21.651627 4.280612 4.136854 
10.973882 25.422239 7.106247 
-13.352398 27.096029 10.053920 
17.672310 10.300787 3.122947 
-13.806564 8.111620 15.720350 
-1.474063 20.882055 -2.326606 
19.462334 0.724763 14.968911 
26.894966 8.201314 8.311395 
23.833706 6.540474 -1.311607 
-27.331320 -2.699790 -0.434500 
28.829426 3.536829 5.807440 
-5.213430 32.673214 4.872995 
-20.906467 16.609980 -3.309951 
23.016241 -1.027615 11.300058 
-15.577373 1.921626 -0.505015 
18.843246 -0.947824 5.626939 
-17.875425 -12.953084 -0.530624 
-21.891768 -13.062727 5.547355 
0.147622 27.145815 7.795976 
25.496984 11.806025 6.385022 
-24.286657 -5.307912 12.065860 
-16.311810 3.463967 8.145626 
-19.994373 -7.792554 0.620958 
23.330593 -13.522033 4.001212 
20.161640 4.708120 6.860776 
-16.645924 6.832352 4.419588 
19.926739 19.094025 7.284295 
-4.757705 28.177061 0.545335 
-6.711811 27.836653 3.081869 
-2.033754 25.104403 0.522602 
17.778683 7.530288 2.915372 
18.946959 -1.465572 10.205255 
27.900076 -8.330690 -0.881245 
24.890583 6.240437 -1.195816 
-26.462267 3.154027 -3.242734 
-17.663921 20.400064 11.503204 
3.057735 35.819088 4.990576 
-8.273777 30.216053 4.289097 
-17.909248 11.844111 11.068126 
16.694849 25.359783 -1.206866 
18.512478 20.338074 -1.771028 
20.251320 13.755920 4.308817 
-13.592688 10.086764 -2.058567 
28.784151 -6.983905 -0.189526 
-15.165442 26.241756 10.745292 
22.174818 10.615163 -0.954233 
23.211346 8.631594 8.804642 
-28.776628 -13.460748 11.801728 
-22.181133 12.430027 7.689908 
-15.483718 25.888515 10.032308 
28.801167 -13.264897 1.448686 
