9.496920 25.613478 8.500021 
18.897402 9.785717 7.084100 
17.122328 14.300821 10.794916 
-17.303028 15.604865 -3.599159 
25.857140 -12.018239 -5.207620 
23.410318 12.460857 5.079040 
-12.747134 14.747676 -3.201257 
17.197918 12.217579 -4.062375 
-13.532627 13.713037 11.964603 
4.678222 28.085882 7.564789 
-0.541294 21.798828 -1.459577 
33.173828 -8.627772 14.963817 
-16.722597 20.899895 2.258392 
9.821442 30.545397 5.950953 
22.690258 -12.501927 11.047205 
17.460636 27.551659 4.839200 
21.817978 1.276527 -0.911740 
-16.783472 4.013476 1.970682 
-3.753039 24.551933 -0.430624 
0.322306 31.128559 16.028694 
-23.341169 12.873556 9.167727 
-12.552387 25.735636 0.461217 
-28.363979 -10.822173 7.303039 
23.051933 -12.023086 5.021884 
-15.906260 13.317995 0.529922 
28.040222 -3.528539 7.420341 
-25.266790 -14.007107 2.484900 
-18.264723 -7.272040 0.811717 
-9.624328 24.707821 12.755579 
30.712786 -0.094964 5.838234 
-27.007658 -7.397960 -1.650292 
-4.252720 22.526438 -0.305573 
9.057123 27.086163 4.096946 
-15.151427 4.645866 -1.069446 
-19.216850 17.686884 -2.186439 
2.452386 27.533384 -0.337084 
11.588223 18.395605 -1.459137 
-16.708311 7.219761 0.405596 
30.153130 -13.274716 9.832442 
-26.057913 3.452150 -3.473620 
14.819796 20.403017 2.779887 
-16.741388 14.977180 0.931880 
8.017859 33.475410 3.698084 
-21.454967 -3.605511 5.290148 
-19.011061 -3.357850 -0.407759 
7.230947 27.601837 12.085557 
-29.004259 -0.801098 13.288239 
26.545649 9.237868 7.253710 
-15.222735 16.229334 9.783562 
-19.024813 8.134140 -1.226855 
16.339264 27.097704 5.408227 
23.869387 -12.377139 -2.675358 
-20.378511 13.735723 9.491049 
-28.761284 -8.431190 2.072020 
-13.550977 21.641062 9.993733 
18.994753 18.007465 -4.997221 
0.596304 33.253193 3.231908 
24.702887 3.203583 -3.792757 
-13.673136 8.713199 15.620885 
-24.108469 -10.437107 4.629577 
-20.318565 5.281160 -0.224364 
-12.498954 20.667406 12.183594 
-6.593196 25.920210 9.387831 
20.559591 -2.206110 7.783279 
-19.874962 14.702101 5.592134 
-15.197819 13.028383 9.218364 
-28.088739 -13.217079 -1.095367 
-12.180296 25.596407 -1.821730 
32.538006 -4.204945 14.182682 
15.760686 22.358458 -0.792562 
19.824306 9.605556 -0.297013 
-28.805149 -9.232819 2.353142 
23.939526 19.786150 14.515644 
24.279417 0.481638 8.911138 
24.521713 11.267187 8.751357 
19.380974 16.450369 -1.872129 
-28.766438 0.097151 14.366113 
19.400322 11.764853 7.621294 
22.340757 -0.004312 -0.270741 
29.687456 5.241012 10.731019 
-20.978130 -11.283877 -2.302035 
-26.972162 -11.513106 7.588017 
-17.479261 5.810814 -1.207152 
-11.966600 27.229971 10.070361 
5.890384 30.376104 13.156535 
14.307638 16.442608 2.140022 
20.675148 3.175679 5.283373 
17.863100 13.209318 -0.297805 
-15.339964 4.880347 1.601008 
-28.077515 -10.995650 8.047484 
-16.813557 -2.572455 4.576003 
8.376591 32.011108 12.396461 
-0.507297 31.824238 14.098216 
22.369463 -11.136634 8.478336 
15.384948 27.036669 11.992276 
12.572581 30.835333 6.357747 
-0.622658 32.821243 11.599852 
-17.795900 15.244905 9.477461 
25.966591 -7.058061 4.860635 
-18.088264 14.693722 8.609631 
30.339146 4.095273 14.072001 
18.252392 11.756152 7.285593 
22.246243 2.772873 11.265665 
28.540014 -7.576271 5.534195 
-13.408613 22.150164 5.388271 
8.895936 31.365406 5.534825 
-17.418324 8.363661 -2.934257 
0.870059 31.148857 11.740574 
19.311262 12.593603 7.780595 
-11.893740 17.445324 6.595139 
22.581629 7.745015 -2.541805 
19.594538 9.245800 10.030522 
8.003613 26.655056 10.881043 
20.857082 20.189116 11.258543 
19.625494 9.055340 -3.110723 
-17.854044 0.760107 -3.495857 
29.231636 -2.656355 3.582474 
-27.963850 -9.341939 5.176380 
-26.940126 -8.382092 0.280220 
23.786985 -4.162959 3.531471 
-1.697322 26.404722 9.325927 
20.428442 6.185864 2.744504 
-24.637012 -14.568609 3.843887 
22.804926 -3.768850 -1.105374 
20.851833 19.396339 3.464116 
-20.949306 0.145349 3.488233 
19.010624 13.768402 2.940040 
-4.296357 27.358540 -0.578393 
29.347784 -4.363006 12.214597 
-9.564818 28.397299 11.033575 
-12.869050 16.665070 3.907157 
1.770106 26.476429 -1.488111 
-6.303920 30.973940 5.580371 
20.792564 19.757395 -1.967641 
29.648451 -3.971225 7.830433 
-15.576276 21.559248 -6.753586 
-13.747323 10.212894 10.776576 
27.134577 -6.823936 -2.396560 
5.828892 26.372696 5.837543 
-0.679508 23.140358 -2.680963 
-22.272699 -4.060915 2.216856 
8.956068 33.974411 8.831676 
7.986722 26.231346 9.152970 
-10.498875 24.223764 -3.796138 
12.389759 23.543276 9.079995 
11.627755 29.258444 10.189309 
-5.278481 23.262379 -1.603916 
-28.419910 -0.832176 10.386351 
-27.333794 -5.333978 2.642496 
-16.368412 7.012484 1.998932 
-6.861058 21.816444 -0.975794 
15.383635 12.274965 -2.536721 
15.379331 18.798159 4.096987 
-18.788958 0.625107 3.782535 
-24.502071 -3.465481 2.222724 
17.045794 25.863688 9.353245 
-12.992600 26.693027 11.189447 
-18.797686 -7.324582 -0.241197 
22.274805 0.527889 11.567802 
18.232983 9.351109 4.284024 
-27.626358 -9.538264 -1.316684 
-25.372040 0.737224 8.831789 
-17.310463 -5.399157 -3.396712 
-8.564518 22.983438 11.739378 
-24.540642 -1.990949 5.889473 
-22.868832 -2.766143 -0.989820 
17.635427 -0.198933 -4.325692 
3.379685 33.112488 4.852062 
-20.937183 16.495096 7.509329 
8.610168 34.152500 7.897362 
-21.016010 2.728649 -3.735824 
-19.054293 -4.051991 2.261266 
-15.395936 15.975805 13.170512 
-12.756400 13.691603 8.672230 
-19.446280 -7.485789 -1.635513 
-2.262784 33.238003 3.578515 
-21.201643 -4.207817 4.602521 
-20.305552 6.945560 -0.954373 
29.380869 -9.131383 13.719974 
13.563590 8.932666 0.186334 
-3.051913 27.972448 -0.512247 
14.136345 7.805235 -2.630274 
-28.206024 -7.786230 3.803170 
-18.919056 -5.483076 3.809497 
-1.189910 24.728233 -3.984813 
-0.527862 33.992886 8.312394 
26.560692 11.521705 8.799359 
-18.678036 16.947784 2.934719 
-1.272141 25.048943 9.764121 
0.320852 28.173948 0.603940 
23.782074 -13.700171 10.872942 
13.795286 17.205168 -1.385646 
-16.677015 3.205982 2.098046 
16.766464 2.122037 1.989872 
-11.530714 23.767937 -4.002862 
-4.936734 28.742809 4.632723 
-21.784191 -4.342879 3.797271 
17.205328 11.991307 8.116102 
-21.135765 16.758638 11.595720 
-23.155888 -10.459311 11.753302 
-19.255346 -10.205531 12.979866 
13.666015 23.793402 7.641622 
17.891485 -0.197100 4.517796 
-20.121275 6.524052 7.472359 
27.499617 -3.992828 7.819386 
17.547884 -0.217155 -2.298653 
25.299892 9.965094 2.395797 
15.446429 19.463154 9.667272 
26.413700 1.149266 3.680475 
-26.909647 -6.680057 4.737010 
26.408459 8.956335 4.989365 
-21.076002 -12.600524 -1.841287 
-23.188595 12.979420 13.913264 
25.143423 17.626461 10.313970 
13.452647 24.058136 10.636928 
-4.485531 23.699133 4.051764 
30.879032 2.538440 14.276459 
24.866114 1.413924 4.717889 
28.284674 -2.700377 2.418550 
-22.878702 -14.149832 -1.091584 
12.653573 30.343008 12.607959 
0.793855 33.439793 7.960668 
-15.862555 21.294842 7.117790 
-28.008591 -6.554792 3.192463 
-16.275785 11.932570 6.510575 
-26.523445 -4.751765 2.218587 
-16.400705 21.017157 8.336895 
-28.099092 -11.939495 3.401988 
23.282206 10.391472 -3.894873 
24.284376 -0.358997 -3.059813 
18.494637 3.771514 11.219571 
20.910349 12.771288 1.328846 
20.141644 19.499027 -2.948432 
21.184795 20.328325 -0.414794 
-24.609924 6.155703 -4.402887 
-5.549203 20.972292 -0.744551 
32.678699 -8.411059 7.652420 
28.011709 9.379273 11.972509 
30.417530 -4.420630 10.872188 
29.022213 0.051903 3.011050 
19.578278 -1.171343 10.321803 
-25.641184 6.277263 10.286395 
24.295126 -12.819978 6.872641 
-2.579362 24.636904 1.316947 
10.823175 26.860861 2.966644 
0.323538 23.725851 -2.593375 
23.791571 11.670822 2.575878 
-28.698706 0.133077 12.250200 
0.037755 26.625542 2.949050 
6.874949 26.929369 11.375656 
-22.735571 -7.472386 3.366437 
-16.076466 0.367382 -2.279597 
-4.262340 31.363037 8.811284 
29.322901 6.212529 15.311495 
-17.146935 2.983320 3.879242 
11.254950 33.354702 5.348217 
-22.100803 -5.279489 -1.840711 
-0.000076 29.253605 2.581658 
22.504593 -4.937536 5.119949 
29.946482 -0.696850 10.797903 
17.369884 22.170372 12.508928 
16.780523 22.570076 -4.775627 
-9.206243 28.334900 9.393764 
10.618958 24.831072 9.872768 
-21.310835 13.176908 -2.784828 
16.004694 29.724979 5.965665 
-27.459204 -9.890429 11.060847 
6.182582 29.569847 13.049251 
12.950238 23.565052 9.960749 
-27.177841 1.150372 7.971453 
-19.086660 1.201823 11.193130 
-18.007303 20.585125 15.906444 
-29.257702 -8.808181 12.248606 
-27.353474 5.172615 12.284847 
-19.009455 13.091425 8.430566 
-24.140472 7.029483 -4.248600 
-16.392231 -1.070877 4.431569 
-8.602929 22.933567 1.329580 
-21.635628 12.292235 1.872563 
30.630379 -0.205159 9.285384 
22.219666 -10.978177 14.057889 
22.128750 12.588713 -5.299626 
18.822258 -0.539340 -2.959651 
-25.205111 -1.807957 5.411207 
-26.537664 -10.366444 11.016506 
-6.918846 22.834677 -1.177293 
-19.629074 -5.067102 6.226068 
8.410335 25.719858 -3.147010 
-24.218733 4.225959 11.702124 
-7.200089 30.686882 5.760130 
-0.627553 27.847786 4.868343 
9.855365 21.580582 14.472387 
18.742704 3.907270 9.253000 
9.696980 30.703123 11.806736 
26.956169 10.851291 9.137138 
30.666899 -9.759440 1.175189 
13.727935 20.279129 3.561323 
25.070889 14.236279 8.896496 
-19.053310 10.305931 4.463316 
-7.034432 24.869308 -1.603508 
-14.908990 22.880436 11.904060 
-18.532299 -8.090267 0.085872 
14.801651 26.363651 9.600246 
-8.136209 30.281979 7.834936 
-18.351866 -9.807669 -2.454262 
-24.992928 7.183428 8.347077 
2.405897 25.334265 -0.293902 
-13.249386 16.215767 -0.857175 
-23.149372 8.368119 -6.804300 
-13.355743 11.902321 9.719647 
11.055153 26.702759 4.077260 
-20.302792 6.678077 10.502937 
19.591274 8.496716 0.556030 
8.813952 25.898767 -2.354703 
-7.000110 23.934818 10.406914 
25.913252 -12.427658 12.708400 
-11.645720 15.128208 -1.056496 
-20.399784 7.710070 4.412892 
-2.399261 28.469841 -0.469935 
30.222471 -5.421949 -3.816279 
-15.925737 13.828046 1.164806 
-25.222471 -3.939727 3.591827 
-25.556452 -10.801067 10.677297 
19.491264 -1.383252 -0.357795 
14.475568 13.032248 -0.434165 
5.725914 26.276279 9.940488 
-18.653681 -6.031985 8.738248 
-29.269724 -5.908422 11.357605 
-21.125610 -9.111237 11.345487 
-17.866432 -2.620749 8.330302 
-23.548687 -10.042362 9.373262 
-22.566994 -3.691545 3.802973 
-15.415374 -0.983017 2.496614 
-21.464706 12.826854 2.554472 
-9.097282 23.688358 -1.437762 
-15.473993 10.019677 6.361131 
21.451750 10.857532 6.980131 
10.380003 33.619751 3.447998 
-24.761639 -1.229794 4.418899 
-22.286703 8.865109 -0.754226 
19.615355 15.812387 8.784986 
-14.565859 6.632125 13.003654 
-1.716036 26.142937 -8.224275 
-12.957996 27.178526 6.321917 
18.811382 8.997955 -0.243026 
-14.099309 8.224536 12.454597 
29.489651 4.428401 8.364354 
10.582943 30.874664 14.122631 
12.848351 25.482069 -5.438987 
-3.565460 26.532253 -6.920389 
21.420553 -4.034623 7.052424 
-22.617378 -1.840853 -2.731465 
-19.312338 8.357424 8.566704 
-23.519753 -1.082261 -2.704893 
19.024239 8.009001 -0.078972 
18.797937 -3.059329 -4.687167 
-11.055668 27.593916 5.041000 
-5.342903 26.519922 -6.220543 
9.646101 32.930122 10.213486 
-13.302113 9.932883 12.871451 
20.916756 19.832535 2.645776 
-13.472266 12.442513 8.801458 
17.470575 20.480137 -2.653525 
19.269136 13.463417 4.020765 
9.739915 25.186819 1.416916 
1.880015 23.698444 15.856813 
15.137795 14.310932 12.977829 
-21.178583 18.137428 7.570603 
-19.089066 -8.980898 9.496428 
-20.990820 14.782431 8.640448 
24.454062 15.939654 2.674792 
20.488035 2.836842 7.856888 
-17.691717 -6.988154 11.680163 
21.936199 23.839935 12.814920 
-7.016538 30.430874 3.344871 
-28.403221 -4.310248 -2.550937 
-23.163023 -6.338708 -2.547118 
6.323329 28.216175 8.162377 
19.750629 -1.315103 13.212902 
-19.573885 0.431710 11.181295 
-11.667500 18.061626 3.645250 
2.596488 24.521433 3.575324 
25.985147 -1.474322 4.309065 
6.688161 28.665579 4.260767 
-9.451207 19.456432 -2.646261 
-15.013384 8.317008 4.006066 
21.089571 15.017566 -4.068688 
-17.271246 2.648746 -0.474147 
19.673639 11.910616 -1.058452 
-20.593340 -10.696501 9.386199 
16.554966 14.582665 3.674129 
-1.549875 28.788109 9.238431 
-11.130715 14.868144 9.584761 
-19.462063 13.508433 5.593531 
0.888399 27.221174 2.757243 
-2.389986 30.614466 11.142707 
20.149445 -5.897182 -5.690935 
-19.249866 12.972304 10.424917 
-18.185495 -8.853782 -4.480895 
8.113553 25.543701 -8.180982 
9.745258 17.297890 -3.369226 
-2.067961 24.639364 9.754498 
-11.961415 14.826998 8.346208 
25.348612 4.582048 10.985777 
1.465314 29.273510 4.385436 
-13.920143 13.915045 -0.330949 
28.958014 -4.053872 4.431657 
-11.743700 16.490967 5.112394 
21.653391 -4.109440 4.750730 
-24.626308 -4.371078 0.042750 
-20.814096 15.874853 6.320199 
11.055874 24.071634 9.970071 
8.505616 23.109873 12.899787 
-16.682646 -0.565903 14.188457 
0.579539 24.869167 0.664271 
-2.905167 24.591501 -2.295230 
10.752446 34.386124 3.737222 
-16.499670 1.670327 6.462771 
21.610474 13.844300 -4.265157 
21.700050 12.331666 4.901494 
-14.586473 19.120806 -0.948238 
10.439535 20.501474 -0.866241 
25.398970 10.630404 3.074661 
30.867369 -4.341099 7.592367 
13.862502 24.464436 5.595967 
29.713066 -5.388112 9.699763 
-28.485973 1.049310 14.445655 
25.593399 -2.645615 3.905151 
14.768376 27.674137 10.762938 
10.976095 34.226444 5.198327 
-24.359463 -7.428062 0.081449 
25.391932 -10.071115 13.426338 
-23.013660 -2.055051 9.149890 
-21.977079 11.146092 -5.962374 
-25.190624 4.605680 0.512154 
-27.624344 -11.938865 15.251413 
8.706903 34.344513 6.655369 
25.397081 -4.418508 0.233184 
-27.468210 -13.691754 -3.426334 
11.379487 23.567829 -4.125751 
-28.057020 -10.691859 8.803954 
17.818346 21.443647 -4.786507 
26.434126 13.852125 14.071679 
-25.114922 9.129465 11.410683 
-18.912897 13.496425 -1.217841 
27.945623 -12.367326 1.522202 
-19.030251 -2.495090 5.817261 
24.461985 13.317980 5.035233 
8.349626 23.060658 -2.653837 
9.744589 26.794119 -0.512922 
1.305182 26.858847 10.206392 
23.385862 -7.736451 5.559137 
17.797939 20.758999 5.617804 
19.504681 15.419305 -2.109874 
-20.610479 11.383705 -2.632622 
12.731991 25.152601 -6.238260 
-27.322987 -12.921894 0.558637 
-23.095257 2.138782 -3.321830 
19.913380 6.370651 10.007617 
23.340151 4.814973 8.698910 
16.322386 26.434580 7.784579 
4.572268 24.111654 -1.597304 
-27.159016 -5.368481 3.440364 
-25.596024 3.694962 1.286462 
22.727802 -6.079933 11.687256 
-17.791914 -5.147205 15.341858 
22.831234 21.727913 6.774362 
-22.002323 -0.091889 3.920372 
29.521835 -3.967805 1.246266 
-13.204954 20.279737 6.418540 
12.840803 26.261757 -0.124210 
12.530348 19.462891 13.116467 
-18.973728 -10.194276 9.861292 
26.665379 5.141660 -2.412131 
-21.453852 -11.338525 6.404658 
-9.217531 24.635075 2.072015 
11.877507 30.736134 10.298675 
-15.124638 13.230302 5.963575 
-21.954695 5.830711 -0.332237 
-19.677792 -8.777267 5.068062 
-3.520163 25.097231 2.109185 
21.414972 0.308944 3.512112 
12.846841 12.314272 -5.613314 
-14.919789 24.783085 13.062994 
-21.955236 -3.689996 4.508099 
19.357344 -3.634574 -0.792192 
9.604489 23.057232 11.395312 
-7.329730 25.744070 8.968367 
5.554987 27.381933 -4.833196 
-25.899063 -11.862663 10.861698 
-9.711014 19.739782 7.821957 
-22.071394 7.411314 1.448346 
-27.874208 -4.181317 -0.929486 
-18.972775 14.530154 8.992642 
24.094189 -8.604312 -2.438884 
-14.840184 13.297002 2.839243 
-28.029079 -7.179078 12.535916 
-14.322935 18.156050 8.840995 
-12.657660 25.324051 -2.449081 
-25.713549 -0.027069 10.504821 
20.298437 -5.400948 1.029057 
-17.876431 18.674656 -6.616161 
14.892831 15.328543 0.512356 
17.769327 6.176446 12.120476 
14.502426 29.957653 9.701783 
19.995998 16.642653 11.843331 
-20.347591 -12.684568 -1.014377 
17.622995 8.231296 2.951958 
24.229120 18.842152 7.720044 
14.757421 29.231966 12.873125 
5.183474 33.489952 3.477999 
4.973652 25.494459 -3.103966 
-20.829903 9.111700 1.914547 
13.797156 8.280465 1.102710 
-19.941763 2.762584 11.536160 
-15.455379 1.170451 -4.324752 
21.495302 -5.682777 -1.490956 
-19.651632 7.789848 8.009995 
9.965891 22.202770 2.714095 
-14.217576 20.219643 9.474093 
23.125549 -8.410036 -2.368316 
19.365175 13.249432 -2.479513 
-1.861449 29.154247 1.078937 
-6.468242 30.970110 8.334846 
26.758448 2.493268 4.056239 
5.970141 33.595428 8.502603 
-20.685053 -9.683621 -2.579879 
16.348034 23.226755 -2.055025 
19.383785 -3.997461 -5.841372 
8.723666 31.091230 13.073875 
16.540499 12.063638 -0.817315 
14.641328 7.042045 -2.801062 
-2.283949 19.900160 -6.175223 
18.388969 8.453340 -3.444702 
-6.000238 18.894323 -4.890004 
18.282801 14.793779 -3.290057 
23.078203 -7.590563 4.497471 
-23.902058 3.302563 11.805151 
-11.818759 15.326365 7.370642 
-24.105747 11.541306 13.040586 
-29.176636 -3.982784 10.378292 
15.494743 25.699583 9.442081 
23.230022 5.087302 -4.065073 
25.459789 -0.779998 -0.936472 
2.126638 30.440245 3.669616 
9.929319 29.145351 7.297384 
-26.910177 5.088151 5.388803 
11.267898 22.436491 10.327353 
13.343948 30.542686 6.362059 
7.398857 29.182093 13.005172 
-9.518776 23.556097 -2.424889 
30.140942 3.871620 8.309127 
-21.456034 -14.541923 2.765639 
-24.842520 -1.996205 10.945201 
22.911182 7.445113 2.861107 
16.871586 2.146681 3.204139 
-11.532196 12.641836 -7.148518 
24.839312 -1.543579 3.123936 
-19.638973 -11.850924 5.192940 
20.560551 -3.264706 15.155923 
20.413912 -4.341365 11.658444 
6.597055 33.887321 7.665904 
17.930763 22.349785 1.226268 
-2.313458 20.226978 -4.838483 
-13.614794 12.996781 8.042307 
25.757383 -11.744960 1.037234 
19.060299 -3.958324 -3.491167 
2.873931 32.280254 10.956568 
23.757931 -4.863452 0.334159 
-7.836941 27.860802 10.993265 
-27.707666 -7.975295 12.553487 
17.355677 20.053106 4.005802 
23.076267 15.959352 11.773645 
-25.968836 0.520168 0.359808 
1.584671 27.508398 11.840359 
9.242408 32.819302 3.953276 
-18.460299 6.170407 4.590528 
9.951321 27.070959 6.781462 
-26.071392 2.105792 -6.306030 
10.922127 25.165285 5.853684 
-11.311484 17.885664 1.929632 
-3.887226 34.788872 4.421646 
-18.308798 -3.805316 2.399350 
20.991262 18.022503 3.118790 
-25.109537 8.210156 4.727518 
-20.939095 16.400015 5.544230 
6.604614 24.575226 11.064615 
-23.542625 7.999022 -3.198109 
25.979589 7.274660 1.273474 
14.582968 18.666960 -3.203088 
-16.221142 20.915520 -6.659511 
-23.173038 8.800301 -3.258781 
3.833063 29.816488 10.109937 
13.121400 10.703122 2.429465 
16.226599 23.065128 -5.058042 
-18.518015 11.314826 -0.509553 
-14.873128 16.169106 -0.961702 
6.550404 34.167572 4.149736 
-24.525537 -5.096844 -1.998387 
-19.063543 7.646292 5.161444 
-24.568760 9.799072 10.455020 
1.804778 23.302103 1.908173 
-4.658510 30.709364 8.288576 
-5.831706 21.169518 11.522789 
-25.081818 -1.832719 9.417356 
22.229338 21.291616 8.473790 
24.864494 -7.697206 0.053957 
19.215975 17.413105 -2.843905 
-25.002010 -9.201247 -2.471575 
-23.930748 -0.738974 4.589202 
-6.985229 18.895483 -3.763057 
-11.994274 16.331417 3.931619 
26.134262 -9.745344 5.099015 
-26.517385 1.676516 3.738165 
-13.328661 25.550314 2.140824 
-24.643585 9.042710 10.030294 
-0.382558 34.012321 5.117228 
-22.373093 6.565146 4.309165 
16.456392 23.972101 8.629496 
-27.556791 -1.115160 -3.636689 
20.084612 -1.460055 4.045257 
-16.521900 3.368751 7.127995 
-10.283258 27.509457 7.596322 
-19.954649 10.677127 -0.686085 
12.478127 24.976683 7.439170 
-19.781443 -9.355078 5.643533 
22.025671 -10.989187 5.768420 
-20.006157 11.429407 12.121963 
18.570038 26.610884 13.917079 
17.228863 20.444363 -7.780234 
-7.356595 18.654150 14.598197 
23.121885 9.373147 2.359226 
-11.856682 12.588598 12.087370 
-4.176574 27.446087 -2.658737 
25.226267 -5.926118 5.187925 
-15.297772 22.468910 -4.202983 
-16.967190 5.684973 7.604544 
21.981579 -0.353907 -3.371063 
-14.660030 24.684822 14.802917 
-18.302916 17.959175 11.411459 
-19.327986 12.752341 -0.481345 
30.470173 -4.580663 5.308884 
-17.577669 3.734008 -3.389790 
-9.703480 20.708099 1.499343 
13.278709 13.745897 -1.207347 
27.486086 -3.717560 -1.985134 
-17.231400 -3.408377 0.513415 
18.448372 5.901963 4.073193 
16.311293 15.479023 3.658594 
-19.069649 -1.973516 -2.982108 
23.171858 19.152655 4.597447 
-18.679844 7.844059 1.205416 
2.463187 31.201298 10.088778 
4.367528 31.704046 15.180733 
26.302355 8.586029 4.224246 
-20.782503 13.973124 -1.818016 
-15.620403 24.096333 1.054566 
17.799507 13.884388 0.262776 
5.205188 27.121443 5.983770 
1.255346 22.014139 -0.685652 
22.823301 -7.384147 12.205200 
16.592701 11.261853 -4.309134 
28.588949 -10.672269 -0.967401 
-9.495033 20.759016 6.814484 
-4.082767 26.358761 4.775398 
-17.953176 -6.066827 15.322681 
-18.191545 5.028169 3.197153 
-3.015596 26.911606 4.150425 
19.128431 15.138228 1.815433 
22.267069 13.441352 8.177276 
22.374752 0.600064 3.515040 
10.065246 27.671692 8.807749 
-25.969460 0.340202 3.944822 
-22.677969 -7.111443 12.061623 
13.958385 17.593058 -4.295381 
-18.678474 -3.539937 3.588435 
-26.698858 6.106405 8.016606 
-6.326893 28.772766 11.063197 
5.712800 26.810822 5.103628 
17.440441 22.340744 9.327826 
-28.178976 -4.236870 -1.688304 
16.322725 17.679045 -1.082254 
16.907825 1.715898 -4.469547 
-3.132234 30.276588 10.221422 
1.005917 25.557890 0.807024 
30.764282 -12.830935 10.263564 
-16.806652 16.430635 -4.121558 
31.816284 -6.465850 12.654011 
5.115015 19.813852 -6.190426 
10.432230 21.891005 -3.519325 
5.596351 23.429869 15.828924 
-5.388635 23.483614 -4.335505 
-4.449803 27.930849 4.322968 
-22.862253 9.408797 -5.656858 
26.228870 10.646474 6.687782 
28.585928 -11.028848 5.160609 
23.956745 -7.346892 8.591488 
-15.106014 21.309235 4.063712 
5.557096 28.614510 7.618735 
1.803388 22.678988 0.940040 
20.233316 7.545388 -1.969419 
20.510246 2.229332 3.280007 
-9.376703 18.480852 9.221136 
5.612770 26.387772 0.433128 
-26.709021 -14.518009 1.458843 
30.022226 4.986651 12.753701 
17.373804 2.300138 4.008951 
-25.537149 7.910281 4.095716 
-28.282167 -12.795352 -3.564143 
-3.530182 24.741707 3.091660 
-19.411882 14.443919 6.191661 
-1.045225 27.801350 12.686838 
-26.394798 0.337718 -0.595642 
-17.054670 -1.692854 9.509226 
31.089027 -8.149901 -0.190022 
-19.070713 -4.426328 7.173653 
29.281548 -3.349232 4.899901 
-18.795036 -3.358047 7.193864 
-15.711958 0.217460 -4.452152 
-7.662922 24.521078 3.271906 
25.702217 8.397141 2.712785 
19.287178 6.490578 -0.119504 
22.229416 1.448930 3.154918 
-14.535645 20.773939 6.048825 
3.870893 29.265434 9.321153 
-23.411230 -1.567801 4.351336 
-13.098309 19.053087 -1.523292 
2.904450 24.651855 12.316334 
-21.105968 12.433949 -7.127866 
25.875387 -6.693479 8.938713 
-17.621561 15.416772 -0.719622 
-15.081474 9.036050 0.206537 
-20.175055 -13.968728 2.723001 
20.023233 1.920258 8.207778 
-14.440298 12.185196 0.998632 
15.881369 22.155689 3.234387 
2.837558 26.310505 8.670000 
30.293539 -5.234495 2.407323 
-15.014411 3.169492 -3.022048 
-21.125671 12.366555 9.768622 
-1.325284 26.959389 -6.588079 
30.493322 -5.675967 4.399401 
-15.869754 2.030185 12.919243 
-13.060509 22.482790 13.150763 
14.560037 26.946844 4.839529 
21.497955 -1.217594 -2.998562 
29.072365 -10.576110 -5.323468 
29.846252 -4.947464 -1.219077 
4.244555 30.339237 11.782834 
-5.027305 18.904551 -6.393885 
-15.874006 24.385126 4.059363 
-2.668393 26.594543 -7.050058 
3.671022 27.419828 -4.665453 
18.836489 26.485518 10.362129 
26.378382 4.596005 10.920386 
-9.821470 22.719002 5.119613 
-5.173929 27.061876 6.377540 
29.782413 -10.805092 1.772646 
24.941677 15.099533 10.845586 
3.596506 23.625397 2.598221 
8.565250 28.928572 1.330378 
16.019535 8.334196 -0.918426 
15.203178 24.475056 6.119669 
14.192830 19.222824 1.224062 
21.562559 15.822098 11.960511 
-23.704544 11.210775 4.849947 
21.274252 25.279354 3.600999 
23.934341 -12.692897 10.022451 
21.647009 4.306088 5.824961 
12.505418 21.398760 3.697443 
-15.338944 20.023386 9.874063 
32.105568 -10.274283 10.953049 
21.845011 -11.287699 -1.160565 
15.212064 25.080280 7.854648 
-15.691044 23.801178 10.724491 
11.196555 25.963648 11.699499 
23.946871 19.931738 12.487959 
-29.517365 -9.401690 -0.148471 
-7.394028 23.823774 7.627260 
-22.359825 -6.123173 11.866181 
28.064209 5.206781 7.175158 
-24.196293 -2.355464 0.760826 
-1.198778 29.081450 5.062542 
-22.297085 2.372761 -3.539842 
-25.343782 -5.926152 4.809034 
-1.935860 24.236208 10.520665 
0.904666 28.296026 5.516940 
16.788841 7.779439 -0.133763 
10.356829 29.258007 9.024514 
18.023678 1.753994 4.342865 
28.675896 -12.590578 0.794414 
-17.934439 -7.686043 9.659826 
32.257072 -12.439752 14.885798 
19.719618 21.931543 2.022346 
-14.307564 19.908937 5.998172 
16.870428 16.838894 8.339903 
-5.740277 27.761463 10.334831 
31.430994 -12.261631 10.220248 
-19.380241 16.179056 -6.161408 
16.516832 7.414258 2.781156 
14.825707 8.079738 -6.797887 
-24.708900 5.487564 0.392088 
20.297789 16.219418 -2.499982 
-15.429098 5.399776 10.310857 
31.725176 -9.843733 6.072143 
-26.192469 -6.884056 0.299585 
-21.684620 11.641856 2.984517 
27.956409 8.616964 9.925908 
11.577228 23.592695 5.256528 
-18.123587 15.168266 4.966347 
-8.151879 17.500977 -5.456870 
16.878748 4.844618 3.863539 
24.584417 17.962868 15.596787 
17.327932 3.366729 -1.771067 
21.183996 -10.132196 -2.113721 
-21.410805 -12.516659 12.792868 
-0.777755 27.971001 -3.676810 
15.924761 23.032837 2.920925 
-14.485798 16.992283 -1.046662 
-8.840077 26.007864 -2.687213 
23.521646 -12.618298 8.424058 
-20.137821 2.617867 -3.793652 
-21.992352 13.563527 4.837156 
15.062564 22.055117 7.288306 
22.007595 19.949604 4.775378 
19.018839 -3.044889 -5.916814 
-15.115359 18.939976 4.966495 
-16.593084 15.254274 4.324198 
8.042849 29.825033 10.655962 
12.061486 20.189117 12.761327 
-19.167744 15.241677 11.455458 
13.346079 15.049428 -0.490218 
19.624989 14.381482 0.593930 
-17.116629 17.149460 13.421485 
-13.830870 21.984928 -3.889705 
18.880424 25.139082 12.258730 
22.254990 24.573845 8.242413 
-24.922852 6.980912 9.119718 
-12.700847 24.238667 4.112120 
32.156292 -2.293508 13.012288 
-24.451660 -12.065278 5.228081 
-16.456610 13.718204 4.311046 
-15.552134 3.533523 13.924271 
14.126938 18.742842 -0.448811 
-13.288116 9.197090 -6.874368 
-11.367098 18.580576 -3.667514 
-16.643768 0.330214 15.454965 
-15.884856 4.511935 -0.315546 
-18.703072 16.776316 13.224553 
-6.305874 22.025522 9.618260 
12.495705 21.315220 10.339290 
21.512751 6.251738 -4.004608 
-2.983571 30.637547 3.823525 
10.020423 29.893023 6.744484 
5.865716 25.217686 1.332547 
0.685377 20.557016 -4.605785 
19.811045 -2.332046 11.355582 
-26.460711 -0.457686 7.382972 
16.424633 22.393820 5.273620 
-21.630709 -12.483059 13.915373 
-9.464349 25.949030 -3.569880 
24.131414 1.849326 4.263118 
-4.039684 27.635813 11.625060 
16.862947 10.181782 11.231037 
-5.497332 20.502325 14.179916 
-19.922556 -12.277417 -0.430783 
-23.160320 8.987166 5.300022 
-19.114471 13.423894 9.523188 
21.948889 14.593832 11.775217 
-18.488400 20.963095 6.501376 
-3.738858 24.086994 0.576753 
-26.153524 -12.376271 5.960007 
-9.930692 19.718294 -0.473116 
-22.222797 2.724880 11.847537 
27.127886 2.583856 -2.128621 
14.039450 9.863474 -6.939111 
24.775206 -6.846876 4.064058 
-12.466722 19.148369 8.498665 
-11.555333 13.165851 11.509668 
-17.739948 19.121222 4.351302 
4.894901 32.378078 3.830776 
17.967741 9.048124 5.047519 
-4.658987 32.728977 6.828587 
17.976086 -0.526426 1.827598 
-9.079956 29.782545 6.229470 
-15.964305 13.509039 5.566733 
-0.882965 26.662132 -7.250327 
2.413309 27.847336 -1.497484 
-26.069542 7.076167 3.938367 
-25.948101 -11.488349 5.856649 
-21.809509 -0.501940 11.277731 
0.490921 23.077147 0.177779 
27.439018 -2.746123 0.336604 
14.661080 16.347986 2.928783 
30.845284 0.260519 8.117188 
23.838398 -8.592110 12.879266 
-24.874247 9.852966 13.471327 
25.210197 11.651926 6.120777 
30.353687 -1.090246 3.442325 
18.978825 16.765560 4.553338 
20.113554 -2.301216 14.054398 
-18.262428 19.041801 -4.915108 
27.888748 4.786390 9.488170 
7.349656 32.386101 3.888227 
31.724077 -12.817599 7.812390 
19.176723 21.563499 -0.699379 
-21.967619 -10.405796 8.650960 
12.103474 14.392068 -4.756525 
19.746750 19.553822 11.264215 
21.580517 13.104409 11.253265 
17.543274 20.850008 -6.774000 
-27.233219 -9.986588 0.737068 
-24.431961 -1.833197 -0.587874 
-12.514963 20.042641 -1.326036 
-24.129906 11.658125 8.381237 
28.777721 0.404543 -3.989065 
28.111336 -8.327545 -1.922240 
-22.224438 -4.595429 -0.465643 
-20.301483 7.427648 0.553456 
31.548449 0.620017 13.213105 
26.101614 -12.906415 -2.493479 
-11.109332 25.614883 1.468730 
-20.546497 -13.981164 -0.818861 
29.965385 1.695558 3.972289 
-21.052935 10.981251 12.193486 
26.086327 0.820926 11.762837 
28.468639 -3.272671 0.380935 
-13.545093 24.106913 4.073275 
1.432621 32.235165 11.303883 
-28.180914 1.999286 14.527281 
17.143419 12.821436 -3.256789 
13.508841 30.331253 4.277327 
23.436121 -7.595911 -2.545460 
-9.957268 18.871386 -2.343588 
25.386965 14.530160 8.228572 
-21.222410 9.526318 3.022394 
-26.936783 5.971315 12.760826 
-4.377989 31.751200 6.217077 
-21.704388 -9.902699 -2.684216 
22.561588 -3.885565 9.976144 
-28.608885 -5.817325 -5.676120 
-21.945127 1.856430 3.968531 
-26.130745 6.741976 7.879448 
24.876909 -12.402122 -3.782108 
16.212498 14.120690 5.275570 
-23.084272 2.790729 9.365145 
-15.422372 24.993408 3.735686 
26.718235 5.048503 9.352619 
18.832245 2.897297 13.778663 
-7.619295 28.190001 3.681551 
5.851058 26.523335 8.160889 
-12.836602 20.912664 2.459294 
-19.393366 -11.830893 0.637601 
-7.643511 28.918924 3.311601 
31.470448 0.621363 14.143111 
-11.008801 23.585758 -5.449858 
-0.210157 27.195765 12.212578 
26.361895 13.907034 11.619145 
3.019254 27.774687 4.361475 
8.288207 34.291050 3.601327 
6.531806 25.508980 -4.011324 
-25.962679 -1.415143 5.649973 
22.832706 -3.645481 11.005132 
9.646252 27.322485 10.794964 
21.571552 3.511476 -4.206661 
25.515869 15.168283 5.478814 
-3.398594 29.187496 11.423795 
17.922550 23.973684 10.265314 
-19.502945 6.839510 7.964184 
-3.610102 26.445873 3.793640 
-0.774925 23.903185 12.623916 
-16.496431 9.354254 10.982636 
19.080013 15.123964 0.253827 
-18.154991 7.099566 5.699040 
25.940325 -3.276802 4.335552 
8.709237 29.487900 12.804626 
22.808222 18.661106 3.140714 
-7.111094 30.014376 12.945048 
21.786982 4.197453 4.511416 
30.829573 -9.441845 5.748639 
20.866188 -10.439006 3.709853 
-19.414135 -5.502245 0.573071 
-24.903393 6.123692 3.612168 
16.005089 12.463816 10.512714 
-13.757242 18.732386 10.684977 
-22.744314 -13.081189 12.736412 
19.916101 -0.489282 15.220497 
4.065723 29.725250 11.227589 
28.475050 6.599919 9.225597 
26.566587 -14.953753 11.980659 
-19.854784 19.405785 11.000686 
2.879471 25.177896 10.894396 
21.684460 3.244784 10.875255 
-15.067667 12.098534 8.024580 
-25.837559 -2.692517 8.281887 
30.781071 -7.904846 1.630006 
-21.637241 -11.779719 0.127383 
-3.704508 31.289488 12.739736 
-27.719967 -2.192776 -2.434864 
32.391487 -6.141947 7.346705 
-25.847071 -12.572706 -1.304964 
19.962606 -5.470375 2.107869 
19.198051 2.628895 9.259980 
-27.031124 -14.344704 0.097732 
-8.993427 20.783836 11.007237 
-2.336241 28.714331 9.044346 
-13.516479 14.177290 3.055204 
-3.140985 26.251221 8.896615 
21.744133 17.705217 -0.349613 
22.557627 11.784455 -6.063658 
-26.552748 -2.439043 0.215087 
20.769661 -4.223499 15.133696 
-22.777884 -4.147114 0.397805 
-17.709137 7.743865 -1.451901 
-2.256544 24.034180 -3.251364 
3.715407 31.822290 9.332907 
21.362621 -8.147998 15.044271 
18.031296 2.772438 3.862517 
14.082343 17.965488 -3.199968 
-15.597425 25.445290 6.035145 
-0.195108 25.376629 9.365475 
-18.191324 -6.115922 2.609921 
20.909452 -2.311333 9.627685 
-22.841656 6.698673 8.774195 
23.813278 8.188517 -1.205050 
-1.044183 32.352886 12.148560 
4.289428 31.342432 10.038439 
24.806721 -11.973901 -5.210684 
3.700864 24.624229 12.344226 
-12.846416 14.252243 2.463114 
-15.605865 19.851484 10.698244 
-15.538352 12.191711 -0.388008 
-26.710016 -9.318479 10.954246 
-4.615103 32.695099 5.992375 
17.664543 7.396877 -3.043144 
-22.738348 6.920943 -0.043840 
9.461293 23.166405 0.561035 
17.874960 7.431669 6.662555 
21.375240 20.602880 5.102737 
32.538265 -6.841583 6.121530 
-15.682889 23.126135 0.588707 
-16.470680 21.257408 -4.729358 
-1.212197 30.918453 16.033182 
16.966709 22.039864 1.287477 
11.340056 25.851675 -5.888759 
-11.925951 20.853193 1.254258 
22.280891 17.867445 8.976737 
-6.181548 24.051329 -1.739260 
-1.056748 26.659986 8.531153 
-22.799471 -3.718927 7.486918 
10.526395 24.663618 -1.276349 
0.916646 28.122995 -2.193586 
2.773024 30.746613 4.231600 
-21.167593 6.454193 11.117148 
10.743198 30.582258 6.602278 
29.929520 -2.707358 4.984032 
-8.206418 23.006645 10.770302 
0.423675 33.563019 5.094439 
-19.843319 -8.831406 -2.466992 
-17.783121 21.413960 6.380564 
21.451704 -9.964591 -4.393891 
5.085219 26.199915 -2.361452 
-14.826520 24.708702 -0.056520 
28.934263 -1.298341 11.070364 
27.250998 2.071766 2.238854 
26.259840 -13.388548 -0.634027 
-15.374304 2.769755 -0.094858 
-18.779873 -2.389001 6.775919 
18.662085 18.622478 7.478261 
11.017049 24.182745 -3.513503 
-11.545395 16.115942 1.999598 
26.504665 1.636947 4.395425 
31.036711 -4.428875 9.105489 
22.680368 -11.586256 9.636012 
29.976286 -4.145627 10.107950 
-27.539829 -6.135772 3.793317 
29.886499 4.017069 5.428584 
14.260420 8.252645 -0.911861 
-28.982214 -3.328219 9.470963 
8.319106 23.280743 -0.500960 
-11.438910 18.789015 9.666183 
11.228899 19.920681 15.718745 
19.820360 -6.053377 3.502165 
-6.084861 23.818291 8.591036 
18.946266 -2.038251 -0.270017 
-10.291986 20.514101 6.648749 
-6.217306 27.154327 5.920622 
25.985594 7.030735 -0.838225 
16.629259 19.480818 4.175395 
2.204612 27.598518 0.634025 
23.216949 4.032755 7.233316 
-12.600612 18.650797 3.606349 
-28.928001 -11.752282 -3.810665 
-17.316971 21.606720 10.102901 
-19.305414 -4.983348 3.182020 
11.000436 28.407719 10.346584 
22.216427 24.016792 9.774371 
-19.607691 -8.021688 -2.404804 
-11.333063 13.277279 -4.949658 
-15.215837 3.628443 -6.431583 
-16.255028 11.239531 8.903363 
-19.250946 -9.438284 7.648524 
-16.276751 9.451835 0.085321 
-25.864777 -3.272957 1.336682 
29.028479 -4.743233 8.437399 
19.374916 -4.762642 -2.441912 
25.521534 -10.591387 0.692839 
19.297823 -0.039269 10.053390 
-11.002101 25.604239 -3.351980 
20.305716 21.067406 2.262748 
14.520849 29.636854 10.587687 
-16.406679 23.673052 8.117449 
20.105877 -3.355003 11.907564 
5.460027 25.172575 3.557950 
28.600336 3.155221 3.131516 
-22.688860 -7.303613 -2.735133 
-15.876675 8.255143 -0.958737 
31.422098 -12.836849 6.963006 
14.196568 7.710392 -1.724629 
-29.476240 -7.938974 -2.255471 
-6.569154 23.621204 -4.176690 
-3.028748 24.275209 9.229574 
21.452858 -4.820076 -0.748902 
-23.648998 -12.323503 9.378614 
-3.521843 28.377983 1.350510 
24.590157 6.252750 6.400007 
4.224256 33.650295 3.548303 
30.305389 -9.538631 11.907432 
12.290381 15.316901 -2.991847 
-4.698245 22.098595 0.330179 
-16.968853 -3.157383 3.100490 
18.742535 22.785339 4.540054 
-25.429871 -12.610838 12.163159 
-28.977896 -10.007364 0.545962 
-13.033478 26.341084 12.133395 
-17.064009 16.898718 5.113575 
20.955132 -5.191080 15.111415 
21.557848 20.316530 8.289701 
21.334076 20.187550 0.361734 
14.974058 24.834993 10.118913 
-24.518303 7.554589 7.701376 
-7.217429 26.892395 10.259233 
21.056658 12.549367 7.241685 
-10.822936 27.244766 9.497643 
15.967587 5.184231 -0.893284 
32.396820 -7.063520 5.302103 
-9.215341 28.874651 12.589471 
17.835058 6.218539 13.078985 
20.209780 -1.656954 -1.156287 
-23.359674 -12.096821 8.027477 
-26.815514 -7.310304 12.621839 
22.129349 12.530083 -6.182356 
-25.703888 -12.630791 13.006670 
14.736824 7.836468 3.045746 
23.807152 19.937891 11.593082 
23.506092 0.142684 -3.404469 
-18.912918 -6.395853 6.907730 
-28.928125 -1.628264 11.398462 
-0.238467 27.874733 -1.651656 
10.732047 29.213190 3.485454 
30.696953 -8.438776 2.419075 
-24.509403 -4.781220 -1.172725 
20.832745 17.004366 -2.212769 
5.015262 30.627344 9.807172 
-17.399309 -5.270847 -1.431444 
22.933516 21.908968 5.263320 
11.371712 27.425386 3.407077 
11.075813 26.047256 0.084424 
-26.572550 -0.560679 -0.682179 
14.899858 13.815767 0.278200 
22.721300 -9.170796 -2.110928 
2.689523 25.622952 -3.497133 
-23.893488 -3.420862 11.509573 
22.019566 -6.187894 4.705840 
25.846825 6.050866 5.974898 
17.053499 17.581871 7.426455 
24.246653 8.478884 -6.833652 
20.391397 13.810440 0.353859 
32.658794 -10.169778 12.974583 
-11.730328 19.104683 1.295431 
19.268669 -2.838323 -0.243706 
12.936922 26.676220 6.302383 
-23.064636 -5.183952 4.078276 
-15.442434 -0.613599 1.592030 
-6.440994 27.276953 10.525416 
-0.317690 28.057240 8.097672 
22.483093 8.732829 10.562070 
-20.806341 16.368113 9.968955 
-19.120623 -7.684559 5.657120 
-25.901098 -4.539275 4.286702 
27.075815 -3.986981 10.999540 
-17.821342 7.139628 4.363156 
-17.274757 0.012023 7.499428 
-21.137569 -3.538219 2.082341 
-29.474190 -8.136759 9.290144 
-16.924360 7.900020 4.885694 
-8.313310 18.726513 10.647569 
11.561608 14.340179 -7.293324 
-17.467567 -3.408342 2.241527 
-29.162621 -9.598447 8.434613 
-17.929314 5.629880 7.228989 
23.528316 15.910215 9.768936 
26.077328 14.370780 15.509311 
21.002419 18.639948 4.486213 
-6.583640 24.569033 4.114618 
23.287113 -12.212548 14.943896 
-14.999331 21.364023 10.012395 
17.849319 27.545210 6.729613 
20.091927 -1.359292 -2.828334 
18.186241 14.998129 2.877907 
20.280416 26.478106 9.085989 
-22.126589 10.563428 9.686815 
-27.127882 -7.872712 11.099126 
22.333054 -4.999600 -2.140381 
5.690085 23.736750 14.423477 
29.731697 -11.065372 -1.914716 
-26.074530 7.470754 13.258133 
3.549088 26.655785 -6.913022 
-18.313250 19.158165 2.882781 
21.924545 -5.352109 4.669749 
-16.895042 21.918591 15.929047 
28.477037 -13.913341 10.646036 
-17.567617 -6.494855 -3.350013 
-17.913885 -7.704221 -4.460568 
4.627053 26.117472 8.663151 
-18.949266 18.429115 -3.109891 
21.047836 25.994339 6.280977 
16.611746 21.354355 5.739012 
-13.932451 21.495106 -1.730197 
-5.679686 24.438423 4.338465 
-4.353204 27.235437 4.737062 
32.608929 -5.913567 9.836182 
-18.143511 11.043619 11.749392 
6.229093 31.919573 3.849007 
-4.767126 25.885612 -0.819815 
-26.879944 3.674449 4.863630 
-8.575282 18.923065 -2.274306 
10.525577 27.987160 9.757809 
-4.070464 27.836405 8.843618 
13.499327 20.486853 -0.575795 
-19.164063 3.242031 -0.598526 
-9.255179 19.018904 -1.608323 
-20.964911 13.701908 1.351695 
-26.498285 6.650269 13.426187 
26.794710 -7.249410 0.189718 
-23.531219 -1.976157 1.250720 
29.628618 5.469527 15.293419 
19.891947 5.428979 -0.838288 
21.056818 -6.168637 10.464356 
30.423143 -5.674160 -0.078701 
10.368936 26.605299 4.593893 
28.384520 -14.742875 13.827075 
-8.597602 24.392994 10.401981 
-8.615856 25.027435 0.811317 
-8.565997 23.948717 1.122511 
28.105450 -10.334736 6.554917 
-18.453037 1.855432 11.064297 
-27.434858 2.252441 6.566028 
29.483656 -8.762095 5.674619 
25.741888 2.563659 8.790079 
6.695083 28.046614 5.892037 
-17.513083 6.822973 6.825725 
-28.637964 -8.878282 3.115106 
16.051464 12.441854 3.503432 
12.573432 27.810314 10.021530 
7.235704 31.931713 12.981964 
-18.981874 -3.035067 -1.394284 
-20.406031 19.800146 9.392845 
-21.394348 -5.026884 -0.851992 
-15.003641 3.396995 -2.176389 
-20.291756 14.209031 1.244573 
-14.696885 17.200092 9.441659 
-19.979357 7.152971 6.658306 
-27.331575 -13.966530 -2.026658 
-15.920596 24.754105 5.166726 
23.096970 -5.200388 5.631376 
-20.995844 -13.637507 -3.953849 
21.130861 -7.046204 10.510275 
-19.609024 -8.320330 10.632771 
24.143064 -5.023036 9.825310 
-14.132648 6.986233 -6.698539 
25.111036 5.959144 5.606882 
20.582634 5.589354 -4.062345 
-8.081213 20.769913 -0.643394 
-21.381973 -13.048161 5.364607 
-24.224676 -9.853166 -2.576142 
10.110012 28.889906 4.690238 
-16.893105 6.819904 8.869625 
-12.584057 14.725423 4.612890 
14.548632 12.158832 2.845281 
28.491606 -10.194102 11.155143 
-26.980896 4.262325 5.632084 
-26.450041 6.797328 12.506168 
-15.768153 2.315853 10.955328 
-16.819561 -3.170256 -4.760834 
21.130169 8.850616 0.168852 
22.910931 -12.403336 13.104917 
-3.468979 33.278553 4.795768 
-15.199379 21.824139 -1.458638 
-6.288610 29.651360 11.614941 
-9.490391 20.559219 -0.061731 
-17.342468 -2.368383 15.400028 
-14.501719 23.044838 -5.396426 
-26.252798 2.200389 -5.376051 
-19.079168 7.222050 0.744440 
30.276342 -5.059735 1.222867 
-20.476610 -4.477471 3.512337 
-20.320528 -11.925751 -1.975718 
-15.195141 21.219612 8.256251 
16.950794 27.158895 4.229583 
18.845713 3.748360 15.319604 
22.055309 17.752182 3.232618 
-21.129490 15.985925 15.824253 
-1.429080 29.334436 1.994718 
-27.185360 -1.282105 -1.608512 
1.560931 32.899933 5.023375 
-8.886033 22.552383 2.189971 
31.079187 2.719976 11.319769 
25.947067 -4.594693 -2.483887 
-11.431855 17.149000 1.374268 
-19.227020 -5.034494 1.782417 
-29.129944 -7.081337 5.331751 
1.444287 23.110094 -2.137314 
9.625781 29.448833 9.388410 
-15.996758 1.946509 14.123817 
-14.656611 23.569540 -1.511315 
23.229364 16.932400 11.698872 
-25.957058 1.744736 0.228391 
-28.883947 -0.973834 15.498911 
-17.046297 4.183050 0.003878 
0.401567 31.986118 13.930016 
-19.250156 -2.905145 3.785888 
-11.337082 27.431786 12.591437 
8.528049 24.190329 -0.699977 
-17.843687 7.767938 8.197986 
21.448488 -11.367826 3.696741 
15.884014 14.924520 6.395416 
23.809494 -9.709902 12.963313 
-15.307349 14.073092 -0.267817 
28.378664 1.516653 -4.312308 
21.551651 -11.259810 2.717933 
13.058022 12.021317 1.725882 
-18.554430 -7.151052 4.133656 
-16.073271 9.751037 4.524565 
-19.681017 7.183049 0.111901 
26.251270 7.951966 6.481968 
15.104433 12.941197 -1.267913 
-18.874409 -8.381593 -0.713704 
23.822678 -1.687827 -0.752330 
20.010260 17.997192 4.155504 
-17.262892 6.692768 8.142856 
7.522315 23.205276 14.109004 
-12.774410 11.034883 12.710939 
-7.096480 29.909534 11.102242 
12.140345 25.852524 -5.144790 
-22.837193 13.787994 12.258063 
27.725866 -2.956389 11.005437 
-29.257187 -2.908578 15.458768 
18.261278 4.519548 11.540274 
14.478927 18.805967 -2.227763 
-24.623682 -5.583000 4.728726 
-1.625482 19.777704 -7.719146 
-8.140532 24.210083 7.378218 
-18.749603 -0.593475 3.743554 
30.176918 -9.894738 3.868544 
4.296615 32.210426 13.588079 
-16.543858 15.484603 -0.180472 
22.203247 -0.227800 8.760245 
-22.673971 9.639943 -2.707865 
-25.216784 -11.656390 5.480887 
24.048199 -7.333425 4.093390 
30.724207 2.450619 15.220843 
27.701445 3.255331 8.897061 
-13.750661 25.862123 12.401856 
26.363920 -6.120226 -2.562939 
21.347271 11.066591 3.552997 
20.466532 -7.898304 -3.728114 
-13.259064 18.481970 4.136962 
-18.119390 -7.682344 -5.532655 
0.064465 33.827068 7.370805 
-20.195663 9.338869 -2.390991 
-24.889774 -15.189017 -1.965104 
24.683786 11.982115 5.612413 
-21.443438 12.919923 4.997596 
16.549305 10.412095 2.800632 
-14.155648 15.115840 -4.286845 
30.544353 3.309198 7.727089 
13.851737 23.925104 -7.233208 
4.793911 27.144306 -5.515227 
-18.153976 12.246487 -0.209155 
21.885195 -4.144180 8.021773 
-18.442997 4.232562 8.106092 
7.776074 22.605669 15.797973 
9.866872 29.151230 3.309083 
-4.927597 21.613251 -0.348986 
23.566971 7.180575 -3.645317 
19.635832 15.343964 0.965541 
17.007532 27.733105 10.626090 
-15.316811 4.309305 13.936185 
-21.159922 12.540869 -0.732269 
22.325827 21.364233 9.519392 
-19.936214 -11.346076 9.307126 
-18.446049 17.613073 3.671560 
-12.807642 18.621206 -2.274730 
23.159386 9.342809 10.441104 
23.082718 10.446871 -3.107101 
20.601263 22.667677 10.953078 
-7.965246 23.859291 -0.539689 
-11.233598 27.548679 8.680240 
-23.515980 2.207248 4.438790 
19.387428 10.633418 6.559716 
-15.436139 22.399433 10.349168 
10.380479 27.086109 10.085783 
-21.575773 10.440886 3.160008 
25.998236 -8.030159 9.611278 
-13.368348 22.655859 -4.620313 
-21.944614 -6.489151 0.168683 
21.887615 18.318846 0.327143 
-19.592972 -9.436617 10.473799 
22.572880 19.346292 3.959179 
24.870897 18.439482 7.471329 
-7.299813 17.770052 -6.272124 
25.959505 -6.630436 13.013494 
-17.333902 16.120728 10.242144 
18.641850 23.063156 10.519445 
-22.847233 -2.655630 6.024346 
26.833332 1.351992 11.643908 
14.353807 15.707981 -0.272081 
-18.727432 -5.513134 9.460162 
-29.616636 -6.695726 9.730862 
-22.263666 6.730793 11.131870 
22.570808 -3.318467 -0.215798 
-13.174620 14.017448 0.301163 
23.023943 -11.240971 5.937208 
-20.000433 -0.674894 3.345568 
-1.366587 28.183535 5.073477 
25.896212 15.788071 13.595517 
-18.218607 -7.836167 14.041726 
30.030973 -6.816788 -4.666953 
29.469997 -4.411440 -5.812892 
14.936500 22.255180 8.055728 
15.580197 14.676853 2.055197 
-17.986488 -8.439810 -1.704624 
20.760521 16.109255 11.961122 
15.977981 15.319344 4.607058 
22.504652 22.562990 3.944987 
17.029104 1.663424 0.786406 
9.222133 34.661694 5.119440 
-14.571611 4.085573 3.080612 
-17.687624 -6.542640 -4.442497 
13.752813 25.614492 -4.012051 
-22.430159 10.260422 -5.809870 
-13.851874 22.747717 -3.629482 
20.956017 21.921375 12.817828 
22.516333 4.890185 5.918300 
-24.244009 -2.601424 2.760305 
-13.288853 10.634579 11.519194 
31.764738 -0.371404 13.088494 
19.567171 25.922106 11.333701 
14.234497 24.939978 7.874025 
1.085334 29.545080 8.751408 
-16.480856 24.204079 5.324369 
13.021111 29.618622 3.958767 
-21.354538 10.992586 0.816179 
-17.726873 2.453659 3.239326 
9.687290 19.281376 -0.009905 
-17.357388 19.473352 -6.624779 
-2.449730 27.597301 -4.512597 
16.709042 10.646785 15.483273 
30.559412 -8.968070 -0.505211 
-14.580473 15.475187 12.909714 
-18.240553 16.476776 3.539095 
15.970763 26.960464 9.125972 
-16.147335 21.304527 5.865139 
9.279085 22.435677 13.320202 
-22.080042 -14.736030 -2.530869 
30.538654 -0.617861 8.374504 
17.254572 1.705354 -6.293046 
-29.342342 -10.603049 -4.066886 
-17.320765 17.158201 -4.063356 
-4.510646 26.675581 3.612000 
20.364468 25.528120 12.664587 
-11.084528 20.594589 1.472170 
-19.787395 20.445543 7.986225 
24.667603 5.216313 3.855029 
-17.875160 20.284756 -2.391265 
-16.410805 -0.226494 -2.918197 
13.280880 19.459450 11.355481 
23.571474 20.684935 13.528317 
-20.725887 13.039333 10.726295 
-16.629080 -3.294812 -1.920903 
20.531908 -4.263167 13.833794 
-29.510530 -7.983435 5.611929 
16.320978 28.298666 7.602453 
24.351387 11.693921 3.172882 
-14.995712 21.392300 -0.611882 
-23.207573 4.301129 -3.016513 
-18.839291 -7.456947 6.513969 
2.585748 32.111511 9.306718 
-12.392053 21.364120 5.921758 
26.123280 7.914290 7.921482 
15.113454 24.236929 -4.997932 
2.319394 27.783394 1.546895 
10.630347 25.120684 -0.032418 
-28.762852 -5.690660 -4.587174 
-17.453375 5.881647 3.179277 
19.953972 -2.309731 13.044689 
21.363064 6.255068 -1.182333 
21.550171 7.429837 -3.040667 
21.394159 16.951870 0.971605 
21.991304 -3.096269 11.041660 
-16.426439 14.979335 12.969252 
-11.293136 25.675701 -2.517923 
18.982948 2.719908 3.793757 
21.259497 11.743947 0.446723 
28.527363 -3.869508 5.166543 
-26.945393 3.023540 11.190430 
28.079277 5.870751 5.192195 
30.205698 3.454730 5.962264 
24.170952 12.093970 6.456076 
22.676733 15.075703 11.761050 
18.353697 11.903239 4.378932 
-29.122417 -8.887420 5.107096 
-28.922518 -11.599228 -5.217110 
-13.198402 23.132313 3.963134 
-7.621601 21.675653 -1.341614 
-6.920506 22.450407 1.314511 
6.049078 26.778492 -2.021139 
-18.132881 13.476948 8.410424 
-2.562915 31.833050 12.328149 
32.690231 -11.328111 7.541365 
-0.446126 26.562948 -3.686293 
-25.438454 -4.709939 -0.414630 
5.252529 20.644157 -3.663684 
-14.695380 16.591923 -4.504357 
-21.309362 7.451299 7.826905 
7.187267 20.481916 -2.095757 
-23.700693 6.012502 11.374166 
-14.352938 22.935146 -6.174376 
-12.379843 18.187983 -3.361701 
24.167562 -12.381417 6.127691 
13.598979 24.580633 7.259120 
-14.217431 8.282977 11.604387 
-27.698126 4.216405 11.364959 
-17.934544 17.232347 13.388429 
-22.708796 -11.185063 8.776544 
7.313714 28.253254 -1.023038 
-11.494925 19.971817 8.488364 
22.344128 5.808820 7.099823 
6.306657 27.435755 11.832192 
11.499050 20.865831 12.618550 
-20.262932 -8.832039 10.959757 
-13.568586 8.991570 -3.717773 
-18.315191 -8.843813 9.935738 
3.409348 30.305199 6.786936 
21.696980 21.163662 4.640321 
-5.501829 28.394754 12.846824 
20.094366 0.763245 9.845346 
-6.415920 24.719984 -4.360560 
15.603621 7.525689 -2.029630 
-14.166660 26.576344 4.490410 
-3.140130 24.715916 0.571343 
-20.483484 13.596683 -7.220416 
9.230969 32.523708 11.060489 
