24.699396 16.535677 14.738279 
23.739098 -2.125643 7.247114 
-31.107002 0.988272 6.820990 
12.037601 26.785812 15.358708 
-12.107053 28.418951 16.918762 
-0.203063 27.263067 -3.898689 
-16.885101 17.900459 5.998850 
-23.645157 -12.689027 8.789241 
2.953798 23.943705 0.587338 
13.681984 17.992598 -1.186677 
-20.206915 9.254328 5.829231 
22.214397 10.480944 9.481923 
24.037264 6.324840 14.245508 
-22.440727 11.815844 6.185435 
24.161928 5.667172 7.070570 
-13.048421 27.546360 7.012709 
5.893633 24.005917 -3.695588 
-22.802193 7.317071 3.947708 
-32.225838 2.212862 16.423456 
-21.851294 15.280419 0.307720 
-5.887778 28.468458 9.064426 
-13.503329 14.323809 15.016814 
15.711765 23.331221 6.131052 
-14.421656 19.784294 11.499447 
-20.134237 -1.324846 5.301148 
-21.971479 -6.300347 1.599822 
-24.865051 16.162088 17.369474 
-6.936974 29.464460 14.560761 
-11.330913 25.244568 -0.354219 
0.714813 31.288851 8.656940 
22.484211 6.073931 3.962981 
17.280144 16.743452 12.221732 
-27.582209 13.177852 7.704420 
-10.244485 23.589619 2.098456 
-29.376446 -10.171169 1.450765 
-15.359097 19.777653 -2.336716 
-20.280935 6.024158 4.904397 
26.486713 8.613186 5.804671 
-19.533833 19.590368 14.750085 
-25.945648 14.879329 7.525890 
30.590876 -15.086051 12.785327 
29.332624 -12.470361 9.155005 
11.784024 33.342705 9.379276 
19.113791 19.133057 -5.123560 
32.115574 0.873195 14.412281 
-24.197153 12.256057 6.103325 
14.561575 13.012755 -0.330602 
-15.637161 23.836641 -1.410926 
-19.318638 5.299993 0.328822 
21.316311 21.872816 17.137148 
-9.488062 24.118326 13.029851 
15.494475 17.407127 10.585832 
14.325560 15.362404 -3.623211 
-12.840858 15.619351 0.751342 
-14.684942 16.771935 -2.050471 
6.479900 24.755035 -8.554661 
1.759165 32.776966 14.240948 
-14.050206 16.563643 1.258559 
-26.342484 4.047904 -1.756784 
-16.663292 22.159321 -6.136720 
22.593880 2.980191 9.805310 
-31.023516 -0.230548 7.974080 
10.915722 28.600166 11.748834 
6.838056 28.397348 10.155748 
19.662104 17.311018 8.141180 
21.105581 22.689728 9.006615 
-31.038164 -11.564155 11.862782 
-27.554333 -3.313625 7.930639 
-33.890408 -7.945217 9.003146 
17.484301 11.638438 3.712492 
23.780930 17.519337 18.324989 
-26.825356 -14.743040 4.121664 
-6.958786 17.007870 -6.750607 
-25.163027 -4.650908 15.541584 
16.459301 25.432545 12.213048 
27.035820 5.653192 9.792527 
7.359057 25.847876 -1.959033 
19.759024 20.855803 5.752311 
-12.406825 25.144110 15.111848 
34.181400 -11.289472 9.142680 
16.315331 13.800230 7.883974 
5.711682 26.199524 2.047292 
13.723621 24.107019 6.686981 
-25.333744 2.343099 6.640766 
13.996284 26.973314 16.458748 
-33.999329 -3.926640 9.092897 
-15.079968 17.640610 5.953907 
15.121840 28.904833 5.239086 
-7.239574 20.287495 18.477470 
22.485931 1.894633 7.962048 
-3.548753 25.062687 -0.505422 
-20.543333 7.235325 5.195378 
11.460308 29.450861 14.990567 
13.126252 24.775936 6.777846 
20.658180 2.229393 -1.402951 
4.675975 31.307858 15.604060 
31.497683 -2.144401 7.071425 
-15.277311 13.058548 2.383834 
-28.621054 -1.795223 5.907010 
4.514074 22.803982 1.753491 
-5.902886 31.516779 7.835350 
-33.378269 -5.252721 8.345854 
-19.086830 2.791270 1.045999 
-4.706346 24.288507 1.156880 
32.212540 2.792275 12.712187 
-16.065449 22.393597 5.409545 
11.279960 24.212919 9.990650 
24.926825 -0.586726 -1.799398 
12.305746 28.381817 13.721017 
22.070086 -0.347233 -1.690439 
23.414112 6.692402 4.236987 
-11.008622 17.192049 18.424498 
17.450415 25.190857 11.557132 
17.276243 16.954782 -4.145074 
7.386677 29.236959 9.744231 
10.842072 32.214268 12.836794 
34.130116 -8.688444 9.621792 
10.389416 23.401644 5.811054 
-21.414700 15.446859 -8.461984 
2.045067 34.175812 12.418942 
17.121548 12.542896 0.316638 
16.673214 4.778150 -1.132715 
27.369177 -2.876260 16.268091 
-32.586754 -10.077574 14.292064 
-29.608595 -5.639662 3.589210 
-25.420069 11.876348 14.345316 
1.861824 36.809753 6.837484 
-30.852457 6.303448 10.317616 
20.270891 17.591650 6.132506 
-34.434956 -8.390581 15.326981 
-15.885091 14.177276 13.888296 
12.086680 24.041021 15.307702 
-16.549118 16.204346 -3.942533 
-3.907227 31.759050 15.823925 
-21.696623 5.443048 7.259125 
13.492576 28.458887 15.506683 
19.007442 -2.074410 -0.989710 
29.101410 -5.761544 8.860197 
9.671223 27.952198 11.363776 
-20.072683 14.162466 3.916192 
3.768976 18.406942 -4.663234 
-17.895170 11.080237 4.083198 
2.117081 25.773529 -7.657161 
-4.152857 20.052179 -1.827914 
16.457886 12.330319 2.478066 
17.317930 8.860153 6.002362 
29.057360 0.513454 -6.025389 
1.533967 36.460342 9.576393 
-22.683855 -10.973320 7.374326 
-15.546652 12.120113 0.436509 
32.520393 1.309584 11.514971 
9.355182 25.704252 5.505983 
-13.885748 26.287619 5.876573 
-9.178734 32.310883 9.088293 
-5.558457 27.373363 6.561922 
-7.947341 29.061817 4.494649 
20.486546 -2.982369 1.638321 
3.574044 31.758747 13.029614 
18.363344 24.608288 12.281563 
-18.544031 7.517469 1.533086 
13.493033 14.631972 0.438128 
28.315525 3.255344 7.833559 
8.711711 28.054869 6.353239 
-3.192363 26.840921 12.721578 
-7.605075 29.896238 14.909328 
19.284649 5.845454 -0.663205 
-18.634594 8.147044 -0.051127 
20.387577 4.123729 7.682119 
14.881451 26.741814 18.014086 
-0.166492 27.560619 10.934443 
17.567514 17.728703 -3.899468 
-32.315479 1.048345 18.153282 
20.198652 18.346619 -3.380451 
-8.650563 29.072390 18.664803 
-23.498447 -4.454528 7.266019 
-13.269140 27.107260 8.930988 
-30.064465 2.347914 1.307129 
-20.418846 10.591976 -3.072326 
23.577019 12.222792 1.183099 
-26.012360 1.056969 -1.783649 
-13.407022 19.794153 5.341641 
-22.887465 15.654810 6.269451 
26.555445 -6.094575 9.820936 
-34.666584 -6.462222 14.079953 
6.587254 23.447289 -3.913134 
17.715015 7.438335 5.474532 
-27.141106 -1.684911 -0.848906 
-7.590142 24.357130 -1.029794 
17.064407 19.003786 0.054590 
-32.085854 -10.983714 9.144295 
-2.755561 28.758108 1.402478 
23.465410 -4.951972 5.921694 
-15.988536 13.824696 10.025971 
-17.169502 20.629402 11.974354 
-29.646755 -8.897797 9.944036 
-20.101114 0.782276 -0.870127 
19.025709 -0.243509 6.122103 
14.117737 13.653943 2.980414 
25.247524 -12.895100 12.131536 
27.108660 6.661568 11.678526 
-24.658257 -4.553757 8.236761 
30.818026 -9.109702 9.284759 
-28.675125 4.650240 13.139598 
28.582014 -15.997382 16.610773 
-23.383808 -7.408687 13.678885 
25.276375 13.887132 12.885483 
18.791468 3.705521 6.388748 
-31.631830 3.270619 10.698244 
-32.091557 -9.869430 9.145708 
-9.715235 23.122639 1.456492 
-20.994913 0.702624 13.011255 
-27.433147 13.465243 8.513033 
26.919603 -6.078791 13.200421 
-32.603371 -4.485571 -1.650745 
-30.130329 7.630572 7.328544 
29.160566 1.749961 16.274220 
9.413834 17.710115 -0.985020 
-31.891319 -5.535758 16.788588 
-25.267797 -3.464372 13.354294 
33.635803 -10.324245 16.744864 
8.352102 19.879642 0.749004 
-1.166908 28.707150 10.319361 
-27.861628 -5.549610 0.996635 
-12.249937 12.544284 -6.172017 
-8.914781 22.132523 0.899613 
-25.698914 -3.910592 10.070193 
22.548931 -2.459349 8.124920 
23.981674 -10.555580 16.755375 
-14.723100 13.320014 12.569080 
-8.107285 24.399971 11.476180 
-21.635015 5.590618 10.117166 
-23.315073 13.078903 0.251721 
-3.631818 34.408966 12.163365 
19.507256 19.056683 5.687938 
6.231213 25.118650 5.356661 
-17.735279 26.564035 10.574044 
-0.842701 36.744846 5.827782 
22.937876 -6.401292 14.724307 
18.289114 13.088709 15.065946 
-27.634554 11.972595 14.590637 
-20.637619 12.813444 1.035287 
36.442856 -10.799123 12.484711 
-14.184914 25.675749 16.441549 
24.734789 -11.180794 14.739256 
21.793474 21.554026 13.511539 
12.984724 28.367462 14.297516 
-15.178960 19.991396 14.946783 
21.831131 6.193933 -0.951892 
0.529966 27.408136 3.163155 
-15.813831 10.233504 -1.480854 
-16.440758 21.866020 -1.981776 
21.510000 -1.298259 9.432050 
-18.888306 13.819215 -0.874572 
10.168931 34.989746 8.756704 
-21.086847 16.914873 4.717359 
-30.492584 4.810619 6.870162 
-25.626528 -14.226563 3.562817 
29.542944 -9.560721 8.296883 
-34.688160 -5.182822 13.964355 
19.031479 10.778716 14.466055 
4.952633 27.480110 10.982100 
10.995610 30.262594 6.489698 
21.835703 -2.387130 11.986445 
20.666424 16.865602 12.762628 
15.757367 12.743034 4.181276 
19.763830 -2.952428 4.517602 
-16.304256 19.999451 2.676394 
-12.295685 28.535545 15.813140 
-6.583404 22.852699 2.545671 
-22.078337 -5.078822 15.793666 
-27.767952 -3.779911 4.358288 
-14.417326 23.717907 7.211298 
25.125626 15.416564 18.277071 
-8.414017 24.059555 -0.911220 
-32.629158 -8.516500 7.175008 
25.736940 -0.183861 12.921671 
18.576780 -0.891909 -0.842967 
-22.926592 -11.535030 -2.110434 
-21.688540 14.783990 1.196041 
2.547047 25.016270 -2.960295 
-26.293854 10.407865 -0.022786 
-30.164644 1.939086 2.031854 
-11.172960 27.223190 16.184242 
11.370267 18.775368 15.683729 
4.669929 27.275553 -1.029144 
36.304199 -8.100297 15.689820 
-11.961997 16.359470 16.876005 
9.769760 27.829079 4.375835 
15.257730 7.153878 -3.849555 
-12.272380 26.702864 12.711079 
-24.446022 6.842619 1.830485 
31.031553 -14.965937 13.643083 
-24.407743 -13.553920 4.692704 
-3.146258 22.706425 -2.675852 
-19.464235 -0.044874 3.983037 
22.645954 18.239080 13.202883 
-9.565163 27.232309 9.381360 
-19.763954 7.316430 -2.198233 
-23.032763 7.788963 9.833646 
8.559196 26.032961 -3.259397 
15.917307 23.245310 2.984756 
-22.921862 5.864192 0.679824 
-10.592491 24.650402 6.102407 
17.190208 14.275435 0.524194 
18.549110 13.954844 6.106485 
-14.798170 14.854498 9.247331 
15.873020 6.153237 -2.990061 
-20.119717 13.038178 9.874756 
20.050905 17.329151 -6.667791 
20.420782 17.289679 -2.181581 
-18.949167 4.733536 18.189207 
18.467377 5.969052 1.170654 
-19.072254 9.863961 7.933496 
24.565943 5.423230 2.176274 
17.033712 6.388116 1.554847 
24.887169 -9.136055 10.837971 
-7.816854 26.927755 -2.586059 
-21.358469 17.147507 -3.512007 
18.196392 24.940166 5.920265 
-11.552412 28.849585 16.369673 
-22.735037 -11.416095 -1.031042 
17.391668 25.323689 7.999146 
20.401413 11.145126 6.071567 
4.262110 32.289066 8.705903 
21.667114 10.694482 10.492565 
-22.154558 5.894072 14.222136 
16.334366 18.228027 -1.476135 
-26.685209 3.832500 12.757890 
-30.870691 3.192192 13.979563 
-22.617058 -6.892669 14.332811 
2.349659 36.487396 7.786181 
-14.373577 26.344332 14.829596 
14.422124 21.797668 -8.688760 
-25.165979 7.629159 11.609889 
1.349316 27.777103 12.478416 
4.322638 26.043932 4.729016 
-30.496149 7.076111 8.831496 
16.526377 20.533144 -8.105166 
-13.898746 20.530952 -1.558659 
-12.002210 25.027594 13.266180 
-1.755005 28.068068 10.344435 
29.208454 5.891710 9.999569 
-25.194456 -1.211482 6.858753 
-21.120644 -6.076040 -1.396239 
19.808598 6.328989 7.971194 
-29.250025 -0.153928 6.320740 
-27.693722 4.596085 5.779680 
16.484791 7.149947 0.945062 
14.529027 16.996193 1.448236 
7.506669 23.891773 -0.576861 
26.415667 -3.156795 -0.878692 
16.229191 15.419684 11.946437 
-19.834648 10.393370 10.859823 
3.678351 33.942608 12.395383 
-11.922737 23.947016 -8.371526 
16.764124 27.283915 5.555254 
22.595537 -1.475271 7.685950 
-20.394873 17.494446 15.801664 
-16.197245 18.691967 6.383218 
23.691088 -3.313177 7.559602 
-16.094118 20.417002 6.285468 
-16.773466 12.899047 4.321906 
29.044157 0.898880 0.487745 
9.992079 30.385941 16.132610 
15.954962 19.966520 6.311899 
-31.260729 -10.586576 4.810745 
-1.400530 27.069679 -1.464506 
-1.293882 25.604519 -8.645181 
4.938405 24.170296 1.913807 
17.618046 2.406377 -1.203942 
-19.787300 -1.979851 -2.841954 
-26.000473 -12.304243 9.781090 
29.678009 -4.591388 12.494858 
21.447460 0.227722 7.970471 
-17.942114 20.224203 10.795195 
-8.412155 32.874813 5.811180 
-28.801403 8.886792 7.614673 
15.735906 7.329775 -0.752281 
14.303213 21.423256 10.789400 
-12.374801 25.068020 -3.097443 
8.872318 23.418711 -10.219802 
29.645096 -5.953357 15.826919 
24.387234 -5.603364 5.033246 
-16.419054 22.186478 2.383284 
31.126513 -3.022789 -2.636622 
-25.255011 10.261123 5.190563 
-0.854135 27.244806 0.868322 
-30.841568 6.150424 8.854307 
-0.286815 36.011768 5.199056 
27.722761 5.392492 10.788853 
19.925959 11.938329 0.935112 
31.653732 -3.345299 8.354177 
-14.443004 13.197403 14.012427 
-30.525803 -15.411495 2.487977 
-13.012268 20.873495 12.187767 
-25.132957 11.213634 6.113144 
-15.521468 26.953390 13.807661 
-12.637446 22.249657 7.047834 
-11.030259 13.584930 -8.190863 
27.866810 5.361026 4.171001 
-27.795883 -6.074461 16.709173 
-8.052815 19.749544 18.468744 
-7.844334 28.438673 9.562696 
-2.140775 25.272482 -2.949498 
-32.552906 -8.091738 2.322032 
1.184143 23.614788 -3.002227 
-1.268312 19.040882 -5.029919 
-12.248550 20.888702 10.056111 
9.075297 35.298470 9.051878 
15.458216 24.149969 7.337564 
14.005790 25.457817 8.654941 
18.099335 9.117027 -2.373613 
26.220512 10.512570 6.447089 
-19.753019 18.579124 -2.350419 
32.226742 2.745521 10.236686 
25.306362 9.070684 -3.779851 
-24.109085 -0.026759 15.212944 
19.636173 8.374699 8.546619 
-28.160622 -4.597090 8.426601 
28.659565 4.808188 13.055066 
31.786879 -10.348806 10.015311 
-13.998360 27.426968 6.559462 
18.255320 9.171582 1.677300 
-19.967684 0.784536 0.111053 
-9.962962 19.126980 15.522158 
-15.886326 23.439877 3.480365 
6.637201 27.214287 6.668102 
35.038300 -3.785537 17.846722 
-18.879873 2.381804 -1.018917 
18.297241 9.251781 6.527064 
24.191227 7.673762 0.177518 
-23.540997 -9.149326 16.488165 
25.215778 8.769807 -5.438734 
16.154415 20.791666 -0.611883 
21.421659 19.636435 12.727268 
13.495774 13.026158 0.687316 
28.289709 7.962377 12.852501 
10.281158 23.857393 -8.490598 
9.093366 34.161999 6.049346 
30.978796 -2.086509 14.916668 
20.002260 -2.032298 1.324233 
10.071530 14.990331 -2.726136 
-33.205299 -6.575175 -0.449009 
-23.469889 11.093809 -3.022662 
13.658889 21.437033 13.224588 
-1.329742 27.816711 6.629524 
-27.103127 -2.987387 9.433747 
-15.988977 22.586252 -6.540494 
27.498787 3.311225 -0.116124 
11.732125 14.867998 -0.762910 
21.590916 -3.508616 13.490058 
7.043151 23.013309 0.183184 
15.924513 16.367817 11.655469 
-8.777002 15.459961 -8.565413 
24.834248 8.173896 6.189781 
14.554439 9.236102 -2.070788 
-15.054022 18.837120 4.275596 
-11.503819 21.709652 10.529754 
-24.113281 8.512484 -3.420712 
21.723701 8.561670 14.087749 
-19.584951 21.736818 14.409802 
24.142813 -0.829658 16.217432 
20.566233 22.740133 7.186591 
-16.679544 18.933418 14.340167 
2.674158 17.772091 -9.096545 
23.951040 7.287745 3.197450 
34.404881 -14.804168 16.679211 
14.002030 25.245033 0.899266 
11.443534 28.426626 12.730498 
-27.723124 -5.130684 16.501335 
27.143505 -3.880118 6.900029 
-14.040468 22.355307 -2.616788 
32.148350 -1.461241 12.887439 
-6.365075 32.969711 8.172243 
22.825773 -4.760526 11.111142 
-24.020496 -3.165433 2.749462 
23.926531 17.745518 16.586531 
-7.279096 25.752436 15.142104 
20.417845 5.369307 8.597577 
12.651754 11.501075 -3.798769 
-10.439485 19.780598 13.437619 
-3.571173 29.687138 14.009371 
20.816669 15.079553 4.658631 
9.125258 28.425983 13.789219 
26.517357 1.524617 -1.729604 
-29.756582 -8.240126 9.345210 
-6.109796 29.659403 12.605834 
-31.274784 -1.125940 -0.604499 
-23.978558 5.900432 1.415171 
-25.910240 7.976282 10.691265 
13.757945 24.455658 15.749687 
36.357376 -8.620366 13.975295 
-25.343777 12.960535 1.064716 
24.251053 10.264202 5.271795 
19.431250 25.174042 8.830192 
-17.416840 13.440454 0.854781 
20.982716 10.314601 10.041029 
20.358854 -1.720277 -1.020887 
-22.620972 14.892449 6.653324 
18.480179 6.381321 -1.552869 
-17.065973 14.960902 6.364583 
-23.866129 -0.882448 11.877334 
-27.702509 5.828703 5.279086 
12.860489 27.964258 17.924726 
7.671362 28.014542 16.347225 
-26.380228 13.996076 15.671855 
-1.671228 27.322029 -0.650287 
-29.549397 -3.736723 8.192867 
7.520479 25.392036 11.690804 
-12.887877 24.777607 -0.325565 
30.071571 -13.574872 9.346562 
-1.010231 25.892408 -0.018586 
-28.572147 10.544544 17.253736 
-33.201923 -9.833915 9.779912 
-13.378107 17.852463 -0.744927 
28.274654 9.916740 16.453676 
-24.803337 -1.877297 2.182688 
14.559794 21.250015 12.622539 
21.271318 0.164679 -1.584108 
-25.490301 1.384912 15.573754 
19.220228 -1.740238 5.731546 
-15.164128 18.355358 6.493222 
-23.640980 16.511078 8.593245 
0.220595 28.492098 6.319541 
20.572208 -6.185703 -0.403487 
19.645338 7.005841 7.526527 
-30.199484 -12.177098 11.799160 
-26.931204 1.177314 7.390441 
-26.928654 -2.859515 15.448647 
-22.737959 4.035275 14.867134 
-23.760405 -6.218954 10.778820 
-12.252020 20.361450 4.266523 
30.137327 -4.427652 10.734470 
16.168861 6.778480 -0.252407 
-18.385471 8.962183 5.122146 
-7.985323 21.805555 -3.126718 
-20.583418 1.417124 6.128918 
-8.424065 30.720930 6.228969 
-31.349621 4.193535 18.215855 
30.884249 -4.180570 0.347490 
-31.853926 2.869993 13.725935 
-21.508339 4.701825 6.949891 
19.850611 18.242056 13.875051 
-13.647636 24.678631 -3.592973 
-15.386352 11.531999 16.698486 
-26.234444 -4.510458 3.199216 
36.135120 -6.852761 16.484854 
-32.483677 1.167188 16.319969 
-10.007821 21.491358 0.609415 
14.840341 23.020458 7.028069 
19.882494 -1.745177 2.900111 
23.442419 -7.271180 13.986693 
-24.847023 -2.193519 13.684984 
-19.613045 19.486895 6.811188 
0.872818 25.926188 12.691881 
12.793313 19.172667 -0.438591 
-21.963518 -9.489047 -2.302673 
-32.727589 -0.789366 14.867990 
23.033798 19.061348 17.413645 
31.158382 -3.994240 -5.184994 
23.158936 0.389331 12.057917 
-20.867943 20.018225 13.380887 
6.383860 28.286575 5.374913 
-11.602189 31.435545 7.829392 
16.110397 12.503576 0.382258 
12.919895 23.417198 -3.043995 
-14.746725 15.462062 -3.331059 
-14.587111 23.488005 -6.583556 
26.836031 5.809021 -2.839688 
27.820267 5.989291 9.502940 
-21.393875 12.745534 -0.083199 
-13.668484 25.772388 15.710080 
5.800364 27.640547 5.514173 
20.333191 1.290633 7.490459 
-11.840603 30.266233 11.823539 
-23.603420 -12.936086 -1.675958 
11.226223 30.483706 10.551197 
-17.289320 26.792303 8.406057 
-2.181735 27.900635 6.268259 
-6.478949 25.693140 -1.711977 
-27.205788 -10.854455 16.116512 
-11.858335 25.344322 2.965898 
30.590803 0.080544 7.395839 
28.252792 -14.079334 12.368411 
-21.403387 -7.351454 -2.516453 
-20.038698 -1.631757 4.418103 
-17.413733 14.686464 5.502536 
24.563892 -9.891191 1.389159 
-17.269508 21.923916 -4.608214 
10.178015 23.453817 4.963925 
-15.097949 23.228304 -3.314391 
0.538481 24.666903 -10.390593 
20.749643 -6.598244 -1.548201 
16.471251 18.275965 14.346156 
19.004145 3.877363 7.191734 
-27.939852 -9.673488 16.722767 
-9.000181 29.044994 5.698596 
-20.080931 -2.943727 -1.427469 
9.585491 32.962757 12.979240 
-16.964344 17.045876 -3.918902 
-17.149445 13.688494 12.874708 
-29.924349 -6.740720 17.030954 
32.594711 -0.340026 11.974346 
22.219206 -1.532555 -1.495766 
-30.178474 0.166952 12.306149 
-24.900404 7.317191 6.162946 
29.112179 -7.937194 0.882396 
-31.591454 -13.340895 7.287777 
19.570951 0.641367 -0.691218 
14.985245 26.558487 16.282845 
18.117363 6.765234 14.677896 
5.492497 29.366463 12.953070 
-19.535269 8.644298 8.551311 
22.718880 6.510402 5.429865 
21.235422 22.751341 14.834673 
25.151751 -8.095944 11.791516 
-19.483286 1.802536 6.171755 
27.707390 8.638544 12.763891 
9.103090 19.784143 -1.822278 
32.784943 -13.608180 14.209368 
-31.653513 -12.731489 3.171920 
-3.350177 26.022877 -7.628629 
-32.213093 -7.280237 8.645638 
-4.370613 23.385750 14.921723 
29.449814 0.547953 5.736581 
-3.425902 30.396906 9.101078 
-23.255333 -4.847441 2.844026 
29.401581 -14.959511 14.191958 
-2.642714 26.855827 11.315235 
17.237078 20.499258 6.740469 
-32.730820 0.104439 17.220430 
-28.305695 0.159877 -1.042277 
20.790234 11.476839 11.603308 
11.685766 29.691460 10.509710 
-25.240002 8.479479 9.891273 
-26.898561 7.096438 3.486741 
-19.255724 19.806303 -0.481678 
-18.286062 8.196851 1.071742 
-20.247927 3.655795 8.141926 
9.292866 16.021477 -2.040838 
-28.638151 5.334218 4.272450 
-24.838434 -10.981198 10.821825 
-29.372000 -14.291282 8.496881 
8.712584 29.761044 15.543312 
-24.335018 6.999554 14.469484 
24.723251 9.567363 -5.786126 
-17.292625 18.998474 15.087362 
-23.723995 -2.077210 13.483020 
-28.689503 -2.762774 15.801547 
18.088840 15.546054 12.814502 
-30.670578 4.935019 13.986131 
-15.755171 13.882686 10.815285 
-20.990078 6.388450 4.599357 
23.618280 10.453045 -7.872046 
-28.702326 -1.973317 5.079870 
-20.673750 1.093245 -1.548936 
33.075264 0.417655 17.253481 
19.518337 21.943108 5.686928 
24.583637 -10.559909 12.742659 
-3.471558 20.523821 -0.665084 
-13.751035 16.960287 11.384052 
12.132190 17.201189 -1.538100 
-3.807598 28.833019 1.550841 
-22.295790 9.928933 -1.020033 
19.341429 24.956310 7.794897 
16.683210 9.318091 4.233779 
-11.343061 30.975519 10.268495 
-18.765018 1.973957 -1.920623 
0.584200 26.733427 0.441277 
-8.070479 32.880447 8.313730 
-34.693668 -6.385077 11.310074 
16.456942 26.522469 15.866341 
-15.188584 26.932796 15.985381 
-9.943752 28.705359 5.114614 
-23.386889 13.965896 -3.106041 
22.315390 3.814253 -1.079190 
-8.365154 29.230389 6.363078 
16.053623 13.478703 9.868909 
25.347485 13.021528 10.150762 
13.839263 28.403513 14.158283 
-21.881556 2.193688 -1.874405 
9.680924 21.422464 -0.672202 
14.571016 16.982386 5.330580 
-12.359332 17.471369 -1.047038 
-29.352287 6.680099 14.128525 
15.298882 7.447758 -2.523564 
-18.753468 8.663861 11.620959 
31.691301 -3.147407 10.596653 
29.539047 -1.652854 3.002964 
27.981062 3.987079 13.031053 
-22.839167 13.584281 10.666534 
21.294712 -6.178828 3.422583 
15.289972 14.344822 0.793766 
-21.862194 -4.480233 1.850932 
7.055912 28.168617 3.767530 
-14.847563 24.859739 0.854598 
-10.653213 19.252329 2.262686 
-23.868799 -6.899296 9.912841 
24.188566 -10.506880 17.739851 
-22.856709 -9.419522 8.090078 
16.846735 13.872711 13.408465 
28.261303 -2.649587 1.433027 
25.115829 6.741737 14.247540 
-1.082063 24.132767 1.980675 
-3.489858 24.132450 0.163979 
-18.440140 24.853987 11.901263 
25.129751 9.688118 0.277433 
-8.408649 21.271376 -1.406924 
17.159393 25.796152 7.221907 
5.627414 27.006161 4.062655 
21.968014 2.139901 11.804136 
-20.643133 2.519092 -1.634452 
23.325163 11.850113 0.161726 
-31.136528 -0.100191 -3.054398 
19.517050 4.099265 13.205107 
-18.345282 21.313990 10.424420 
0.462328 27.492960 6.652680 
27.913284 4.179853 -0.979487 
3.293085 27.492699 0.037707 
24.616186 2.514353 12.001545 
-5.577559 25.252005 1.736637 
4.717397 26.408676 13.932387 
-31.420294 1.382943 12.923827 
13.520707 24.637024 -3.049227 
-26.999540 -6.211730 0.898976 
22.061245 11.772793 14.970734 
31.447605 -0.940291 7.066586 
26.443491 3.642265 7.793873 
-25.845848 -15.153425 -2.607686 
-24.511551 -3.054222 12.109907 
-12.379799 25.869148 4.105731 
10.911644 30.640305 7.583596 
33.836906 -4.016212 12.046847 
26.528658 10.644329 11.181165 
22.538811 2.811738 11.592135 
18.076180 20.113661 3.002094 
15.624475 23.899445 2.331352 
10.644376 29.293192 13.878189 
-30.059658 -2.819974 15.962698 
26.234827 6.754302 -1.910212 
9.996568 29.096630 8.904596 
26.514399 -13.118914 15.312211 
24.752453 9.781737 -0.845554 
11.559040 23.722696 0.002104 
-11.902559 12.700194 -8.015656 
-24.318783 -11.201763 1.940350 
2.271712 27.965027 0.685174 
-15.059647 19.025524 -0.477910 
14.077492 16.326035 4.642735 
-19.723181 18.098064 6.366829 
-30.286295 -8.270696 14.430013 
30.833359 -5.894151 8.648775 
4.870534 32.560513 9.200456 
-28.588812 0.132244 7.272783 
-26.013397 8.240396 6.249143 
21.469742 15.221007 -6.119889 
-22.464458 14.502361 7.378739 
-12.110231 28.212597 6.330063 
27.224260 -7.121888 9.184739 
-20.908611 0.708541 10.608355 
-15.427483 24.266640 0.874804 
16.805729 12.648165 -1.579995 
31.893879 1.389858 8.216589 
15.120256 19.979809 11.929629 
21.216137 -1.398274 16.916578 
36.097954 -11.446630 15.586192 
-12.993956 28.925045 5.631080 
1.223435 26.826326 -0.829768 
-19.265261 18.993715 -7.715219 
33.921207 -4.599818 14.472757 
-20.998144 20.789553 10.862427 
15.620401 19.400129 8.857887 
30.393049 -9.494461 8.553563 
23.142185 10.214759 -2.963512 
19.394844 12.303719 2.183681 
-17.406765 26.837982 9.383072 
24.017113 17.315432 14.230616 
-17.318188 8.140824 17.066910 
10.763709 29.644379 11.861974 
-26.802143 4.655187 15.433039 
-14.234097 24.407431 -2.907027 
-20.883728 9.779533 5.464414 
-21.516907 20.229008 6.548177 
11.276437 20.120226 3.516597 
16.181499 13.489759 8.978249 
8.546311 25.750143 -4.709050 
17.341145 2.560408 -4.387206 
-23.243399 -8.987847 1.712409 
-18.803345 9.160505 -1.337688 
-34.046047 -2.904096 14.796909 
-16.411150 17.300121 5.687133 
-10.946035 25.875319 1.738790 
23.541496 6.057468 3.721321 
-19.774174 13.668435 11.411360 
21.197409 12.945050 1.208798 
28.040264 -1.600135 -0.970982 
27.789488 -12.383635 15.923478 
-19.772060 2.030390 0.514752 
33.629284 -13.364846 14.404639 
-16.906454 15.289796 -0.413959 
20.603403 6.840866 13.810360 
-3.540095 22.175671 18.505499 
17.800158 10.733801 1.577038 
25.188837 3.103630 -1.751813 
-25.577530 6.728151 6.206841 
-5.319416 31.325769 15.535269 
6.005727 24.576448 4.599103 
-23.608797 -13.848436 3.670830 
19.228729 3.929704 15.690235 
11.945050 22.202700 11.347747 
24.346319 -4.764287 6.377978 
23.771585 14.886336 15.440693 
15.101810 19.649752 -2.266468 
-16.812693 12.876019 0.778093 
16.301792 20.820139 0.366869 
-29.952745 2.847658 2.350227 
29.230434 3.058012 3.504712 
-9.955403 27.934217 16.570427 
16.017494 21.040890 -1.566875 
-12.201400 21.881414 -1.530046 
14.432155 28.497831 13.191647 
29.024878 3.767027 3.927346 
27.900061 -6.808278 8.637272 
-21.070728 14.262915 9.906916 
14.857083 12.856721 0.573949 
5.326450 31.903885 15.033182 
20.888128 16.360561 14.527382 
-16.536789 21.099491 2.893365 
28.282848 9.861252 18.151684 
-22.941591 19.700939 11.477180 
6.582188 25.969847 -5.659127 
21.496479 20.920544 8.777397 
4.065040 29.374868 4.298316 
23.157476 4.533032 6.893274 
-22.627497 4.879233 -0.885782 
28.834053 -3.432794 12.468260 
14.697679 29.914883 6.968697 
-20.999146 11.981034 10.862638 
-3.213139 31.328447 9.104982 
8.740321 18.088322 -0.218071 
21.516148 -2.209697 17.010153 
-27.852480 -3.064490 6.193122 
26.027279 -6.098485 10.940034 
-30.864719 4.155085 7.308880 
20.374058 11.969387 5.790752 
25.108158 4.194237 7.228346 
-13.728650 27.000849 11.061883 
32.425655 -0.215846 7.772194 
-22.724190 8.483862 6.906343 
26.538773 -4.474689 15.894239 
-20.926292 -1.387122 5.553051 
19.905350 5.679040 0.078611 
18.452543 24.889509 14.031688 
-5.433846 28.350813 10.481041 
-5.128313 29.351553 5.659385 
29.720734 -9.551867 -2.053984 
29.505484 -1.609043 3.879611 
-22.801659 -3.500053 6.374311 
16.610249 28.296362 11.157274 
-25.808502 5.245719 -1.170804 
-27.940531 -2.668699 2.135594 
10.143962 22.293509 -0.084812 
-21.684675 5.654437 11.733235 
-16.995718 8.720003 0.057546 
14.395469 29.034864 11.145744 
-1.284942 27.864252 0.454270 
-30.574003 -13.114398 9.039490 
-12.033039 23.306627 -2.619584 
13.740413 9.849046 -4.016222 
8.479539 22.829624 -2.911096 
-20.807476 14.407666 4.226226 
-8.393612 16.240498 -5.488960 
-14.637898 19.984053 -0.685452 
-19.838486 -1.525887 0.712713 
-14.573129 10.143275 -4.186522 
-2.055556 22.873394 -2.436907 
19.487658 4.733595 6.534078 
-25.098528 -15.274918 1.886156 
-7.501274 17.746443 -3.538224 
20.564400 4.466363 2.535554 
26.696238 -3.142382 12.507222 
-11.362298 25.551836 4.150780 
16.647272 13.090391 1.684653 
-26.783442 -11.237873 15.441842 
10.243617 29.366924 7.993788 
-18.087090 16.151342 -1.191418 
15.625061 19.727356 -0.142251 
8.187007 20.735401 -0.067540 
-27.686853 2.072230 7.256488 
28.024174 4.775164 1.911339 
-19.724710 20.405704 7.139416 
-17.572346 13.861259 8.017056 
-2.511479 19.066107 -4.499753 
24.930374 -5.973153 10.504978 
27.735004 4.768570 13.221013 
-33.645031 -8.868181 2.502724 
-25.691334 14.466986 9.411752 
1.465199 27.483881 -0.048087 
-29.814377 -3.262626 2.363940 
9.502275 26.951162 8.518312 
21.292028 0.916697 8.685700 
-9.102223 15.352259 -7.165922 
-25.433245 13.062910 3.165087 
-25.917875 -9.881667 8.848307 
-19.093723 23.546137 9.672918 
3.596235 22.597755 -0.762657 
15.333490 24.114525 4.301727 
21.183327 -3.845313 2.300495 
10.798092 29.519478 12.748135 
22.753386 2.606022 13.305475 
-16.003061 18.365156 14.696800 
-10.598739 24.379177 -8.543094 
-23.420887 13.638402 1.037487 
22.219107 11.807335 -0.248050 
-9.622124 18.787909 0.676117 
-20.931688 8.121355 7.749707 
-6.746667 27.869438 12.756328 
-28.766127 -2.703000 12.520183 
-26.356749 -16.013344 2.461548 
0.562748 35.069317 6.031005 
29.260300 1.703067 -0.772474 
-12.068501 24.066063 15.412633 
26.088215 5.732956 12.732254 
-26.403139 14.134379 6.807117 
30.132254 -15.109267 13.737567 
19.662586 13.443226 0.710103 
16.523460 21.837925 -2.019476 
11.030046 24.530451 6.630780 
24.227446 17.011469 12.398740 
-29.961330 -10.972465 13.861235 
-31.497971 3.948150 8.645950 
-23.468920 -4.442110 6.425520 
-13.233026 24.295286 -5.840969 
-23.199631 7.936452 0.133044 
26.633408 5.500049 -0.606767 
-17.525999 26.312580 7.113933 
-6.855918 26.196777 12.235349 
2.760506 35.709267 7.747230 
-16.114637 22.977228 -4.986553 
10.485291 17.722767 -2.626425 
-11.365394 27.365845 6.723056 
-34.230686 -8.530760 9.783911 
23.329821 18.222342 18.341017 
7.498371 22.811394 14.498644 
-9.336019 20.008556 15.029268 
23.712952 -1.087222 12.434565 
2.466993 27.593645 6.329586 
-25.694355 -12.228063 2.045399 
18.639849 19.897722 2.135553 
22.527620 15.778666 13.361387 
-3.518397 27.993492 -0.177828 
17.867121 20.292240 15.429173 
-10.484152 27.284094 1.456961 
-31.594522 -12.105426 14.497979 
-27.950832 -4.606238 2.668092 
20.921213 17.415695 10.869574 
11.669789 26.304171 8.319691 
-31.119944 -0.023923 -0.424261 
26.128712 7.145817 -4.651244 
-31.350245 -2.187370 -0.058808 
3.293113 30.066502 7.364541 
-15.999978 16.230743 15.079613 
-5.993835 31.538338 8.675714 
-5.840689 33.229374 11.293591 
-8.469656 16.942898 -3.114247 
-27.791521 12.781419 8.871118 
-5.860219 30.613848 12.767113 
-11.021103 27.553581 8.016130 
9.841507 17.244276 -1.721058 
20.071363 0.162961 -1.245616 
16.759859 10.437605 4.281534 
-21.317019 11.852818 -1.494745 
-22.641243 -5.456350 6.010355 
16.213543 8.022396 1.210664 
-27.813547 12.734380 9.700801 
12.742158 16.185543 18.330938 
30.931690 -6.974984 -0.999290 
-27.522102 -3.280081 5.433872 
-17.482815 12.858575 3.810076 
35.016289 -4.834480 10.089278 
16.564745 12.725949 -3.034634 
23.546650 -4.773757 6.827423 
-10.708684 25.366409 -5.810076 
-26.894695 12.735676 12.485716 
-6.867537 28.032682 9.523528 
-12.865008 19.463209 -0.849386 
13.919257 19.633478 12.022460 
4.971344 29.656788 16.798040 
-26.645044 -10.983829 13.351298 
-22.875231 -8.105405 15.674738 
-14.522637 18.326429 9.260383 
24.085588 11.280900 7.034909 
20.580675 0.212139 15.601254 
-21.457987 -2.201320 14.182616 
-26.571686 6.615798 1.049684 
11.420657 31.133663 9.097830 
-31.422407 -6.525582 1.772925 
-26.235058 -1.683778 -1.055834 
18.466208 14.911890 -0.191277 
14.209510 22.252054 11.598780 
-23.924759 1.210797 0.987750 
24.507328 2.588199 -1.862035 
1.388803 28.000975 14.965569 
-19.508522 13.998565 13.762199 
-33.317482 -8.411501 -2.532705 
2.765333 21.448898 1.311309 
15.468796 11.059464 1.752924 
19.370815 18.453539 6.332965 
-4.697928 26.284897 4.292841 
29.779745 -6.976076 16.179796 
0.714836 24.381279 3.136210 
-18.776144 1.239466 -4.258758 
28.878670 -4.810712 12.684322 
-20.227444 -1.382343 1.598539 
-21.524569 20.279909 14.581732 
-2.883347 33.432934 13.962695 
-3.931528 35.018433 10.710977 
-26.835127 8.140385 -4.745115 
-12.377487 17.451221 0.569829 
-24.358088 -4.240666 15.013696 
-21.059795 7.457366 -3.353499 
26.677633 5.824014 8.502666 
7.042813 22.555048 3.302095 
-22.642494 -10.511790 3.578259 
-28.155851 -1.450395 12.824580 
-19.128580 4.061373 6.221684 
32.123215 3.174729 9.427029 
-12.049596 18.485207 2.659874 
26.710899 -11.615382 9.299582 
-33.727108 -2.872296 15.628088 
-8.971725 19.419596 17.184982 
-21.326715 0.000178 8.606028 
20.506424 13.712518 2.510925 
-3.416743 29.654692 6.941858 
33.654591 -7.016760 8.611781 
-18.182407 19.256088 15.226161 
-14.108852 24.522816 -1.595160 
-27.614559 -4.280060 16.226114 
-6.041821 31.256086 9.532358 
10.407277 29.745886 14.993772 
31.145235 -4.585129 -0.636288 
-21.249479 0.270562 13.683934 
12.156327 18.222048 -3.400048 
-2.032702 23.061419 17.137026 
-21.471306 8.393256 13.278305 
9.652384 26.049252 8.754215 
12.943773 25.870522 4.886612 
-5.896378 31.629757 10.403922 
7.955833 25.680523 5.301443 
-27.474178 -3.469894 15.883018 
20.264736 20.617981 13.852551 
4.020920 27.671556 12.726062 
5.504543 17.871912 -4.078674 
-16.562517 21.276402 2.059241 
-11.404657 30.730520 11.204982 
-28.439148 -10.966889 15.940508 
-21.132269 16.442131 -7.506137 
-6.819460 27.139196 6.489243 
16.479473 16.624128 -4.134269 
-6.601477 30.523939 6.556416 
30.110361 -3.193434 14.705132 
31.645592 -16.213783 16.558807 
-15.210678 22.377480 -3.893386 
14.998085 27.096981 17.098969 
-32.725807 -10.377057 10.316169 
-21.500835 5.307411 14.131709 
-21.657118 -8.425890 -2.408499 
-14.024240 22.096983 8.996175 
-13.935904 14.180544 -2.735060 
-3.531049 30.075924 5.954106 
19.064718 2.453750 3.223658 
-4.501229 31.388216 16.544115 
-7.914638 29.935762 17.506702 
27.315208 3.990706 -6.672704 
-5.848317 26.684574 5.815278 
30.905035 -15.061252 10.124275 
-19.602335 20.446997 12.334328 
-2.373333 23.437723 -3.068173 
-14.007003 25.464855 2.234411 
21.459177 16.899555 2.401046 
22.221889 8.248198 11.461446 
-30.593849 6.064576 12.515309 
-13.539341 24.023386 7.153664 
-17.798716 9.624491 2.119386 
-8.674095 25.150467 12.014065 
-19.112209 14.188578 -2.001197 
4.836920 28.414322 10.639518 
28.633268 -1.889926 0.733435 
-19.660580 9.985124 -2.902032 
-21.542025 12.235781 5.556680 
-21.171358 -1.537072 12.654243 
22.077097 13.141654 2.891586 
19.797455 2.830283 1.281297 
17.450449 20.513744 -0.322426 
23.428530 -4.495604 1.648993 
16.604071 4.578759 -2.213395 
-25.616787 -12.765834 5.208035 
-4.257835 36.027916 5.514177 
-7.030439 26.695318 10.550616 
-16.748692 20.411957 4.364621 
-16.809624 17.939684 -0.088104 
2.811007 22.460114 2.473126 
15.291734 28.912504 11.297893 
-28.274302 -1.439023 7.281603 
-24.190292 12.126039 -1.083902 
15.526392 12.261052 13.479210 
20.569820 0.369202 14.620340 
0.685206 26.194704 -6.997782 
16.053719 13.141284 11.854859 
-2.201291 26.754309 -5.383130 
24.859083 9.292083 3.838252 
15.782038 26.877344 16.343422 
-22.155632 -7.931188 5.885630 
-23.209936 4.809036 5.608295 
-23.775221 16.616476 9.874631 
-18.976429 1.494442 3.895185 
-31.452297 -7.466382 7.475389 
19.740162 -1.141120 7.764681 
29.314623 -11.095385 16.480503 
20.701452 10.101539 6.324891 
-6.780811 28.428820 2.183858 
-3.622806 23.559238 -3.083834 
20.034338 -2.001590 -0.064644 
-26.640434 13.437246 14.651633 
-8.231354 20.087639 17.000198 
23.924660 -4.892078 4.109725 
-0.694000 26.916142 11.250137 
25.746506 11.313902 7.821420 
-30.377392 -11.950415 10.870356 
21.155972 17.794106 2.615354 
0.396468 36.280907 9.347306 
18.360765 20.145966 4.664711 
22.720585 12.203805 0.792734 
-27.299669 12.675381 17.548006 
19.715597 12.230177 6.886656 
23.546257 -9.495860 15.739238 
17.980936 14.800227 5.964002 
-22.352531 17.128752 5.631028 
9.915695 25.020662 11.533751 
17.565046 13.800223 5.843813 
27.024523 -14.673833 13.132420 
24.223150 11.914677 1.640113 
-2.618846 22.624886 2.394307 
-6.570990 29.637077 13.635137 
24.622984 -11.414735 17.719610 
23.249613 3.547885 8.809410 
-30.303497 0.574129 1.592353 
-30.705715 -15.257304 1.073424 
0.298153 24.553188 -0.176092 
17.069834 10.570761 6.074574 
-9.443581 26.018606 12.818229 
24.686897 -9.082939 13.739721 
20.941761 4.769952 9.375457 
24.166742 7.589709 1.457560 
15.364955 16.898218 0.618742 
19.258799 17.448019 6.556945 
-22.569988 14.801013 -1.033093 
28.067833 -5.572445 10.776887 
29.409674 1.516295 4.932807 
22.426849 11.415970 13.716683 
21.567801 -9.546351 -2.213060 
-21.319376 16.765970 -0.643484 
-4.903818 30.659662 13.929955 
-28.530029 10.457584 18.337744 
-24.627872 -8.333164 3.700477 
0.567797 28.159569 3.713354 
-32.492905 -6.990341 5.431495 
10.796011 20.837042 3.803763 
20.448196 8.793647 6.544746 
-1.244881 28.509209 1.695422 
-18.648060 15.279534 -0.827995 
-3.656010 27.451315 12.044748 
-7.337904 16.367514 -8.749485 
14.356789 8.529918 -5.352436 
17.298693 25.762079 12.493792 
-19.856140 10.272801 13.371121 
27.498180 -15.042674 17.635239 
18.476738 16.781988 6.794722 
8.960854 26.389214 -0.289776 
14.585055 11.856611 1.163539 
19.709023 22.781223 5.619873 
28.267559 5.806871 10.183848 
-18.785862 11.680816 9.180121 
-30.192305 -2.029117 12.549178 
21.761148 21.646677 14.370815 
11.196010 21.340839 4.470026 
21.556715 13.396774 3.744691 
-11.221542 20.803814 11.914168 
-16.735910 20.024408 10.361654 
11.420034 14.378086 -1.778525 
-23.727549 -9.190952 12.361933 
-26.302071 -12.908556 2.294405 
-27.925983 -10.580378 16.545782 
18.733067 16.821045 -4.123529 
13.279549 24.769558 9.438843 
-7.377573 31.219736 12.193231 
27.014566 -3.300017 7.653167 
1.013846 27.603565 0.655836 
-33.310478 -1.872415 16.599628 
-26.197517 -16.002600 3.591023 
-15.437399 24.189756 1.890211 
12.266637 24.807522 6.875580 
21.638847 15.567877 -1.726125 
-23.205305 -12.776009 0.583173 
-24.032745 -10.658866 14.680745 
-30.347820 -15.520021 3.643561 
-0.770083 27.566576 -0.369679 
-22.119822 6.705572 -1.825148 
-31.006979 -9.174323 9.568069 
-17.958040 15.984809 12.255998 
21.736423 21.877270 15.213470 
25.481192 -0.379984 7.182953 
-5.229509 35.815578 8.001040 
-19.378155 4.852981 6.196093 
-7.436190 21.263449 0.255679 
-19.165651 14.039254 5.209417 
-11.397220 20.032099 12.555379 
-29.572330 -12.410609 10.711560 
16.254425 14.367150 -3.981889 
-10.224805 24.312710 3.636042 
15.129498 21.410648 -8.510449 
-23.248819 9.868815 6.768375 
-25.498074 7.643227 5.611795 
25.470165 -8.576082 9.903880 
-28.995052 5.225772 6.486967 
-13.360961 20.981607 5.506539 
-20.833237 10.803442 13.771851 
-12.701601 26.439898 9.391200 
-26.225500 -6.421900 3.573217 
10.616719 13.803370 -4.567119 
21.898542 -2.887286 -1.030918 
18.645555 1.395332 2.340869 
-2.233477 26.025507 -7.614046 
21.204586 -2.983898 8.073070 
21.199100 11.725737 15.058147 
-28.188955 -8.963987 13.895236 
-5.363318 33.294682 6.487626 
-29.779385 3.556511 -2.469202 
-23.936659 17.266235 10.598001 
19.289455 2.188874 2.311987 
-5.616107 28.834112 11.167430 
-20.667679 4.088896 0.260331 
-25.688534 3.348235 15.558141 
-29.045414 -16.142967 3.890639 
16.276991 5.574153 -1.576265 
22.509148 4.433096 12.964752 
-13.018136 20.220972 10.180109 
-14.680655 27.047417 17.183187 
30.409132 4.065568 14.277817 
-26.740694 -11.968589 14.216760 
19.001869 -0.550838 5.080194 
16.170486 22.649712 2.409836 
32.981575 -13.699557 10.475831 
-29.238167 -7.596203 17.034033 
-23.977703 16.440342 13.265641 
-21.125959 1.843090 14.422645 
-20.015182 12.808233 6.333481 
27.641573 -2.027717 7.527814 
13.735290 18.153082 -2.131516 
7.615457 26.361801 -2.650182 
32.327614 -1.933575 10.922586 
-28.237152 -1.132597 2.128931 
9.352355 25.975477 -2.692507 
28.595615 1.833537 6.511507 
-2.792648 26.339476 13.688439 
0.263015 23.278938 -0.395611 
-8.965638 27.360977 9.936018 
19.502647 5.428719 3.748384 
28.040989 5.383889 7.174004 
17.328415 26.719015 6.209366 
7.722155 24.395569 -8.813924 
-18.009474 6.807548 18.229544 
-23.773672 -12.618382 4.252449 
-24.769732 -2.738576 7.408948 
27.067171 4.492332 12.065185 
-28.873343 5.092047 -1.161949 
-7.645396 23.147200 -4.000076 
24.273867 8.602077 -1.745129 
-23.320583 -8.006645 1.862957 
26.317902 -2.680059 7.523209 
-17.037836 6.174807 -2.871975 
-1.723462 25.889553 4.364504 
-18.898050 16.327148 6.510623 
-9.233837 23.258404 2.940730 
-27.468161 11.845864 13.632534 
-32.488693 -10.965187 8.307304 
34.781891 -6.731347 16.172756 
-30.034035 -14.446337 4.123708 
23.922531 11.676594 5.279717 
-5.998451 35.405975 7.661561 
20.196928 14.601657 -1.569113 
24.889793 10.493802 0.205842 
18.220377 0.636650 -5.962262 
8.374228 21.222330 16.146614 
8.059252 28.841656 14.425385 
32.350994 -3.644941 11.011241 
8.182347 20.974501 -2.224699 
25.477917 10.558228 6.045255 
28.441732 6.260419 8.919030 
5.575979 34.699875 13.317060 
29.837952 0.389732 4.680214 
35.935909 -12.625833 16.324942 
-28.323662 -11.326423 9.550158 
29.112469 -15.256157 13.366349 
-32.455288 -11.159795 14.398517 
15.416873 20.838848 6.496761 
-18.214140 20.113346 -7.800650 
12.000061 24.999567 -0.482826 
18.527548 19.779253 5.704308 
-32.866943 -1.489210 11.241002 
-30.815128 1.222604 -1.836435 
21.291878 14.090611 -0.155072 
23.404539 3.437006 7.824199 
-10.079620 28.796261 5.971447 
13.931154 13.567419 0.154755 
9.717877 32.139305 13.958462 
-13.790761 24.763113 16.359623 
-2.665757 29.287178 9.739540 
32.670525 -8.113787 9.474751 
10.380596 25.486715 1.527010 
-24.641130 8.978551 13.679471 
17.091522 21.327696 15.417829 
28.659527 -7.447623 12.842924 
-15.504095 22.590103 14.044690 
27.761211 0.717590 13.500571 
-2.405560 26.105122 -2.281865 
-28.915611 -1.367799 14.643850 
-22.688072 15.037094 -4.360618 
32.053799 -16.057356 17.600178 
17.429564 21.125231 -2.515943 
36.082897 -7.943077 11.904668 
-32.799599 -5.397467 -0.476437 
-3.078779 30.163813 17.030880 
19.349451 13.049572 6.646523 
-10.984690 29.850218 14.040174 
-10.242239 32.186611 7.185444 
20.788603 21.893026 6.618297 
23.506094 11.859448 -5.432374 
-30.282881 -13.054749 2.796530 
2.251519 31.577759 12.146252 
-20.586861 -2.249326 5.474633 
33.039745 -9.427907 16.776894 
-31.516705 -4.049680 1.312702 
8.958349 14.453458 -8.515670 
27.910334 2.170886 -1.353191 
21.056768 0.075499 10.738788 
-17.415085 9.046569 12.399788 
-28.543644 0.798184 15.514233 
-21.668905 16.641821 13.273264 
20.302057 5.012703 11.319309 
-13.952297 19.226452 14.071397 
18.892113 5.731816 12.412543 
28.333233 0.118858 8.111123 
13.190433 25.623274 13.957280 
18.420897 20.150026 -2.384834 
-11.938837 29.947725 12.592042 
28.785345 -0.114691 7.278634 
-26.519159 13.875373 17.426388 
-26.612621 -7.495909 0.878662 
-26.454052 -10.913652 1.454423 
-31.002777 -0.260841 -4.148371 
-11.294178 23.757347 11.861092 
27.540117 9.950125 9.979070 
27.011179 5.290004 -1.613124 
-1.787853 18.271938 -9.155957 
-15.855742 26.496552 5.671488 
-21.669781 14.858836 12.952165 
-22.063337 -10.144718 -0.071299 
33.033630 0.252965 15.021315 
-6.131395 32.143772 9.322265 
-2.421828 30.118345 9.499296 
-5.114378 26.556669 3.508582 
30.176804 -0.204705 -1.011274 
24.187481 4.031960 7.006932 
20.705713 15.814213 5.246780 
23.249058 6.498153 2.821636 
33.120758 0.404072 16.031239 
-5.067812 25.527647 -8.520888 
32.655567 1.533953 16.202204 
15.530265 19.425505 0.684926 
-32.364788 -10.981397 2.797393 
14.756999 21.226923 -1.589611 
18.498005 18.250677 6.976557 
-25.412853 7.764997 4.253419 
16.769539 11.519819 13.288293 
9.504339 20.792044 -2.376023 
-23.748608 -5.472730 13.585317 
22.171963 1.119855 6.740735 
10.853947 29.328562 17.275942 
20.743595 10.960686 7.737504 
-27.614494 3.603284 -1.507713 
24.978098 15.502749 6.883808 
-11.026789 14.212996 -4.649960 
-16.825047 20.238274 8.997258 
20.926371 11.010019 14.653755 
13.836709 28.840242 12.006617 
15.615592 11.848020 2.128796 
-13.900986 16.096066 11.049036 
20.670218 13.957223 1.721045 
17.989370 18.429001 14.732346 
11.747655 32.737019 10.091150 
28.444788 -14.692569 8.993301 
-13.953568 28.986258 7.816700 
-6.681303 21.610191 0.631791 
-27.248840 10.562114 5.944504 
23.414503 11.532251 -6.672028 
21.310905 16.334152 -4.572532 
-21.997171 -9.956120 0.800839 
-25.887043 -12.051541 13.600603 
-26.065275 -12.297722 10.798090 
-3.136098 21.021399 0.268857 
29.492451 -4.692296 11.557972 
-19.692745 21.175344 7.879362 
16.584574 23.198406 13.029628 
30.203306 -4.695423 14.643058 
-6.812364 32.629795 6.832376 
-17.867165 13.442042 -2.318732 
19.358702 10.889062 -0.879763 
-29.827690 -4.319570 3.816283 
-10.625122 22.084484 -2.381985 
29.520155 -7.303912 8.776991 
13.958014 22.151945 -1.971803 
15.399530 10.326666 1.188745 
-2.746320 24.836515 -0.685414 
-21.422424 -6.854617 -0.063387 
25.722286 -12.796826 10.878810 
2.348383 27.011265 -1.242308 
-11.309192 25.527966 -4.214042 
-8.813358 20.095755 15.875885 
5.186812 22.076014 1.264235 
32.256699 1.879192 9.697598 
25.017811 8.846366 1.188538 
26.706648 8.770287 14.077202 
6.220666 26.304743 11.090734 
-24.239901 0.750165 -1.900311 
-21.436350 2.419702 1.283384 
-24.450663 -10.794690 13.601429 
-0.048499 33.895851 7.718463 
-15.266243 22.980976 -6.857064 
15.998449 24.043108 13.046171 
34.161175 -11.254543 16.630981 
4.613728 25.992054 13.171359 
18.863184 19.684196 1.351730 
29.976095 -5.667823 12.656862 
28.634706 9.190354 15.594480 
34.922981 -4.738180 13.415715 
-19.083385 2.476426 2.882422 
4.380255 29.535694 15.961098 
-9.821014 18.918051 16.403873 
13.601007 15.740054 0.442559 
23.152422 7.487597 0.674826 
23.921829 8.644511 14.424404 
-23.232525 -11.924995 8.980104 
-21.481770 7.533830 10.167913 
-0.245260 23.916214 1.929122 
-27.695181 9.615787 12.573455 
-30.571781 -1.948957 7.904750 
-27.415941 8.407695 11.386885 
-19.497280 9.098803 0.823558 
-21.110912 15.245009 4.096539 
20.630354 2.470783 2.430204 
34.574757 -2.733427 17.870060 
19.870539 7.101004 12.348419 
-3.810886 30.800278 15.970737 
-13.772566 27.578991 8.391733 
-11.066938 28.170883 18.653406 
-23.858776 13.220770 -3.476374 
22.571955 12.922585 -6.767945 
-24.454050 -4.616910 4.155001 
19.023880 -1.782905 0.516884 
22.187376 10.575574 -0.633750 
-22.209345 -6.378016 6.719133 
17.711454 13.633915 12.214769 
22.304672 5.240748 11.327192 
23.770544 6.985084 2.016439 
2.498197 24.006935 15.609353 
-22.383270 15.489674 12.926544 
-2.352856 24.576164 3.781327 
-21.661003 15.673676 -0.662941 
-29.839836 2.806244 4.189413 
27.039696 -13.841154 15.324435 
1.964625 29.582790 12.101990 
-19.053217 11.611935 7.299949 
31.287643 -5.894105 16.042826 
19.349903 11.300464 5.363318 
-24.960785 2.993232 5.998479 
27.300268 4.135312 15.485041 
-29.518932 -10.499887 16.310143 
-19.802685 20.047346 1.204998 
-18.461079 14.924217 -3.709019 
-8.374512 21.910061 13.684946 
-13.119432 22.715513 8.327397 
29.261015 -3.758564 14.951653 
-20.386539 11.004805 -2.314020 
23.281048 -0.647499 16.041859 
15.509506 21.879204 14.189508 
23.530300 -5.502724 11.517592 
14.434636 19.543203 -0.222093 
29.472517 2.432958 7.201971 
21.824619 21.181484 16.934958 
-13.247551 26.248001 12.489096 
-20.829285 6.670854 2.897485 
25.506079 5.086030 8.755457 
10.836981 31.448051 13.423613 
-30.938013 -3.985713 2.000358 
-7.883940 28.219717 1.249622 
4.274825 37.071079 8.031225 
29.825941 -0.761772 3.518794 
-16.008707 23.750978 6.345014 
15.269662 12.777731 14.366272 
-19.428789 13.682822 8.098410 
-3.352435 28.769190 12.849698 
23.521252 12.581264 2.155227 
19.058889 17.400328 12.600824 
14.451140 23.728638 6.566832 
-8.368520 26.539471 10.107610 
-23.058697 -8.100005 17.089157 
7.804035 25.801100 -5.367940 
8.818504 25.445511 -1.566171 
-25.305843 -1.418255 -1.293003 
8.468499 28.058584 9.715706 
-25.937893 -15.693485 5.728658 
-17.071358 19.333578 -0.518063 
20.183960 13.522245 4.354989 
20.361357 -5.428575 1.351185 
28.952320 -0.707061 0.294488 
-16.402676 20.441769 3.502515 
6.891386 35.812073 9.736805 
20.931713 6.228913 2.526923 
-17.557838 13.581642 -3.088650 
25.921110 -6.010782 11.771515 
-24.066914 6.636582 10.675541 
-11.825835 19.349796 3.060736 
30.021236 -13.518043 13.106493 
0.434602 28.129375 10.776148 
24.461834 16.972731 8.726336 
12.852268 28.654163 16.037218 
23.128962 -7.408321 16.623014 
-15.948139 24.543737 15.570317 
-21.721132 -3.402985 4.094745 
-10.015276 19.698938 -2.511452 
-17.847784 22.246964 14.125243 
28.520290 -2.193320 6.766643 
-21.520378 11.168760 -2.805052 
30.861797 -4.831953 8.607622 
17.479431 12.480748 1.453848 
26.718836 9.758498 6.033827 
-30.895313 -2.239235 0.781809 
17.053389 25.466625 9.036120 
-31.095522 5.436445 12.034481 
12.264415 25.598211 4.311106 
-22.929312 -12.428570 2.923201 
-15.805403 12.916905 0.102219 
9.769357 28.631842 7.225797 
-6.182219 30.754930 16.712595 
-16.600216 10.815542 13.014734 
26.771938 -9.822754 12.743156 
35.583210 -9.192556 9.388021 
-21.333485 18.616339 0.911319 
-27.924713 11.995943 9.339117 
-18.351860 6.112532 15.455594 
