-29.738165 5.648028 -1.828931 
-0.913143 29.664207 4.756412 
21.585373 4.589360 -3.206370 
-22.235355 -8.488052 18.120377 
-27.428883 6.572838 7.590508 
-24.305408 2.850561 6.586502 
-17.511959 10.933169 -6.279496 
1.612432 27.673588 1.693469 
21.740383 5.907295 10.630023 
23.025129 -5.788554 10.247825 
-14.444134 24.965670 13.177160 
28.508078 1.466369 -0.078293 
-16.911238 12.031326 18.271429 
-22.802393 13.178288 13.676896 
18.390268 1.345144 4.085225 
23.281519 -8.936337 5.390459 
9.111869 29.913342 -7.048925 
21.736506 -4.443213 5.643548 
-23.050243 22.693449 8.741416 
-21.668358 14.560025 8.825099 
20.581804 9.203658 -2.067927 
18.359907 10.489221 12.149893 
20.273367 4.746236 4.942359 
-33.541283 -12.941162 14.545641 
-21.007401 26.193405 8.979939 
16.669582 17.213339 -4.226494 
-22.599815 11.640523 12.091251 
14.894737 24.769611 9.915094 
-19.768457 5.666546 -5.602293 
-4.654475 26.794437 9.624969 
-9.377581 24.347298 -0.216791 
30.154676 -9.877341 14.941164 
-31.160019 -13.215844 2.834811 
7.557301 29.545830 10.912948 
13.531720 16.210171 11.295650 
21.320934 23.517834 -0.723377 
23.084059 -4.864347 4.085900 
-21.329046 -3.109961 15.376585 
28.385183 7.364314 -4.759467 
3.802072 26.375641 8.239697 
-19.592918 12.248435 4.410663 
21.297714 9.162517 10.942747 
-27.153393 -13.251785 6.401460 
29.770281 0.791054 1.122929 
12.691922 14.112300 11.397723 
-33.330971 -1.760101 9.884963 
24.895260 13.647831 0.247115 
-1.396756 22.445953 -7.870914 
-26.242451 -1.675877 6.893662 
21.092102 -9.840226 2.760271 
-21.033997 14.433748 10.277983 
20.242254 -9.082160 14.970611 
-2.138525 29.265839 5.728288 
-5.183279 26.355093 0.816788 
28.907055 1.369897 1.441818 
26.337351 7.004087 8.838840 
19.865059 8.906245 1.030181 
-21.644562 15.118222 7.862504 
26.096453 -15.129328 10.334189 
-20.788506 21.236092 3.640350 
22.065691 13.987905 -2.614032 
2.575028 27.113848 12.673584 
-32.296001 -15.241862 13.399413 
2.734083 30.699821 -5.281370 
-19.954317 17.057604 -4.443669 
-27.519173 -8.898852 6.895266 
1.336996 31.379946 8.478221 
14.627984 16.863760 9.722896 
26.309244 -6.981204 -1.999927 
10.300848 26.374596 2.419783 
-23.283314 -12.557013 9.987354 
-30.513676 -13.558704 5.867799 
-29.524811 2.240861 12.382718 
30.580746 -9.133615 15.062399 
11.074456 27.882402 8.745641 
-17.597263 19.642651 3.671858 
16.795713 9.266305 8.855440 
-30.690628 6.913957 9.834962 
19.011679 4.072965 3.830812 
-18.799583 9.850623 13.253894 
-9.083570 26.040913 15.732482 
29.577089 -3.382610 7.595932 
16.129230 13.371527 0.438599 
-18.931190 26.933258 6.157413 
18.612915 -1.788386 11.533638 
22.357033 12.058489 11.829431 
28.670843 -13.982708 0.949167 
-33.527733 -6.135334 -2.869787 
24.868921 -13.085990 -2.772655 
-23.347803 5.984763 8.047895 
20.942064 13.469532 8.553944 
18.646999 8.201109 2.774538 
29.768766 -13.805449 13.211006 
-21.175850 0.962207 -5.003434 
6.194747 27.324404 -1.776385 
19.928019 -1.010386 5.421395 
24.871500 8.371784 7.343056 
27.696377 7.554482 0.145623 
19.222872 13.009418 4.993555 
30.830912 -11.110532 4.335253 
-31.751692 -9.486824 7.475238 
-21.239164 0.034126 -1.641474 
-29.269522 4.377930 14.792186 
-28.911755 9.571980 18.483139 
-22.487675 -10.010769 4.021011 
13.563207 13.581179 12.551224 
-19.210308 7.208816 -5.799586 
1.904771 30.476816 -4.585835 
-18.461637 21.361042 14.436671 
-6.187203 29.703117 0.577245 
-17.031885 24.664251 14.190357 
11.879483 29.667181 -5.352362 
-20.755035 2.084969 -2.459394 
-25.072462 -0.282798 13.789724 
-24.084026 16.817530 -6.945816 
17.310469 0.923775 15.011662 
-24.836899 10.765627 15.011104 
27.763348 5.115851 11.658246 
12.972169 20.605305 4.853256 
20.316383 -4.089459 7.530087 
22.803711 -1.575959 0.855556 
-10.780748 22.554884 11.527949 
22.782171 10.886571 4.985615 
26.481277 7.948823 4.569439 
-27.127880 8.834797 11.187028 
-26.741781 13.489973 -4.829982 
14.576900 24.935146 6.690586 
31.453825 -3.521577 1.250008 
-16.934399 18.190845 2.835037 
30.238611 -10.373013 0.172976 
-19.804768 18.094149 15.028253 
-8.921458 20.627739 -6.473718 
21.218466 9.455670 6.421437 
-21.673250 2.391492 6.411923 
-25.230848 14.309979 11.358421 
-30.003088 1.787429 8.826944 
21.243736 17.746962 2.119696 
-22.394815 7.616577 10.627024 
-23.377893 -9.683680 5.839406 
-18.573977 21.773682 3.025835 
-31.014093 6.401537 10.488411 
-14.728971 15.548335 16.885374 
-12.148597 22.731232 -3.800569 
13.754104 27.065422 6.338141 
-20.010910 13.246503 2.376793 
-19.029696 11.559013 12.512788 
29.508043 -4.932190 0.057854 
0.057233 29.612249 14.268978 
25.390886 8.957603 3.903780 
-2.251762 23.154745 -5.047412 
-29.253485 -0.847936 7.061785 
-24.276360 20.985933 7.931442 
30.980711 -3.145827 13.789666 
11.161780 20.952572 6.275184 
-23.857826 1.059321 11.878908 
9.752445 14.979245 14.641736 
30.314175 -9.685523 6.987302 
9.211317 30.687029 -3.532897 
26.899300 -2.354822 2.284832 
18.542845 -2.862491 15.051808 
19.427269 16.633284 2.124430 
29.005318 2.904831 11.860001 
9.783642 22.074383 -2.793724 
-28.451523 10.223425 -2.335249 
-24.326035 -0.344463 -1.982572 
-24.182644 11.613578 -3.045238 
-21.744169 -7.422942 16.165268 
20.134348 21.934093 4.909382 
-31.173767 -5.384449 13.133188 
-9.011168 28.201990 5.805203 
13.529984 19.100517 12.968890 
-1.627399 26.965319 -3.869645 
-15.790433 22.173805 1.908844 
4.876332 29.203022 -8.773311 
7.076180 30.566338 -4.256774 
17.713295 20.294144 16.436428 
-24.044054 -15.384522 6.364853 
-7.931476 25.622025 11.842701 
26.692772 -1.039196 3.961942 
31.242764 -2.507405 17.114149 
23.212988 -13.708926 12.308935 
23.961409 -6.555324 6.091418 
-19.690443 27.376810 8.651622 
13.722570 24.866774 13.517738 
3.756596 28.335260 -2.479127 
-28.293421 10.959772 8.168664 
23.116154 -7.407286 -2.099954 
20.159197 -2.758645 -3.223529 
22.812820 -1.374087 -1.037286 
21.865273 6.558187 11.879032 
-0.718630 30.243965 -5.298378 
-21.566299 7.357391 4.970694 
22.721626 20.770908 -3.439138 
-22.108358 -5.184222 -2.122772 
-20.774479 14.908649 8.621456 
-23.505882 13.241589 14.162656 
21.464914 5.985818 5.736729 
20.084482 -6.843110 17.285164 
29.598255 -5.740545 -0.121312 
29.043207 1.314427 8.455017 
23.473768 -4.324706 11.863541 
-19.487293 10.612563 8.500561 
-8.017337 28.630121 14.254099 
-24.089708 7.810030 8.273345 
6.435987 26.455425 0.243789 
-19.054533 10.144416 12.405797 
16.005703 12.578955 1.173482 
18.826630 23.768679 3.620803 
-22.916605 -0.669438 10.891440 
-19.574217 23.352325 13.984308 
-11.836672 17.475008 18.237434 
-27.322172 8.794334 2.758989 
-22.300766 -1.521780 5.766429 
-27.307421 1.504099 7.836765 
-23.643629 -9.506896 8.109044 
17.660641 24.593023 -1.869974 
20.460184 6.739694 -2.139334 
-6.184243 25.837278 11.693697 
10.496068 21.100183 13.482684 
9.634215 19.342419 7.810294 
-21.745243 4.158365 -0.688545 
-21.895094 1.023914 12.472216 
18.806179 11.381956 9.366946 
-22.292603 -14.243752 16.863079 
-31.753719 -11.808045 12.700332 
26.680162 -13.463139 0.891698 
15.991643 19.432266 -3.193629 
9.988526 26.898548 15.093070 
-22.386448 12.693465 11.608487 
28.857035 6.653645 -3.534682 
23.911184 -9.354214 -2.635717 
-32.635101 -5.641209 7.811456 
27.921173 0.407063 3.704914 
-26.584116 -12.254439 6.289919 
-33.449604 -5.417414 0.474489 
29.052160 2.952936 2.944308 
-13.924222 29.049627 4.827599 
16.312229 21.431011 -2.107523 
-27.396217 -11.612577 6.882057 
-27.532099 -0.956888 7.775408 
-32.728432 -10.207542 12.038910 
-22.865309 5.190352 7.377493 
22.879709 -11.946546 0.641644 
21.984776 19.853666 -7.780842 
-33.172848 -11.134315 -1.385334 
-14.990482 25.916645 17.554842 
-9.971609 20.551109 -5.303017 
-12.307104 25.487427 7.658784 
25.552668 13.539786 -7.031284 
23.338394 13.164166 9.004334 
-27.578747 13.266171 8.245787 
17.012577 24.076685 2.966393 
-21.822407 3.509879 -1.550629 
6.600254 26.835520 0.976128 
19.851700 17.994883 5.196791 
12.003462 12.367709 11.644280 
-8.688650 28.958492 -3.909550 
28.704098 5.373777 0.032206 
12.679939 24.308069 -5.317149 
-14.079601 23.723810 14.259985 
-26.347393 2.890509 5.874104 
20.922937 15.448575 -0.662616 
-3.429606 23.347692 -4.199378 
-30.834871 -8.610887 12.882981 
-32.278088 -12.125145 2.982062 
16.257246 17.035782 2.157377 
-33.825851 -3.375642 16.880848 
-32.406300 -17.867744 14.621451 
-13.410320 28.844475 1.702553 
1.646025 29.803852 12.889434 
27.537760 -3.905105 -0.705778 
17.822926 6.965844 -2.296380 
23.985153 2.471776 6.805860 
-30.512691 2.305677 9.291653 
-28.567133 -5.629199 7.734769 
19.198931 -1.315885 1.478105 
5.082015 30.135281 -0.111362 
-6.366493 25.221859 10.877956 
15.101172 24.355885 7.199499 
-15.694957 25.094421 14.946985 
-29.403578 7.796187 -1.643178 
24.068045 8.336791 -1.065676 
-32.761833 -8.968696 6.011607 
24.326954 -11.257725 5.998919 
3.012763 31.451740 7.886266 
4.189347 22.597898 11.008629 
-2.760459 30.732162 3.763551 
17.819986 0.672205 4.417991 
21.392706 18.885040 3.920572 
13.585668 22.645876 0.643580 
-9.419347 27.963152 17.142309 
27.612192 -13.012091 -0.207931 
13.569074 27.887890 5.811589 
-26.114143 -2.473761 7.099844 
-14.993650 19.362551 -1.565057 
12.246701 25.553108 14.739772 
-26.472878 8.040741 8.638147 
22.215521 1.643002 13.729473 
-33.312477 -3.579651 -1.876505 
18.164516 2.693057 6.687481 
25.228943 -0.199988 -1.675737 
9.702410 18.257824 10.544233 
-32.934875 -0.729841 17.377098 
-34.933411 -11.306311 15.559200 
20.014668 -1.611969 -5.092490 
-8.170548 27.966150 15.417087 
22.922937 7.875581 9.971335 
-19.824131 14.436627 11.608949 
-14.088209 16.303961 16.762251 
20.579830 17.457550 9.597657 
10.196294 28.571966 -0.286204 
-6.237053 29.300266 10.671649 
-19.462368 24.260357 14.207836 
24.389454 -1.645397 13.724126 
-4.278050 26.093922 10.570882 
-2.598392 25.247423 14.121749 
-22.449459 15.625844 14.593325 
30.599104 -6.914359 6.709810 
26.957153 -11.227321 1.271608 
-30.063984 -8.854297 -1.043648 
-16.543318 21.913158 2.362961 
23.050453 3.154366 -0.425528 
10.380122 13.743567 17.741030 
-27.240068 13.753832 11.492272 
-25.929853 15.294831 3.200647 
-9.939049 20.733030 13.480967 
-33.317150 -11.042233 13.710077 
21.143219 1.689550 4.238641 
-19.040716 8.139283 15.271235 
23.978052 9.336633 4.612575 
-18.105539 26.124111 1.246433 
-30.223036 -19.156570 9.019062 
-28.804998 -18.483681 14.936370 
-17.589375 11.140764 -4.842687 
11.263952 25.986782 2.388830 
-29.440046 -18.423960 11.861768 
-27.816401 -4.968160 8.177446 
-1.729026 29.530079 4.902589 
-31.379528 -7.841843 13.858985 
0.472221 24.045452 10.036183 
32.160515 -6.574268 11.788482 
-9.924657 23.280579 -2.910793 
0.901120 22.319395 12.483032 
18.285263 7.846502 9.927389 
26.606941 -13.043513 -0.283853 
-21.334974 22.813980 14.132414 
-27.168665 10.768149 -1.075566 
9.552246 14.598299 17.768551 
26.095234 -8.910080 -2.157955 
16.972128 19.552736 6.689570 
23.537642 13.144720 4.155946 
23.312443 8.615316 5.870044 
21.514639 -6.740010 4.660686 
-33.344231 -6.310688 -3.978352 
9.204226 30.659672 -4.401000 
26.165730 -13.574336 11.724589 
-7.998061 27.181864 4.326061 
7.348612 21.716791 -5.403051 
-29.383421 -9.703492 12.624858 
26.851479 -8.382686 -1.904531 
5.743494 30.109974 9.500971 
-18.836197 26.838453 11.968339 
-0.601156 23.147093 12.490462 
24.788052 9.892391 10.332884 
22.118450 9.856214 3.610498 
17.831301 3.943896 9.751782 
-26.293058 -14.263338 5.319878 
26.253742 -0.980894 -0.097127 
4.018466 26.181372 12.685821 
-24.047409 0.743240 -2.253298 
10.941670 14.695234 12.173271 
25.861126 1.574127 -1.803437 
29.825739 -6.702611 2.797377 
-13.110074 22.499855 0.623478 
22.353792 -7.618518 4.374951 
-33.256462 -3.974277 9.198011 
-18.402061 25.573301 -1.794769 
4.182243 28.729649 15.926314 
-27.037022 3.544598 -2.578526 
-27.849949 -16.628345 7.465993 
-6.777672 29.082455 -6.487574 
-28.196899 -13.394526 6.413542 
-31.059702 -0.853960 14.432165 
8.608875 24.319466 10.496082 
-29.369703 6.787961 12.684794 
22.180719 22.520979 0.165790 
26.918020 -13.001114 10.980902 
1.940313 29.318050 15.429251 
-23.416357 18.450293 -4.925596 
-20.007738 15.090438 9.097266 
-3.560309 28.428196 6.480391 
20.824459 12.162829 11.336905 
23.555433 14.761527 3.487479 
-28.197407 5.627344 14.853814 
-22.041819 -9.717850 15.721180 
-32.983414 -15.198341 15.040371 
14.385732 29.523600 -0.920762 
24.794149 -12.620442 7.931554 
9.068847 25.067293 11.014112 
14.547217 28.173847 -6.989535 
-25.408237 -16.072018 11.741958 
20.934345 0.440034 -2.680995 
-6.855085 28.737841 16.542835 
30.067402 2.202143 -4.236843 
13.814367 12.051609 6.880251 
9.962335 27.982542 2.607665 
-3.482305 24.657497 12.796791 
15.261285 23.871592 6.498503 
13.881156 8.931329 17.609539 
-34.643135 -12.569389 12.981240 
2.015199 28.385637 3.207095 
-32.549904 -18.825876 7.978513 
-23.161293 6.078820 -0.610002 
21.698183 7.191216 6.120583 
-21.754335 8.596646 7.875633 
-21.344278 15.063039 2.815655 
27.598976 1.890294 14.082301 
-17.926136 20.402178 11.468442 
-22.525908 14.010090 10.547606 
-10.910338 26.175056 7.997530 
30.495464 1.176801 -2.632854 
14.460549 28.693174 -4.459138 
22.751347 20.371260 0.692729 
8.363646 23.063883 -2.705284 
-24.778124 -12.397248 13.684970 
-18.476320 22.688826 0.658200 
16.636539 25.060564 -0.103380 
-21.998409 22.070637 15.813779 
16.553591 20.490774 2.832260 
17.371181 4.940015 0.723281 
-23.220259 16.803837 -1.753156 
14.920564 28.972084 -3.591726 
-22.945223 -11.635894 3.853760 
26.148457 7.542116 5.297323 
27.370651 -1.209231 12.478454 
25.755455 -1.942896 3.083881 
-11.902718 24.084549 14.497134 
-27.996914 -4.574340 -0.549069 
-33.109444 -2.459576 -2.038890 
-22.886599 18.282286 -2.503499 
-24.868752 15.936214 2.667441 
13.475362 18.284969 8.560700 
-30.831509 6.716025 0.865089 
19.740005 2.270227 4.044380 
-27.866529 3.826997 14.875039 
-16.718475 21.038450 2.777805 
23.314417 -7.960404 5.706429 
-1.758136 29.666649 3.816299 
3.191201 30.714827 2.083935 
18.009354 5.957191 9.381595 
3.739678 30.329475 3.409352 
21.490177 -11.492549 4.236038 
-31.479906 -9.748687 11.711456 
10.219810 29.342808 0.210218 
-18.050486 25.590181 2.850487 
-21.071312 1.011116 -4.120885 
0.071620 28.205408 18.131884 
-9.531408 19.343369 16.661854 
18.319283 -0.869394 3.112552 
-3.564799 25.819254 -2.586698 
30.763666 -8.923043 6.543194 
-25.818645 0.013127 13.430222 
-26.971230 14.529022 17.446091 
24.787125 12.123085 8.337030 
-12.903437 24.574938 -1.911532 
9.178111 25.020960 -1.754812 
-25.000019 19.797604 12.650619 
-12.564198 22.260048 -0.211292 
20.444099 13.663663 6.789331 
21.751345 -9.670461 -0.042301 
16.440390 10.913475 0.926478 
-22.004911 -1.239726 0.312197 
21.814888 18.474155 2.515522 
2.381272 26.782394 7.779714 
-30.888597 -15.719727 7.979486 
8.023938 28.787086 2.885871 
21.046087 15.034655 6.667890 
25.983145 -7.898654 14.845978 
-21.711924 -6.900329 5.024285 
31.742468 -10.892761 -0.432640 
17.734116 0.745821 9.030680 
-22.125334 -5.302392 -3.116581 
16.826639 15.710147 11.375786 
-11.011986 27.511152 -4.092843 
17.465950 24.312368 1.928429 
20.930395 11.338058 12.925573 
-7.714503 28.225037 1.619887 
18.075426 15.582824 0.012411 
-14.776104 20.179445 -2.847589 
-20.368536 14.004086 2.663479 
9.771316 29.473259 -7.795420 
15.842805 28.623011 -3.188950 
10.162943 18.847193 -7.538296 
6.646495 24.216988 -2.424056 
-27.758255 4.063690 -2.467421 
-22.848881 12.117805 8.073583 
-14.638760 22.715790 11.361773 
20.928024 -8.122904 12.170071 
15.874882 17.728168 2.942713 
7.896462 24.229721 11.075325 
-20.823881 17.179707 -4.320735 
-20.242588 4.258347 -4.053134 
24.127995 12.570174 3.462947 
21.043341 8.229680 4.862229 
-21.597551 18.975767 6.147745 
27.469973 0.148247 13.659604 
-28.072641 2.611361 -2.395133 
18.632853 -1.529262 7.651839 
11.526700 26.444052 7.810997 
-31.154438 4.490005 16.787821 
1.171859 25.217718 -2.222856 
-34.662247 -12.160943 9.429572 
24.285120 -12.524784 0.018222 
-23.715948 -12.613531 6.347639 
24.314039 11.720487 15.693923 
9.973620 27.149096 -2.369906 
-22.518047 -6.480298 14.296122 
32.028980 -4.593368 12.792996 
23.294529 -7.955225 4.377902 
-20.399784 14.515339 -1.234770 
21.328003 18.157473 3.324212 
-20.563005 2.617409 18.226583 
-27.459919 -14.144006 12.349682 
-28.075974 8.818536 -0.132809 
-31.917940 -19.353909 8.641785 
-22.524448 5.495840 -0.632569 
10.985047 27.381945 -1.722412 
18.622118 16.176281 4.683661 
10.854147 21.780312 6.168144 
-21.423841 -0.050517 -4.875061 
4.036737 26.660612 7.411738 
-28.827564 -1.652872 2.493118 
-33.299969 -18.428915 11.053747 
-26.942621 12.453886 -6.374900 
21.083252 19.912117 4.405371 
-28.698801 -13.814204 15.022563 
-31.502880 -11.676519 14.409192 
-5.952664 22.424395 12.434540 
-30.920156 -10.718056 11.721712 
18.726627 16.539927 -1.179679 
-33.358192 -10.020952 -3.516922 
16.689928 10.303901 1.580160 
-11.368649 27.487871 15.199946 
-28.195705 8.346588 9.515645 
-25.999134 8.007183 10.001345 
23.148804 -8.642803 -2.024929 
25.933157 -13.975395 3.884171 
12.583997 23.785912 13.714709 
30.202343 -10.104379 3.104222 
-18.450377 9.223056 17.152847 
8.095708 28.525299 -5.609529 
20.702093 5.691657 6.186585 
28.300932 -10.692418 -1.035776 
-1.232263 24.177647 13.562896 
26.308722 -3.062364 11.431219 
2.836482 30.738703 -2.713043 
-31.122704 3.951843 -5.276340 
-2.944842 30.396057 -1.698604 
8.990273 25.357183 8.368695 
30.305027 2.321642 -1.884630 
25.343985 10.177700 15.356641 
17.170055 17.432041 -4.854589 
26.877367 -4.488003 -1.214283 
10.611638 24.721169 10.481014 
21.582119 -3.790678 11.831147 
29.886732 3.459924 -3.341657 
21.126162 -11.158183 13.018983 
-0.131428 29.588842 -7.568702 
-27.982317 1.020876 7.220932 
-7.566921 28.590324 5.296866 
-19.957130 25.160767 12.926916 
19.475649 -0.523864 -3.764030 
8.358669 29.577543 -7.976064 
16.876781 9.771265 7.603415 
20.364407 12.830009 6.124833 
-24.175165 8.015955 13.116899 
-20.928234 15.564594 7.964899 
10.464316 19.434822 10.660568 
29.146168 2.251407 2.127695 
16.966972 4.569081 3.025920 
20.099993 10.812136 6.164290 
-24.781736 -5.765382 -0.370811 
18.864498 15.268206 0.129368 
-21.629133 -6.217798 16.372364 
17.325609 14.035867 3.571902 
-10.721425 29.814482 10.472488 
-8.502711 27.940081 -8.483414 
3.545528 26.639254 -3.273487 
-1.786731 23.418230 11.203410 
29.017778 -11.192566 -0.506836 
-23.241468 8.107548 3.994270 
3.592957 30.503588 0.925392 
3.888336 24.810820 13.092962 
25.442434 -5.592572 14.013873 
-27.922211 -5.411270 -0.862686 
-23.810955 -19.675959 13.465809 
14.406339 17.617119 10.401358 
21.388403 18.185619 0.520704 
-16.196144 17.136856 2.617661 
-20.231827 6.177016 14.436217 
22.323374 -12.397130 15.058144 
21.789112 -9.655883 12.980802 
-23.283958 -4.996045 14.706462 
22.942915 9.079552 1.696361 
-24.800726 0.304621 -2.212654 
-7.856457 28.810001 -0.855681 
20.601910 16.379526 10.538636 
19.754011 7.350149 -0.816048 
24.628345 14.512679 1.322178 
-34.892002 -12.884247 11.488385 
-25.276129 19.686954 10.835692 
10.985664 28.301437 -0.235169 
24.158678 5.810573 -2.446528 
-15.584888 17.106670 13.448838 
14.523138 18.209021 -1.763133 
14.739308 13.496858 4.831779 
7.716348 31.091293 3.216100 
25.392553 -4.551019 7.027313 
-21.888624 -7.911055 12.838093 
-1.606066 28.696751 17.447138 
10.030835 25.422197 10.913637 
-14.720487 26.381399 5.166625 
22.281002 -11.681855 10.454792 
30.315777 -12.736702 9.857754 
-13.053813 20.653397 -1.444111 
-29.766726 -13.915897 6.335313 
-28.616079 -2.051452 7.865575 
18.370832 24.202862 1.911925 
-27.541439 -13.373057 -0.526945 
-23.939049 9.438273 14.789236 
-18.280733 20.796112 -0.961807 
10.591810 25.768047 8.029710 
-28.725210 -4.675876 15.623343 
-27.983776 -8.609651 7.938657 
-24.070145 11.050607 7.031109 
0.548463 30.908600 10.760244 
-29.869650 -9.626945 9.670017 
-0.686571 28.307024 -0.761857 
28.355124 5.856051 7.914429 
-22.570387 14.863821 11.901469 
-28.862360 -5.670221 13.031330 
-14.321650 27.186008 5.284935 
30.303930 2.281929 -0.924069 
-23.928131 -10.975074 -3.491956 
16.174059 13.721175 10.608059 
18.497049 16.298534 2.160618 
-9.272556 23.891905 9.366808 
-11.703123 24.526789 -1.256583 
18.075285 -0.209773 12.239404 
11.544211 14.770204 10.773048 
17.393276 19.542835 -5.128772 
-21.059816 8.714793 0.625750 
18.631828 6.602616 5.777359 
25.392651 14.290172 -1.499270 
19.371828 10.361207 5.865901 
27.859827 -10.790924 8.818015 
4.076512 23.569309 11.770452 
-18.178762 9.758375 18.268406 
-20.524323 9.231299 1.304094 
-30.290676 -0.679287 -1.026633 
15.779119 16.015289 -1.078842 
19.623339 16.784565 -3.380846 
-24.676407 8.472456 14.289230 
-18.857077 15.922319 -4.261010 
-29.454725 -9.764161 8.839189 
0.039128 31.358906 8.311064 
-26.235916 -15.394835 5.942987 
31.256594 -7.167742 14.909553 
21.009747 2.377198 -3.273124 
19.480564 8.814284 4.810738 
-17.024712 21.026569 14.649764 
9.177607 20.070852 -6.466280 
-10.401636 24.732012 12.265032 
-16.201174 21.470356 1.652984 
-4.389248 25.929150 -4.935696 
22.540396 -12.746409 2.592627 
-16.862146 13.830513 -1.986096 
-21.391752 6.421349 2.521942 
-28.466309 -8.313114 -1.391194 
21.013155 15.660254 5.958036 
-6.038866 30.237146 8.682034 
5.760793 28.486591 4.142799 
23.568907 -12.687950 9.503559 
-27.050257 4.679493 -2.517002 
-29.234747 8.228118 2.820960 
-15.870796 20.732178 -3.863926 
-14.604147 20.371473 12.195817 
32.189621 -9.865918 15.231842 
-19.004393 8.232148 -3.690530 
19.515598 20.453629 -1.989331 
5.761010 28.555443 15.433085 
25.130632 14.322097 -0.459206 
21.581629 18.187626 1.334163 
28.926167 -13.445258 11.316540 
15.430328 21.375128 -0.498439 
-25.563444 -11.722290 11.642925 
-25.788992 16.449306 13.655730 
20.746128 9.075344 -0.867759 
14.462192 24.316511 3.845465 
-19.831572 7.615430 13.502280 
-4.594868 25.374174 -2.899817 
-19.914129 6.099889 15.545439 
19.506157 9.494108 10.398034 
11.433311 12.748143 13.288354 
11.208796 17.922915 -7.433768 
-25.421907 11.193932 6.130168 
-31.859837 1.762710 18.444296 
0.980063 29.004042 16.530853 
14.486313 22.498343 4.050868 
6.905525 27.165943 -5.208691 
-25.243231 -6.935583 15.019619 
-21.874987 1.480292 -1.968643 
-24.944002 1.557695 8.183562 
2.428883 26.946201 -5.133181 
17.552395 17.610458 11.329803 
-15.110221 23.565153 12.077592 
-21.740208 -7.777703 4.757094 
28.639128 -8.712916 15.564754 
16.571959 11.395182 -0.128426 
-32.092907 -12.409389 14.620655 
-7.905521 28.859303 -2.237848 
-9.828515 26.909525 3.796313 
17.425293 4.211550 3.673705 
-23.682667 15.697370 -1.505019 
23.812170 -3.260826 12.797527 
0.223455 21.925619 12.855701 
16.409657 24.719103 -3.734419 
-3.894837 30.287779 3.868251 
-16.888573 15.315862 12.859743 
28.639765 0.659467 2.036910 
-24.461304 -2.899512 3.665603 
-27.006102 -5.198402 7.455494 
-32.949184 -1.423193 -3.349977 
-27.618143 8.935443 11.877343 
21.181330 22.944735 1.983777 
-19.753988 21.948660 7.734941 
31.281338 -10.667719 3.615214 
-20.078697 11.633654 12.222201 
-0.754587 26.513754 15.029927 
26.494083 11.961724 -5.425230 
28.823639 -2.011329 11.393560 
-24.812561 -20.819693 11.464277 
-27.764006 0.591746 11.813985 
-30.430830 -3.747726 4.350747 
23.835396 -4.245342 10.536373 
-33.076523 -10.517029 0.641873 
-31.528961 -0.753259 1.209553 
-30.384108 1.282712 11.700369 
-23.110617 8.712361 4.924728 
12.697947 28.224604 5.946853 
-25.738352 10.890030 14.904129 
-18.836502 24.494202 1.348114 
-31.559526 -0.684545 13.333549 
-24.155729 -4.580647 13.033756 
4.904060 27.865805 2.851731 
-20.757061 12.437510 12.314165 
25.536808 -2.092306 13.676798 
24.881929 -11.755922 -1.656750 
-10.807892 27.145481 2.708544 
24.790691 7.402074 6.908124 
-16.346689 19.055168 11.526758 
-23.832108 -12.461291 2.419673 
-26.292805 11.227632 5.811415 
30.442833 -0.258610 -5.364321 
-21.691034 2.606779 12.279881 
-7.149624 30.925421 6.028346 
9.465656 28.756083 6.003794 
7.970319 22.094608 -4.208477 
-21.467880 8.540339 3.628636 
-20.161737 19.317640 15.181023 
27.757214 -9.408049 15.445078 
22.581026 -12.886157 4.624522 
18.446106 2.870956 -3.620789 
-9.762464 22.125748 13.280905 
-22.697611 6.899773 5.840539 
9.429069 24.838165 7.432586 
-28.570379 11.624645 14.120399 
-21.477955 15.345601 0.579790 
-29.017550 -6.664676 1.835534 
-16.208838 27.143059 -3.738971 
-13.687243 27.941906 12.981572 
8.344193 19.921797 11.974001 
-27.219221 14.129704 13.675855 
12.432930 15.585918 8.196959 
-28.938545 8.295645 4.559553 
-6.122993 26.380651 0.634989 
-22.287733 20.202765 -3.821159 
-27.934353 -1.108411 -1.536100 
24.958635 11.501692 8.918293 
25.988920 -10.994965 14.932406 
32.328823 -8.290790 -1.894848 
30.173792 -12.002060 9.245972 
25.914375 -13.753017 5.553231 
22.582191 11.900424 5.005601 
19.182449 16.594709 -4.101760 
18.016022 5.123080 -2.586431 
26.379419 11.731232 -6.814641 
-29.657230 -7.494828 15.298138 
-30.105604 2.112658 10.198690 
-33.217930 -6.539356 11.885071 
-17.493141 21.542231 3.274397 
21.540310 22.417303 -4.891794 
-22.232872 15.922699 1.977097 
-23.655878 -12.565784 13.255326 
-22.320717 10.674515 7.166249 
20.944092 10.653232 -2.789746 
-23.695597 -16.231430 7.779639 
19.460951 -0.628443 -2.558227 
-6.770535 30.759132 8.642259 
6.233998 24.021320 9.007735 
-32.070271 -8.017068 6.633491 
-31.186008 -18.304838 12.562389 
-10.351595 26.393894 -3.136219 
-21.063396 0.036942 16.855053 
16.127739 10.517452 -6.561915 
-3.572264 26.919960 -2.777199 
-28.394054 1.852620 13.276054 
-23.287577 15.252757 7.585038 
11.668494 23.343039 0.553503 
29.130253 2.791357 9.961282 
-22.451170 -3.979601 -0.429045 
-22.649351 5.248490 8.220806 
-3.959002 27.663818 2.027834 
25.334915 -6.506835 -2.215505 
3.529340 26.222750 -1.793919 
-23.332821 21.012493 15.282478 
-12.436533 18.552517 -4.761043 
-6.202182 29.467358 -5.630235 
17.491247 14.682701 3.059905 
29.805519 2.017375 -5.640961 
-17.495007 19.540051 10.843129 
20.138237 17.370117 3.531514 
15.881052 22.238550 10.756343 
21.625843 13.246422 -0.232666 
26.542646 -1.429170 3.170666 
-5.413547 26.973782 -4.264881 
-25.335541 -10.276697 0.850967 
-26.132734 14.367180 -3.288715 
-21.421062 3.666851 0.293112 
29.003084 -2.630939 2.057038 
7.172323 30.252132 6.745828 
-34.556961 -15.268854 12.717103 
-22.650341 7.750409 9.487659 
31.833754 -9.647871 12.692590 
17.718433 21.936377 -1.558663 
-24.797705 -2.869818 5.814971 
-7.409270 27.566486 2.279099 
-24.225866 -17.107622 8.265686 
22.530127 5.423188 9.887254 
3.797384 29.315859 9.012075 
-21.351049 25.436253 9.976203 
-22.910378 -4.966315 3.548141 
-31.516563 -5.952310 6.522965 
18.263178 -0.584700 17.400917 
29.609135 -13.255271 10.013756 
-2.504349 23.773863 11.440019 
3.724200 21.066772 12.926759 
-18.853863 25.025822 8.059969 
-18.500355 19.676195 13.465878 
22.842417 7.215971 9.119876 
9.291290 21.185730 12.982216 
20.395372 -3.867805 -3.095742 
-3.055118 24.583355 -3.521519 
-24.258165 1.633724 13.741687 
23.170595 19.051336 -5.310476 
-11.026242 30.126381 5.480919 
8.861445 27.020077 13.515301 
17.980755 7.091103 5.507275 
-28.265478 -3.218367 4.908035 
-19.497232 16.270578 8.623954 
-21.279331 17.904814 15.404020 
-32.095798 -10.174457 8.479723 
-0.180304 28.307003 -2.813576 
-21.137932 25.670107 7.260207 
0.393121 23.503483 12.751963 
20.825182 7.169925 5.766227 
16.478323 9.705976 -6.464508 
-18.633848 14.448884 -3.750247 
-21.412827 9.945416 12.086737 
32.323009 -9.561093 -0.592524 
-31.409529 -12.772519 6.090934 
27.782175 -5.561895 -1.137316 
17.322008 5.617575 9.739088 
-27.067934 10.375010 3.192952 
23.505611 12.653005 0.431100 
26.174973 -11.855118 14.871974 
22.556139 20.585533 -5.220083 
26.278479 6.388973 10.339796 
8.219929 29.048309 11.733582 
-26.277916 -0.822145 1.366722 
-34.226276 -15.683559 12.005440 
-20.583527 2.990739 -2.281457 
-26.708906 -21.688828 16.438854 
-14.724173 27.239681 14.683825 
21.044319 16.091963 6.950465 
-8.461633 28.710773 1.436758 
13.269011 21.910391 -3.871567 
-6.790644 25.673840 -1.516407 
-6.093293 28.847729 -7.470801 
-23.311064 7.900128 8.650812 
-33.247753 -1.904968 8.438492 
-27.738752 13.503842 1.159939 
-12.013037 26.640739 14.954716 
23.858648 -12.735396 0.800863 
-15.301603 27.327858 10.936267 
9.991333 23.077793 10.254068 
-12.873517 25.046324 -2.684641 
-31.002960 -2.617710 15.404217 
-31.755194 0.691950 1.892189 
-20.707796 6.012012 4.563636 
-33.126762 -11.105124 -2.316262 
-12.414494 26.655293 2.606226 
19.757977 13.122852 6.694960 
0.811993 31.378057 4.677596 
-27.345863 3.626948 12.565898 
-28.367249 -10.705056 7.801704 
6.256804 29.772926 -7.698864 
12.350023 20.604174 5.815984 
13.020177 25.006336 14.989150 
17.770803 -0.023844 3.571787 
17.454865 23.884098 3.733580 
-8.664040 29.354141 13.067081 
0.802326 28.184828 7.453179 
-0.440078 30.291912 -2.609971 
-14.857661 24.105265 2.733086 
13.203047 12.850472 12.227765 
22.426458 -10.413034 13.385237 
-28.148697 -0.976503 12.340691 
-15.898749 14.849751 -3.339143 
-20.559240 4.135846 4.963492 
24.750845 -3.664083 12.356639 
-17.845001 24.982813 -6.311623 
-16.464878 21.052080 -1.672444 
30.343872 -8.346732 7.003272 
19.991213 18.272980 10.164511 
21.035862 1.439624 -3.160838 
28.339264 6.543033 3.076785 
-23.423435 2.399886 7.515864 
-14.298693 23.526762 10.930349 
21.583364 -8.057088 -1.681072 
10.605745 28.529917 1.087181 
-13.898993 28.221489 2.986931 
-10.162711 18.500837 18.216513 
-11.068881 24.609629 -0.606062 
10.447352 26.749176 7.722777 
-30.160305 -4.055243 7.734682 
-26.324986 4.303691 6.310459 
27.060028 -2.336305 4.139947 
-19.573566 15.267779 3.878442 
-5.500387 29.883394 8.046919 
-34.589603 -11.043576 14.100307 
31.969250 -6.664436 14.025787 
-18.091280 19.034863 4.011070 
-24.677511 6.594347 11.842135 
-26.654137 3.843642 8.122294 
13.125002 26.329794 7.242634 
-25.081018 -14.493946 11.948510 
23.449339 1.456940 -0.054145 
-11.611670 25.037989 -4.127373 
-16.371449 27.018539 12.682991 
-22.192875 9.271310 14.633299 
21.415348 21.688978 -4.431206 
18.103966 9.273610 1.217655 
-28.392839 0.773837 -2.046551 
32.085300 -11.008666 16.091917 
30.275671 0.725498 16.247057 
-31.122620 0.533326 -0.480116 
27.002584 0.959068 5.575862 
19.384802 22.762815 -3.550302 
-33.504997 -5.652236 12.468647 
15.742378 20.763983 9.463832 
22.665665 9.715990 -1.399181 
7.744100 31.211994 2.210065 
-34.087074 -5.732137 18.394836 
-30.679413 -17.032661 15.236052 
4.734705 26.134544 14.802494 
-29.123661 -13.334731 7.287423 
28.719421 2.356881 -0.044849 
11.578087 24.010798 4.421566 
-29.808214 -0.506882 7.650604 
-4.970223 28.540161 10.803213 
-5.262748 30.347269 4.984942 
-1.959430 28.732897 15.481577 
-27.163204 -5.976625 -1.120834 
-26.351572 6.426771 13.903480 
-30.304075 -11.536542 14.401361 
-0.932599 27.752312 1.865812 
16.030113 20.795193 2.133373 
-28.649160 -14.037790 1.704337 
28.390245 -9.053215 8.157411 
-22.627575 4.611944 11.968901 
-26.073908 -2.920210 2.637100 
-25.206493 18.499325 9.649137 
3.641898 27.539751 -3.868164 
-8.387296 26.074131 -5.553582 
-24.959301 -18.568819 13.038110 
-29.465654 -17.785063 8.602817 
-22.344248 -10.829862 13.860426 
-12.688651 25.359194 3.067294 
-30.875883 -6.365140 15.404451 
15.246305 11.292044 8.691894 
-32.419235 -20.595882 15.542145 
-6.547308 24.620577 -2.400156 
-21.977022 -6.198133 18.144026 
23.297413 13.499115 7.612593 
13.995698 26.063454 -2.845797 
-33.862858 -16.173586 8.671381 
17.230213 6.316643 4.040456 
-7.166667 23.355913 -3.737198 
-18.701511 19.484543 7.996109 
18.880489 4.315943 -1.810308 
16.192848 21.791254 16.732298 
11.259679 23.448929 5.142604 
2.154226 19.432528 17.979139 
8.643391 24.603508 -2.525855 
13.591575 14.953278 10.066818 
9.169042 24.676260 13.130420 
-34.806854 -9.183164 17.253016 
24.546671 4.007712 -2.517642 
18.450443 -2.968937 14.113502 
-17.955460 12.013290 14.482460 
-24.954628 7.046399 11.010980 
-22.400246 7.672606 12.170018 
-22.311270 2.687247 -2.221890 
24.576801 -4.840152 6.378689 
14.068652 24.928621 4.552374 
11.549310 25.798689 9.554017 
16.232510 4.962402 12.506153 
26.303465 -1.391792 13.839883 
-13.705102 23.183779 11.621579 
0.527879 26.715418 0.400043 
32.342674 -6.759762 -1.150170 
19.161932 16.016382 0.605130 
21.879217 20.884184 -4.294077 
16.252523 11.885122 6.608570 
-27.862341 11.475163 2.117400 
-22.756182 -6.541990 1.822381 
28.849014 -4.340848 12.690006 
-23.312828 18.207689 -6.308686 
21.393448 15.830755 14.240354 
19.860937 10.800022 12.822151 
-8.085199 22.735502 11.257289 
15.887536 19.925770 -2.483367 
-31.537939 -5.139430 5.956819 
-31.310417 5.857265 9.824807 
23.061922 -3.293868 1.550171 
24.714745 -6.812741 14.123951 
-28.286131 -13.782336 7.471072 
2.852611 22.024261 12.366428 
-27.101646 0.348472 12.743020 
13.578280 17.143999 7.015375 
-24.472746 21.260593 11.129850 
23.183455 -6.905746 6.451095 
9.801718 16.739868 11.302777 
13.644287 24.108727 3.578240 
7.611157 26.762495 7.930698 
-15.908902 23.641592 -6.080430 
21.996153 -10.861143 0.440086 
12.957840 27.930786 -8.695401 
-22.514624 -7.409877 -3.066540 
3.614701 29.483583 13.975640 
11.840191 25.731142 -5.298467 
-25.041334 4.177831 0.285330 
22.122168 6.614635 -2.794074 
6.909162 20.060144 11.770117 
-15.550976 27.762922 -1.773665 
22.697647 15.667360 0.424021 
-11.410295 24.161276 -3.846170 
6.424164 21.961142 -5.770767 
-12.670316 24.417671 11.362529 
-31.531311 -19.035345 13.466340 
10.145864 25.867760 0.134652 
19.707844 18.319212 10.960696 
-10.970503 23.600515 9.585038 
-17.698772 15.944848 12.044459 
25.876656 -3.696609 7.581373 
17.739128 -0.762807 11.587440 
25.402485 -2.462592 2.309169 
-26.450377 -10.502072 9.574421 
-21.072620 16.640884 15.011631 
-24.335123 -15.631221 14.130708 
11.801588 21.364481 13.873346 
6.542249 28.257736 15.633741 
-26.298813 -3.268236 6.845321 
22.122362 14.708526 4.948467 
-1.793047 29.723772 1.293482 
-22.106642 -7.360423 18.131992 
-19.458891 9.589579 -0.402177 
-30.993254 -1.655754 15.258128 
22.239149 -3.600406 3.340428 
1.721606 25.023699 9.936144 
-23.303890 17.926048 1.953922 
-27.063601 13.756962 18.498529 
8.973825 23.766001 7.369648 
18.429663 19.827450 -5.191614 
30.719761 -1.404571 -5.224596 
23.227446 -1.385037 5.789785 
-34.245026 -5.708314 17.447546 
-24.058937 15.801413 4.943217 
-24.155176 4.465064 -2.530152 
16.774599 27.249561 -2.190039 
-25.285595 16.174772 12.177507 
8.089284 29.525723 -3.245365 
-6.262633 27.457161 5.669171 
-30.337389 5.891705 -5.525319 
31.294935 -3.882203 10.749766 
23.012190 5.875299 11.998568 
-26.940199 6.699579 6.259605 
-18.701649 24.685581 -1.532566 
25.222820 -13.712990 10.507093 
-20.603817 13.192998 10.411139 
12.223145 14.066962 9.481024 
-21.303535 -0.006795 -3.929513 
27.694302 -14.830789 14.483454 
23.197193 15.485278 3.210129 
-21.638620 6.006979 12.025130 
-11.382247 26.893564 -2.678039 
-33.405308 -9.065726 1.688918 
-28.821569 8.054816 7.699538 
21.756313 20.408772 3.423916 
-4.882484 25.826551 -3.973867 
-9.567296 27.391996 14.135395 
-22.541464 15.177133 13.686707 
-25.894667 -13.027802 6.158156 
-26.089176 -21.660976 10.593123 
19.927132 9.616869 5.546439 
-26.234106 -0.278191 11.357917 
-21.366205 2.691736 1.168276 
13.552306 11.002624 10.949749 
-19.804230 14.495591 13.216212 
-24.791121 -14.172062 14.160542 
-21.446053 10.218011 6.836552 
18.151915 7.684662 1.221637 
-18.687326 27.983997 7.614798 
-30.473040 3.963132 5.640459 
-23.526403 8.180295 -1.699595 
-0.749340 30.360083 -4.349141 
21.035009 14.938096 -1.462188 
17.999550 -1.993388 12.894466 
-30.078390 -13.258573 0.601224 
-30.144608 -3.886277 5.340398 
-7.253528 26.872082 0.364511 
-32.655983 -20.493870 16.745634 
-27.493095 -10.778149 8.146779 
-24.614826 18.150784 14.644325 
12.871162 24.073328 2.002086 
28.808468 -7.748901 7.618407 
12.456871 13.437042 7.340402 
-26.923361 4.691938 0.077779 
30.748642 -9.595722 0.473086 
5.173338 26.398540 7.795385 
-30.599161 -6.861062 -0.586644 
3.461001 29.898294 9.604436 
21.445156 -7.683408 4.269308 
-35.061852 -15.091530 15.718032 
-7.556852 26.056101 0.282915 
-19.042223 14.743380 3.452480 
17.386555 20.982788 4.187022 
0.242792 23.420948 -4.738273 
32.201530 -5.829269 11.153401 
5.621119 27.150047 0.124231 
28.996904 2.384092 8.757900 
-27.280556 -12.570112 12.161357 
10.186992 27.772495 -0.040585 
25.410992 -8.471393 5.758046 
5.060428 22.043369 -6.670177 
-1.449872 27.219320 15.245749 
-27.407829 -10.348935 9.135905 
-28.163132 1.430653 10.859261 
26.192236 -13.163133 12.564858 
-13.820677 27.318466 10.756474 
-22.795225 14.636542 9.719169 
-27.810120 11.573534 0.534993 
-27.694187 13.241770 16.726830 
-28.228294 11.029257 -3.548792 
-26.066738 13.267079 -1.796843 
25.048836 3.756503 0.464560 
19.143593 18.650766 16.550724 
22.266371 18.936296 1.245820 
-23.235212 -12.954093 9.228908 
-19.651596 21.723982 9.490378 
-5.725683 27.371367 10.072798 
-23.771175 -8.276766 14.340668 
11.356514 25.866865 -2.016935 
5.964071 27.294065 -4.739187 
16.618456 19.114044 5.279818 
18.917065 16.587915 -2.414920 
-31.953934 -11.052131 14.092281 
-19.505873 6.574127 -4.375390 
24.140833 -7.941381 5.275049 
-19.867378 13.677965 11.232157 
5.677014 27.934452 -2.979637 
32.157875 -6.674308 12.752522 
11.261574 18.087635 9.486940 
3.960710 27.705273 18.046917 
15.631398 7.469167 11.652212 
-13.951506 26.189995 -8.211712 
21.352797 13.034633 9.829771 
6.064777 27.640472 12.415210 
-26.045650 0.981777 12.798557 
8.349890 27.951826 6.642008 
3.713018 29.662596 13.074367 
-33.522472 -10.736358 12.046527 
7.032713 23.340618 -3.136653 
-17.616846 20.535858 10.685749 
-26.533890 -5.956841 12.919147 
13.435313 15.887933 5.553528 
22.493435 -9.394655 13.412481 
-28.715492 10.093746 13.894090 
19.896652 11.603085 10.100404 
14.448266 16.733088 6.041353 
28.120300 -10.860961 7.821549 
-14.764153 25.879864 4.497264 
31.036665 -3.479879 12.839059 
6.030029 20.277672 12.164990 
10.516617 23.285004 -2.535304 
-2.009553 27.975534 -2.016410 
-26.734289 8.401242 6.889882 
-25.901659 6.072874 14.597157 
-31.065987 -13.488212 4.940798 
-11.093377 19.468758 -5.499506 
-2.076121 27.891333 1.467291 
21.801737 -2.224047 1.041302 
-23.793077 -13.128188 4.346078 
16.055216 21.711462 2.048672 
17.281641 17.935219 13.178271 
-29.203894 7.355954 7.070243 
18.963379 4.817621 7.770380 
18.224358 3.859341 7.783674 
15.390568 23.916979 7.879174 
25.051535 7.305193 8.133154 
-9.258402 25.430193 -5.574668 
17.030722 16.644447 1.982271 
15.004853 24.642157 8.020472 
24.111309 1.851299 6.242624 
-4.844010 29.002232 -7.648788 
20.175709 15.909402 0.015088 
-17.705273 21.361141 -0.672942 
15.740173 12.048156 -4.718725 
-22.307184 22.924330 7.932538 
26.102293 13.048487 -4.499848 
-31.398773 -7.071136 15.236735 
-27.153782 10.219345 5.706442 
-27.254669 12.890705 3.794714 
19.612547 -4.700509 17.321726 
24.323013 12.403100 5.761090 
-22.357096 -7.575341 2.243803 
-28.359941 7.952334 0.627504 
-30.063999 -1.557961 2.067506 
10.710971 29.721600 -1.238875 
-15.718020 27.966690 -0.629326 
16.738882 17.838537 5.023603 
-9.729649 27.686237 -8.439670 
-34.003021 -4.796105 14.053433 
14.609436 24.134014 13.907699 
21.425688 -10.524726 9.942334 
-11.500322 26.727045 15.668832 
-21.569183 0.207441 13.626294 
22.363228 10.882914 11.542334 
24.752773 -6.104866 11.396512 
-32.822357 -14.601453 6.720637 
-23.112667 9.683524 5.312180 
-12.802410 25.496998 -0.946043 
-16.681784 19.874147 12.979869 
-22.159727 -10.835365 14.684340 
-25.120331 12.569637 14.821468 
25.233908 10.448216 1.072041 
-28.452082 -14.395345 2.958861 
-20.873098 1.707973 15.948985 
27.906458 6.497725 7.521377 
-8.158277 24.811554 -2.796116 
11.347571 29.059973 0.442942 
-25.803539 -14.314767 4.620856 
-20.247095 9.725277 7.182324 
-2.904750 30.710258 0.162677 
-25.862682 14.736237 -4.682431 
-27.699469 -17.245813 11.700138 
13.249331 17.557791 -4.053372 
25.829603 -0.631661 13.980228 
8.432128 29.356388 3.746094 
26.243702 -3.148765 10.306759 
-20.323511 21.089554 13.137644 
20.996683 11.108301 5.904552 
-13.894417 21.939447 13.592442 
26.366865 -11.088786 6.173402 
-5.278087 21.573696 14.037585 
-17.096413 24.404099 18.431189 
2.722091 29.540764 11.543817 
-25.359175 -9.023369 11.830865 
8.476391 29.753061 -5.495609 
-29.408230 -3.304584 7.740160 
-20.336145 22.042870 -3.452308 
-19.734436 10.514657 7.303329 
19.604069 18.511677 4.315776 
12.376177 19.791677 10.683752 
19.475864 -5.961515 14.617590 
14.782685 23.286530 2.967477 
21.834568 1.311308 3.918399 
3.793834 27.643995 -1.853182 
18.627039 8.174402 1.813374 
-31.728085 -3.076091 15.358910 
10.444737 29.495909 1.085534 
22.352177 -9.553599 -4.128336 
-28.755583 6.331929 13.915453 
-20.997429 1.702362 15.001349 
25.032454 -13.201377 0.960217 
-29.116982 -1.131421 15.261213 
21.779669 -1.023868 13.435576 
-21.976511 -6.165455 10.380028 
18.739260 6.505104 -0.858293 
-22.646433 -1.567022 2.683228 
-24.989294 20.341198 11.798497 
-28.734793 -9.942705 9.386570 
27.723402 6.402583 15.127797 
-21.173136 16.032692 -3.860433 
19.475636 8.543736 2.215764 
-28.000498 7.105344 6.299517 
7.368863 29.057377 -5.695453 
-27.015593 -12.384659 -1.348753 
-20.649170 19.711079 5.554253 
-22.424986 8.495137 -2.066388 
8.426175 25.189175 11.783600 
25.398407 4.139403 5.875905 
11.160707 24.879637 1.427203 
-13.998236 25.577829 -5.330878 
0.129621 29.003143 16.735277 
19.295811 20.056030 -5.135210 
6.407663 24.954027 8.759998 
16.804119 15.650890 0.107121 
-11.037284 27.025970 13.834376 
-11.014009 18.012543 18.227573 
0.902920 30.380167 3.742259 
-23.133768 -7.132446 14.404844 
19.849091 -5.772134 17.303429 
20.355944 11.394549 -3.181159 
22.930426 12.787957 10.467546 
16.718531 8.210088 10.443140 
-33.359474 -3.922556 10.087907 
18.875256 -3.992875 13.830810 
-22.277451 16.312595 -0.368949 
-17.545828 21.865259 -0.000351 
28.520824 -14.708006 12.199204 
14.117968 23.383371 3.601891 
-16.417976 13.426180 -4.337594 
8.431187 25.880228 -0.259581 
-13.495634 16.987587 -5.821991 
-29.503092 8.272597 -3.582006 
-13.240353 21.254276 -0.288074 
-31.096865 -12.780502 1.089693 
-22.346107 -1.159064 11.912818 
-18.315128 21.646200 0.490110 
20.360979 -3.800787 6.165653 
2.917197 25.195120 10.175915 
20.368023 18.850870 -4.726674 
-16.911793 12.010238 -6.419367 
2.084780 25.816231 -4.638619 
16.812429 3.609884 12.243066 
20.776161 -7.730641 9.944865 
15.914280 24.984617 -4.799387 
-4.776285 28.542156 4.859261 
-21.278830 -1.645220 16.892101 
-28.029488 11.786482 7.242277 
-31.466864 3.606810 16.611837 
0.493807 23.552378 10.844668 
8.567182 20.488398 8.722586 
28.580614 -10.655023 2.274992 
3.270695 19.403353 16.690752 
27.409006 -2.760795 10.438684 
18.657267 6.140798 4.203611 
-13.944052 28.276228 4.497586 
16.302086 27.248516 1.706089 
27.819763 -3.630699 11.563147 
23.546839 1.818255 13.962496 
14.763702 22.819038 -0.199166 
19.770777 16.903421 -0.816944 
-33.234413 -9.762487 2.873256 
-21.740101 -2.133326 -3.529265 
-26.649851 -3.880215 15.470363 
-19.611557 10.576234 11.770330 
20.675467 2.143491 13.297482 
32.005543 -5.449756 15.252711 
-32.317532 -12.331918 -0.420818 
-14.779424 14.912402 18.264641 
0.640340 31.416616 7.574613 
11.618216 24.700727 11.830863 
-21.994694 15.988888 7.289566 
-24.662079 14.174845 -0.875716 
-28.311047 -21.933212 16.441505 
-27.202374 -20.844080 9.716822 
12.243482 14.678891 8.693904 
-32.498116 0.342845 15.272649 
-22.456556 8.197487 -0.620513 
-3.778768 24.749043 -2.488960 
20.840971 -6.339581 0.227465 
-12.174239 19.765823 13.777054 
21.215834 3.265744 3.869079 
-32.877628 -2.406218 -0.997425 
-29.236803 1.331011 8.441995 
12.262284 11.470031 13.331162 
-17.340105 12.684732 -2.729656 
-33.481735 -8.334806 1.190500 
-23.643770 14.346535 5.311760 
-20.255543 16.138617 -4.233566 
-20.275791 17.923233 7.751111 
2.197835 30.287722 11.364382 
31.778484 -4.127175 -1.050151 
-19.616140 11.686537 7.854595 
18.622437 18.928677 5.166442 
3.894157 25.006075 10.307396 
-23.308290 16.061541 14.768901 
22.766045 -9.451334 5.948015 
-14.520700 28.781452 8.221915 
-6.510262 25.846350 14.215499 
15.515580 18.279686 2.214332 
-25.211357 4.871993 14.677526 
-22.078091 -3.099890 -1.365805 
32.337307 -5.668804 9.359717 
8.875704 29.716387 4.488811 
-11.959908 25.764917 15.276516 
-28.623400 -9.925618 8.541210 
31.885260 -5.161804 14.372602 
19.111898 2.927471 3.530696 
10.070365 27.993488 3.992857 
-9.994369 26.573652 -5.709991 
22.037846 14.621133 13.953246 
-27.261606 13.087013 -2.670632 
-21.909571 -3.182268 -3.333748 
0.098223 28.271238 15.443624 
-20.430408 13.019013 8.317249 
-3.038145 28.765953 -8.640366 
23.517731 11.221106 3.588765 
-18.324598 19.708727 8.872056 
1.618978 26.296335 11.416909 
-21.583281 10.652384 0.490297 
17.556915 0.759849 2.145478 
27.644905 -13.957381 11.489967 
-22.496515 11.489162 7.375149 
3.664630 29.200424 5.770469 
-19.599022 23.154289 -5.989200 
4.853895 24.413780 10.823311 
-0.516819 30.031984 13.546286 
-25.359438 3.187304 6.800109 
10.686637 26.269598 15.725042 
22.548601 13.899651 17.496880 
-22.697611 -8.680068 10.416340 
20.164932 3.778195 12.908787 
18.240786 24.291117 0.788363 
30.175301 -3.163538 10.032619 
10.597449 25.602739 8.950439 
18.889503 24.895573 -6.052581 
5.292836 28.286875 6.311358 
-24.491749 21.218916 10.136219 
-17.430283 19.066568 3.022708 
-14.674736 27.877382 6.946654 
11.017869 22.785263 5.641998 
-13.018244 26.182577 12.665801 
-31.744581 -12.169042 0.717510 
8.804443 26.320463 8.172748 
24.450220 8.356421 9.016195 
12.653269 15.580945 6.086321 
-24.445650 7.683484 10.479583 
-15.471994 15.230857 -3.946003 
16.778454 7.245921 9.494555 
11.551101 29.496946 4.447426 
-26.740210 -18.874502 14.506405 
23.282944 15.735001 1.386702 
22.875925 18.522652 -7.624210 
21.336063 -4.941576 3.816794 
-30.143717 -1.519840 3.778239 
-9.633273 28.843714 3.279052 
-27.728472 -7.923711 -1.457936 
21.337484 11.626038 -2.944419 
23.238100 10.557053 13.049664 
23.229141 -5.631732 7.744193 
3.008111 30.909946 -0.171101 
-34.137062 -4.650067 14.895735 
-23.037298 5.841760 8.812115 
-0.287345 25.859629 14.707703 
-5.433019 27.229643 2.798396 
-5.118240 29.994141 -4.982517 
-11.551671 28.481117 13.533449 
-17.413939 23.111719 13.325170 
-22.746729 5.459467 9.923552 
-16.280670 26.351828 5.510783 
-26.383318 14.231914 7.937977 
-27.292080 1.881499 11.306775 
-14.944590 28.196701 0.194612 
12.032789 18.093149 10.323520 
28.891058 -0.523658 2.167866 
28.349150 7.862019 -2.326715 
26.766682 0.750263 14.109692 
20.196764 21.940489 -4.690864 
24.575642 -2.573385 6.452726 
-20.918671 20.005043 6.372980 
27.734396 -3.311228 6.226591 
21.681154 11.705168 11.077623 
-30.734253 -13.858697 6.955167 
-25.442469 15.611905 2.074053 
-18.644842 21.527557 4.154665 
-31.695705 3.267646 -3.640096 
-5.536113 22.107880 -6.541375 
-28.297125 -15.906010 7.662580 
-12.221663 21.046820 -3.681481 
22.746244 -12.114273 17.164862 
10.860782 28.735849 5.018691 
8.060305 26.693344 12.723463 
28.225666 1.779214 13.151708 
-25.044790 17.249620 11.742107 
29.080498 0.612326 10.239356 
-22.830284 21.362961 5.229629 
-33.033646 -2.760155 -4.422869 
25.180811 -13.399816 11.352784 
9.082939 18.724245 10.212523 
-18.214998 25.169493 -4.692751 
30.256065 0.716134 15.396081 
0.538093 28.564493 4.076334 
-24.791729 -9.806010 12.397038 
-24.478872 15.896561 8.546456 
13.962216 13.717278 4.539653 
-12.413116 28.683796 12.409925 
21.300846 -4.561718 7.243280 
20.034342 -7.033331 1.826625 
27.633444 6.509307 14.176310 
-21.450333 4.594930 0.679488 
12.903259 26.594080 -2.665619 
18.298264 -1.168566 10.582204 
-32.691723 -3.394144 15.219052 
16.615824 25.570158 -4.539342 
32.692017 -9.975584 10.362075 
29.565172 -12.544153 0.966749 
-32.277569 -4.178521 15.330544 
-27.629438 -3.971250 1.032007 
-29.723299 1.410809 0.576363 
-33.226452 -1.607409 17.460312 
-28.818663 -3.564445 5.859992 
-30.058531 -1.340199 4.893201 
22.598070 19.761868 1.487217 
21.893423 10.825620 5.402813 
-26.023905 0.634749 10.958304 
5.812194 17.649467 17.882671 
2.486647 29.815758 -5.355563 
-6.849889 28.610498 -1.951076 
16.837013 26.903255 -3.715264 
24.622641 -5.069353 10.658298 
29.731287 -7.642236 15.567215 
-27.294476 -9.229736 -1.605502 
28.078262 4.874270 4.154684 
-19.995024 21.455109 4.081738 
-26.398190 -9.396759 13.883943 
-23.903957 -3.425664 6.284126 
-19.393696 21.769016 11.105115 
-23.309093 -18.114796 15.761534 
25.357273 0.613299 -1.845675 
21.029232 -5.643165 -1.298627 
-32.340637 0.077216 9.664846 
8.766936 22.452831 8.675519 
