-22.229755 21.091085 2.615153 
-26.241741 -2.026464 8.273162 
25.997208 -4.219176 -2.951669 
-22.157188 -2.214278 1.845860 
18.850817 11.304110 7.752617 
-26.350832 8.374715 2.794817 
-23.537821 -13.231734 -1.586842 
-4.018553 38.929916 4.757830 
29.381506 7.870000 8.150040 
7.758007 31.927050 1.063979 
26.435745 4.431652 -1.423877 
21.548998 14.998799 5.473227 
19.356100 15.455680 2.923481 
-21.906075 0.445486 0.032191 
3.515250 28.789276 -3.638880 
-20.868561 17.432690 -2.694713 
9.332204 27.208422 -4.394334 
-12.318262 13.750813 -5.263665 
-1.161308 32.062222 2.378633 
-7.613685 17.569775 -11.522071 
21.788591 20.440168 7.038228 
27.323246 12.367139 3.146336 
14.264725 29.311117 1.639596 
28.744780 2.407468 8.399105 
14.972861 14.463617 9.075502 
-8.957788 36.143803 5.169159 
-19.335192 19.777191 -2.716468 
-4.694102 27.806629 0.216584 
28.496618 -13.982724 10.079309 
-7.603854 29.495529 0.334869 
-28.699596 9.873139 7.047110 
11.447604 31.828978 -0.848819 
6.425623 39.271652 -0.812710 
8.418128 17.348415 -7.937947 
-26.856054 12.046699 6.437613 
-14.358849 29.519987 1.102557 
-4.508899 36.761589 1.858180 
-25.674002 -8.986236 3.851880 
-15.881743 31.142818 5.978740 
17.316322 -0.414920 10.641496 
-27.246584 10.947028 2.948359 
12.249920 20.676693 1.967263 
-3.802493 28.711189 -10.716646 
-14.633502 12.997486 -2.516398 
21.576334 15.801512 1.062525 
-14.465954 32.275486 1.756348 
22.253494 5.676305 -0.450677 
18.727257 19.981083 7.973712 
-9.549694 18.873775 -0.899261 
-13.883390 27.104496 0.194951 
19.984077 -7.087008 7.408879 
26.215265 -4.915714 4.558649 
30.271179 -4.992533 2.761120 
-20.428797 12.090280 -6.237398 
-8.361456 27.964130 5.355008 
24.484436 8.360446 -1.544706 
24.541666 10.431951 7.765329 
14.409574 16.732052 -5.868478 
-15.164478 9.050647 -3.372554 
23.605207 21.048906 13.045053 
-13.480073 15.364173 -4.704454 
-6.922303 31.391569 3.450640 
8.339907 27.926193 3.660689 
5.648424 35.948418 9.554535 
1.719249 29.777969 7.497702 
25.700298 14.031960 0.931112 
18.778233 17.797115 -6.240474 
-20.723425 0.440497 1.236679 
10.867124 23.396112 6.592988 
27.673437 13.940636 9.707660 
-11.270388 21.643068 -3.484579 
5.983041 36.788246 0.904498 
29.640713 -4.756336 9.653520 
19.426624 9.494981 0.310816 
-18.440042 18.694851 4.047700 
-10.640354 15.523227 -5.340657 
17.378275 13.584591 5.698974 
-30.959919 0.163605 9.664818 
9.054922 23.090916 12.813978 
31.642151 -9.568397 6.094075 
-26.961241 5.145686 -8.004258 
-3.685916 27.254587 -0.690598 
16.623156 15.088717 0.990763 
-0.163693 38.298988 4.502197 
-9.296370 30.429012 3.000867 
7.178748 32.043652 3.832841 
-15.443923 30.325651 12.440804 
21.353746 8.490796 6.339564 
-6.893552 36.367111 1.519918 
-9.121015 20.584890 -1.488502 
18.257824 -3.314758 0.548598 
-10.456596 28.349335 2.073092 
19.505787 18.214396 -11.680011 
21.591343 -6.134893 -10.615581 
-19.488848 -3.179010 -3.222021 
-22.961557 9.474969 1.020162 
-28.464027 -0.657823 -12.043199 
-5.507383 29.278900 0.864873 
6.520089 27.940159 -9.919963 
-19.786106 2.586315 2.772233 
-24.168772 -10.276022 -2.837941 
1.073390 36.770741 12.739817 
-3.709267 37.928097 9.281946 
17.342625 10.315073 1.073288 
4.409316 38.518456 6.285812 
16.232964 20.270231 4.102964 
21.236698 12.347015 2.145463 
7.691463 26.764101 -4.354390 
14.147793 16.459261 2.317811 
-19.725586 -7.480816 1.143879 
22.315670 12.037212 -1.547844 
-12.537775 20.545391 8.509295 
11.860892 21.745548 7.198797 
-31.403538 -10.777862 0.331684 
-26.398201 15.421007 12.197981 
-12.783182 32.580853 11.466092 
15.530691 5.910699 -8.731533 
-6.666018 32.336235 8.299240 
-29.042208 -5.163065 -0.078839 
12.390086 24.824623 1.152052 
-27.843739 -0.181648 0.659320 
5.165643 24.350323 -4.729401 
20.917444 16.459562 1.023280 
11.189320 20.645670 0.585063 
-14.879240 25.056192 0.013740 
2.979916 30.999058 0.158353 
29.586855 0.872970 6.541214 
-15.754398 25.921835 -1.809151 
-2.421692 29.017393 1.845002 
21.213207 24.857321 7.153494 
-14.550445 25.689795 7.338108 
26.002478 -5.684196 0.798720 
-6.256509 31.428619 7.444530 
15.118415 18.681234 2.560050 
-13.237771 23.771790 -3.683288 
7.408687 34.985596 2.044956 
-10.732467 33.706448 4.940157 
-6.991145 28.714188 -7.689139 
7.878469 25.795799 -5.191525 
-7.652663 32.950069 4.168527 
19.493063 11.956316 7.916738 
29.798306 1.358912 5.650892 
-25.928484 -3.014170 6.961751 
21.153084 17.865316 -0.157640 
-3.050740 27.280516 -14.680633 
20.062136 15.695920 0.606600 
-9.829947 15.402512 -10.872599 
21.523937 -1.214030 7.270962 
-11.929123 15.209756 -3.560092 
25.916044 6.642542 -10.124156 
-25.661207 1.084452 1.980972 
-11.501088 20.630747 1.105750 
32.199455 -6.001632 13.073309 
28.260765 -0.707992 2.744709 
-15.808584 21.155657 -3.312966 
20.137363 -5.525188 -8.754872 
-9.509331 37.425346 0.953633 
-27.142071 3.245769 -2.446272 
-17.945402 26.202499 7.583036 
-26.006256 8.650753 4.718986 
20.041498 4.384299 -1.513561 
-22.190624 19.151613 -1.081071 
-4.972018 38.051517 6.772552 
13.912290 24.965624 8.526460 
19.139896 16.894201 3.021307 
-24.252005 2.896434 2.914792 
-27.342499 11.403040 6.198384 
-22.405331 15.081411 5.796367 
29.132526 -2.133118 -3.406873 
-22.929012 7.907562 -3.231738 
-28.219147 1.061472 8.064354 
0.146328 37.337841 11.589773 
25.136934 2.676138 9.309255 
8.390763 28.527988 0.466686 
-10.387022 14.877561 -13.444488 
13.477273 17.704239 -1.060483 
16.521502 16.724028 -6.822728 
-18.615807 16.809927 0.013472 
-1.222278 37.050240 4.768938 
-16.045641 15.503157 -0.529590 
-20.152466 -3.405373 -4.772018 
-25.518642 -10.763742 4.396249 
23.781097 -8.954859 3.734468 
-15.056241 16.060322 2.170558 
-15.178916 17.734007 -2.924354 
25.811626 11.904438 5.360406 
18.152575 21.156008 7.264381 
1.331377 36.311043 8.573509 
15.114460 20.316639 1.603637 
8.452781 17.813818 -5.350733 
-29.358160 4.194724 4.041950 
8.040956 28.092569 -4.971595 
-30.817421 -9.575098 -11.106127 
16.219122 11.964430 9.004414 
-21.655695 7.316078 2.515751 
-26.331242 1.203924 1.559866 
13.414742 26.962378 8.450746 
13.553981 31.590544 3.762492 
17.466494 26.469368 8.456429 
-25.563095 -3.554271 12.132269 
-1.119994 27.661943 -0.790736 
-28.715454 2.186268 7.722370 
16.024342 27.361807 -0.825591 
-6.568441 31.775349 4.744906 
12.836473 11.387829 -9.064729 
-13.383759 24.183788 -5.742967 
8.907536 23.450865 0.021375 
23.664387 6.073452 -0.637909 
7.044064 39.141628 -0.268352 
23.351263 -12.693802 7.458518 
-18.893236 6.330949 -3.284489 
-21.630392 -14.097051 2.503141 
11.566125 14.061342 -5.604658 
-7.828863 17.629066 -13.703323 
-17.385523 10.075905 5.788177 
5.357992 20.855524 -3.090586 
15.010641 27.278435 5.214377 
25.292727 0.821088 9.168791 
9.103173 23.904127 0.683149 
-18.770159 26.701687 0.073676 
19.871933 27.028717 6.134280 
-27.231028 3.596252 -10.874166 
-29.855289 -8.980754 3.708902 
-25.594801 7.820807 -6.700974 
-14.845260 7.303066 -9.318399 
-19.721087 19.321854 -5.331908 
-4.618260 30.390066 -0.198656 
18.578846 6.807608 1.051775 
-16.842564 2.697487 -1.693986 
-2.247810 36.210060 7.510148 
9.172247 31.264822 5.294766 
15.651267 12.597641 12.878669 
-13.047856 32.958466 6.588739 
-16.102428 29.195457 4.190949 
15.169195 27.766430 8.611427 
4.286210 27.281162 -0.512459 
-15.970488 31.177948 7.031238 
23.135872 18.084156 5.829187 
-20.276842 19.848480 -0.916150 
17.137709 15.022761 7.234529 
-28.097765 -14.504248 -1.546439 
-9.769697 26.811552 5.247684 
15.417205 22.486069 -3.961062 
18.375792 11.972522 -2.552631 
-1.504171 33.363834 3.780430 
-17.736027 15.683670 4.581772 
-19.599302 14.217695 1.492724 
0.002883 37.270138 5.385413 
6.013949 25.200584 0.431217 
-25.504002 -13.421907 -1.491257 
-28.835814 -1.731433 -11.931840 
-25.454664 8.042851 4.053345 
27.403791 4.167421 -5.430418 
24.143145 4.854016 -2.616787 
-31.416233 -8.343603 -1.162346 
-30.216221 -4.153762 -5.661434 
5.197970 26.721027 -14.482923 
31.399511 -11.250341 13.038155 
-18.215065 11.382148 3.600340 
7.168341 19.880625 -3.742340 
13.849463 14.689485 -6.326161 
-21.488308 15.540878 -9.219541 
6.064620 36.068909 1.296978 
-11.827028 25.187614 -10.597955 
-8.572329 38.985970 0.075364 
31.801857 -4.145512 5.363891 
0.147580 36.141575 6.135872 
26.824907 11.027077 1.910743 
-29.572927 -4.615296 -1.706521 
-18.622458 6.539845 -4.925173 
-14.364710 23.658865 2.013184 
-20.592167 -0.680901 -5.924113 
-25.337133 5.875863 -1.823474 
26.411131 3.864021 0.261334 
-17.282885 9.829021 11.026463 
11.479800 13.767617 -12.961226 
9.429601 27.254314 -5.880683 
19.578424 5.086777 -2.097153 
-7.674858 35.880287 0.976028 
-27.806032 -1.706619 1.907961 
23.731314 -1.268700 2.809070 
-21.598566 -5.203072 0.396123 
-30.675621 -9.208886 0.577412 
-16.494293 19.311005 -0.368620 
22.563576 -0.587340 1.311373 
-27.320074 13.207504 12.173528 
27.758812 2.645637 -8.218351 
-14.990013 19.516869 4.538422 
-19.013586 12.301804 2.301558 
-24.971527 8.404809 6.997158 
-3.843977 30.858498 0.079167 
-7.130373 27.243675 7.950529 
23.442982 4.669568 -1.389850 
-15.412139 10.107450 -2.522515 
-28.119974 -7.889846 4.854685 
-12.639476 25.239006 6.426585 
27.234758 0.068701 8.674130 
-28.935938 -0.196271 1.042172 
-21.435770 20.012104 -0.656186 
20.819117 9.375589 -6.333441 
1.042900 39.298183 5.339811 
-9.321459 24.872561 1.402605 
-20.271240 -4.278450 0.946870 
-2.712739 37.043686 11.637434 
22.819347 10.842257 -4.385073 
-9.153058 24.883947 -3.014342 
-19.409100 20.515848 5.643859 
-7.412007 18.189615 -3.934349 
27.489607 3.877764 -6.646858 
24.413029 -7.845447 3.556664 
18.852207 7.468302 0.674528 
-18.734629 15.322089 6.909320 
-2.797155 29.296160 -3.560885 
15.319562 26.116844 -0.738692 
-19.056986 16.886705 -8.350551 
-10.404290 23.170547 2.913350 
-24.651701 7.975134 -3.912710 
-16.403690 12.658488 12.351010 
-15.234362 19.560688 -4.274620 
-21.679205 -14.349504 1.422316 
27.122520 -1.444067 4.140644 
26.794792 -5.714729 -7.934789 
-28.951517 -1.781786 4.504627 
3.644451 29.339092 -8.115999 
27.765865 11.555448 5.447009 
-14.290167 31.681068 11.197293 
19.568047 1.399405 7.462395 
-21.554533 5.901478 6.268685 
-15.211530 19.989166 1.059235 
14.663739 8.302072 -5.137752 
19.510561 11.197556 -1.895097 
-20.002972 3.512278 3.181831 
-1.360490 35.415462 5.367748 
19.183737 12.417936 -2.369041 
20.700855 3.586192 8.372248 
-28.724600 -10.459374 -1.648718 
2.362735 26.666174 -4.499918 
-26.016336 6.896682 0.768725 
-15.187446 15.402845 12.382533 
-16.285257 1.177722 -5.617251 
-8.561380 31.405828 7.231657 
-16.703970 16.469139 0.185225 
-15.329218 15.504348 2.757339 
25.085958 -6.628910 -0.703286 
28.703152 -2.316775 -8.950830 
28.853626 2.874125 2.002744 
-3.160502 31.691446 7.587864 
-17.771063 6.809273 -3.150310 
6.858461 35.394459 7.500201 
17.921616 20.344070 -11.590333 
-21.244846 8.074346 4.639828 
-17.855127 9.368902 2.697659 
-17.792925 2.509484 -3.580742 
15.928028 25.806602 -1.168909 
26.615393 -15.036116 10.068522 
23.868328 21.213684 9.543932 
-26.979259 2.800938 -0.124206 
-25.389608 -3.927481 10.566182 
-12.084005 21.113514 8.841720 
3.283068 37.903278 8.163687 
-2.061671 40.017830 1.738342 
-1.148549 26.322006 -3.727683 
23.590010 -4.260927 -4.419687 
13.271018 28.926352 6.952801 
13.353140 17.144707 12.859862 
32.043659 -7.160177 8.410781 
-27.819992 12.556287 5.511835 
-11.495852 25.325958 -2.600073 
8.846410 35.069668 12.860708 
0.486039 31.403803 1.863517 
5.585221 31.965300 6.878211 
15.762957 16.921633 -6.592815 
-23.306423 16.401325 0.168537 
18.466837 27.583750 6.505504 
17.941147 10.985628 -2.753511 
14.600686 21.730392 3.112482 
20.500671 -0.142181 7.274863 
-4.837748 28.728920 -1.211067 
-20.745308 11.935390 7.216863 
-22.112059 10.657237 -4.866120 
1.268228 37.789154 1.177662 
15.343917 17.487095 -6.182651 
-4.064182 25.892113 -2.168570 
-24.301888 18.150568 4.553814 
-20.860636 17.215324 -1.920426 
-25.098095 1.472806 8.788905 
-22.138273 21.999414 3.645507 
13.738099 31.322620 2.807884 
-10.001456 35.059490 -0.947039 
-13.474271 32.953323 5.655971 
-1.935902 30.760963 -0.880594 
19.293661 2.544076 1.301419 
-14.117949 32.696285 1.115709 
-11.583211 20.316412 -5.488769 
17.610497 25.659737 8.408724 
-4.512490 20.417166 -7.693390 
5.698879 30.340252 2.900370 
-3.402211 30.864538 3.866346 
-18.163769 26.153667 -1.724724 
-27.216421 -9.789194 5.944125 
12.652678 17.506912 -3.241592 
14.558995 15.787082 2.600507 
24.570868 10.752231 -5.654629 
20.430786 -5.386276 -10.716719 
0.103919 24.778049 -0.968163 
29.936661 1.616596 4.438349 
-23.053944 21.554384 4.246513 
7.534483 33.566250 -0.840957 
0.459256 34.098057 7.142513 
15.205229 22.599691 -1.394748 
-24.994701 17.737284 4.311058 
12.906478 33.625900 10.615673 
-16.349667 2.001621 -2.939404 
25.937218 6.866655 1.431970 
-12.774529 20.977215 2.103072 
24.510765 -1.123955 3.487622 
10.589342 26.680422 -3.774028 
4.963540 37.442074 0.919261 
-5.852950 31.393961 4.772879 
3.616470 23.168797 -1.983307 
27.259056 -3.643995 9.346200 
20.095909 18.169516 5.089949 
-19.926590 5.721246 -2.353798 
-1.079882 31.971905 4.956363 
-12.830498 11.399155 -10.944499 
-18.730997 11.334815 -6.162379 
29.451971 7.811238 9.175751 
-26.051058 6.299158 -10.903729 
-16.119160 22.077421 -9.097136 
-7.759550 30.224249 2.276040 
10.436862 22.745649 8.529572 
24.913191 13.666063 7.624363 
-20.677244 3.843425 1.900944 
-3.165451 28.048120 -12.765630 
26.432589 0.873462 -4.547763 
-14.876361 30.501675 0.929917 
-20.318342 21.397404 2.991402 
13.765832 18.620043 -2.198288 
9.671453 23.055285 -2.189523 
8.036778 35.395763 12.848739 
14.885869 11.854592 -2.615810 
-24.340654 -11.056933 -2.645108 
15.301189 21.043749 1.025127 
-22.548637 5.898465 -4.243536 
-24.205965 6.117553 0.061872 
-22.348991 5.487000 -5.014326 
-18.782896 4.342440 7.324100 
-4.801071 31.320490 2.233045 
25.556900 1.948105 9.270720 
3.065775 36.693119 2.298027 
27.645304 3.064218 -2.496311 
7.050874 35.106220 3.358765 
-22.640846 -8.534355 -2.819309 
23.165537 17.988752 2.998151 
17.338097 30.380102 7.280437 
0.652668 31.085236 1.022777 
-20.069927 -0.245787 3.791312 
16.982712 10.471232 -1.969754 
-17.763330 4.015143 0.357996 
-26.851078 4.515751 -10.840687 
14.714363 29.774323 3.116890 
20.510338 13.976649 -1.151913 
-17.407597 24.058912 7.526302 
-12.785257 23.011139 4.619903 
11.759940 26.144251 -5.162651 
24.290615 0.516342 -5.464238 
-20.020475 -8.104618 3.222330 
-27.663618 -7.335598 -2.301233 
-5.592116 20.283794 -5.216697 
17.937107 11.755395 2.265577 
-11.781696 21.431789 -5.701702 
-11.638383 23.387842 -3.620102 
0.138131 28.447618 -12.211825 
-26.243690 -6.862440 4.904310 
-26.443678 15.500062 6.346415 
24.067327 10.330752 1.230513 
-13.040398 28.749208 4.272378 
-23.461094 21.642616 5.420232 
-13.310313 26.219658 1.085503 
-5.829438 26.807518 1.147793 
-0.972232 31.660885 4.115258 
12.253446 25.017387 3.563361 
4.116531 29.202642 -2.584986 
-3.020932 23.837952 -1.326207 
-22.461002 0.427050 -6.272271 
26.585302 -0.535516 5.968174 
-22.580109 -3.558066 1.858227 
2.360622 28.075098 -12.703431 
-14.796498 32.122375 5.810779 
20.966661 3.774687 -1.420700 
-5.195303 37.354984 1.040272 
-17.953936 20.438337 -3.637352 
-20.552557 -5.766115 0.220037 
-15.640290 21.260847 0.109171 
-27.889105 3.393432 -7.437009 
-20.525246 18.173840 4.310133 
-17.119213 11.442186 6.179495 
19.981749 21.582722 4.233408 
29.665947 -1.748745 6.562707 
22.379314 14.115553 7.737894 
-26.556520 5.754449 -9.183027 
-24.297819 5.700501 7.469908 
32.502403 -8.413225 10.082651 
11.400036 19.792660 0.152866 
17.531597 2.207369 -0.387711 
-24.252384 2.417243 1.784023 
-15.274103 17.376616 -8.184128 
-24.771753 9.090476 7.365036 
-27.521776 -12.425068 -0.169065 
24.547483 -5.015668 0.007267 
-21.177023 13.910079 2.586980 
-5.495975 38.689079 5.041560 
20.813602 14.751300 -1.854386 
19.713278 17.648745 -5.151484 
20.547327 -1.522113 0.820550 
29.791523 -8.240184 5.307951 
26.657909 15.338917 11.587728 
-8.402354 29.002094 -0.008984 
21.992537 16.019146 5.473347 
0.659754 34.918591 7.996088 
-18.841461 25.100006 -1.004429 
-27.602764 6.658199 2.262796 
23.513004 2.346403 2.596344 
21.061758 3.484927 -4.430923 
-13.408134 30.165606 -0.880988 
16.174238 18.600691 -3.674932 
-9.902672 36.012413 5.664630 
22.244507 -6.721035 8.527441 
-19.774147 12.359127 1.697511 
16.621500 8.769974 -0.012121 
-0.843269 31.628773 1.556889 
-18.933405 27.959745 2.908610 
16.214212 4.814311 -11.902947 
18.607401 -11.154087 11.684626 
-1.987350 25.821001 -3.722672 
-27.100525 13.373734 4.681493 
15.062114 18.104710 6.697211 
-13.869060 27.266327 6.761073 
22.321884 5.324944 1.069559 
-21.946648 6.111316 -3.536030 
15.447234 6.211016 -6.063554 
-7.695859 32.767063 4.979936 
-19.612314 -0.271979 0.740914 
-16.409956 2.528398 -4.210262 
-17.841200 -0.711281 -3.489831 
31.467747 -10.251667 8.176129 
-25.328720 3.991398 -5.511783 
15.213289 14.414260 8.148754 
-26.973261 5.118691 -4.931503 
7.045342 34.574726 1.212971 
27.321550 -11.914112 6.732863 
-10.738523 30.573967 7.931055 
27.623455 3.019575 -1.585286 
-17.974943 14.086600 5.117991 
-10.889902 35.236095 4.614938 
24.612501 -2.609732 3.795494 
-6.309630 26.543062 -2.259554 
-17.736183 10.378993 -6.178390 
-22.912336 -13.199725 2.512513 
15.315881 22.319111 -0.449885 
19.158020 2.693679 -3.491029 
5.119234 39.901630 0.721561 
23.455853 4.577965 3.051090 
28.961149 6.555441 5.348929 
-8.035338 38.453995 -0.851087 
15.612069 23.924425 2.265687 
-21.687212 -5.154336 1.578146 
12.677315 33.723534 3.147133 
0.409487 23.992556 -1.833900 
17.304226 -2.117175 -6.775489 
16.995758 8.389602 0.585211 
-19.709492 -8.690012 0.156403 
3.439326 31.865444 4.797511 
13.664351 29.469971 2.222219 
-22.729979 22.225958 4.917315 
14.459351 18.793066 5.645164 
21.264526 6.762379 6.685499 
-5.595622 39.819851 0.898082 
19.764318 13.169613 -3.758579 
26.574585 5.197225 -3.911501 
28.824575 -1.520305 7.287549 
19.594893 3.845345 4.536932 
-23.478216 0.098069 1.042949 
-3.782523 35.657452 6.346488 
28.946434 -0.684053 -6.494372 
-17.491812 23.070723 -0.879714 
-11.827573 34.676361 6.948751 
9.083513 28.645107 2.263108 
-24.143509 3.711653 -5.889250 
-18.443672 4.023616 -3.198945 
5.891749 26.906763 1.604858 
7.987533 26.491961 2.184865 
-3.464307 36.345387 8.986532 
5.072008 28.255594 -0.566946 
-26.926313 -8.092466 -2.653957 
-22.673281 6.695066 5.056201 
29.080381 6.427818 7.251468 
4.173833 31.592201 6.792419 
26.162020 -2.791006 4.140990 
18.796707 9.345751 4.945474 
19.715342 12.743092 -1.702558 
-30.818592 0.003763 7.216555 
2.343936 39.793259 3.762693 
19.468925 28.199686 8.226930 
-8.288348 16.720409 -7.961920 
-10.560055 31.104595 1.921267 
-23.184820 -0.652810 8.624830 
-19.606363 19.499926 -1.497439 
-20.800423 12.986761 1.264500 
-17.211637 1.705535 0.127041 
-22.257071 -3.740258 6.493007 
18.278639 11.338576 1.416631 
1.370241 23.846031 -1.445496 
-19.264027 18.485165 -7.268142 
-9.922151 28.399683 3.765762 
11.511676 25.630663 4.474269 
-18.677591 16.287985 1.404714 
-16.582644 21.157841 -4.114339 
7.769304 36.897160 8.074151 
-18.202826 5.714014 9.436229 
-18.985662 23.072578 -0.447681 
31.012234 -5.269862 9.331469 
-16.970522 14.300042 1.828046 
-19.884115 23.821096 1.638435 
9.483822 35.210186 2.990134 
17.683451 23.993338 8.029381 
21.671093 14.206618 -12.840665 
28.146109 4.578705 1.853388 
23.139122 -0.855445 8.644721 
9.952686 23.668749 -1.612168 
-26.407444 9.804191 6.706542 
32.031452 -6.378672 8.204217 
14.336050 32.821602 7.793336 
-14.537715 15.845984 8.067166 
-16.243998 12.576638 10.664061 
28.860394 -8.964320 5.487538 
21.467373 -2.524166 -5.438531 
19.654749 6.911379 -6.136729 
15.976971 4.333216 -6.598218 
-25.633038 -0.262782 -5.569671 
-16.118654 27.840439 -0.945850 
-8.079778 32.214405 3.730899 
16.634953 7.259925 -1.409709 
27.328440 4.461398 8.683294 
-13.064728 29.488079 6.827332 
-26.260921 -12.541308 -1.870270 
-9.476046 25.805868 7.080802 
15.333055 20.596645 -4.700083 
-14.617029 17.704550 -7.812076 
-13.405784 22.521351 -5.220956 
19.875828 5.705884 -5.427554 
-16.127535 22.155197 -7.749408 
16.011774 14.744015 0.169370 
24.293547 20.403828 7.396807 
-17.318512 10.289689 -5.371877 
-24.683538 -12.976373 1.199741 
-3.715245 23.236004 -1.830438 
30.007317 -1.977542 7.454703 
-20.558969 -8.021052 -1.382363 
-22.220713 6.342796 6.774895 
24.051420 3.776320 3.550111 
3.281407 25.883530 -3.786072 
20.243893 1.263088 2.836559 
-24.021694 9.427005 -13.073499 
-18.701204 4.105825 12.277355 
27.605537 4.000662 -3.482936 
-6.152827 29.707544 -1.122246 
14.925909 14.281622 -2.253667 
-28.051023 -8.939966 5.500204 
-4.550762 22.195860 -2.156995 
-19.436224 -3.430256 -1.669344 
-4.545938 27.745892 -1.979436 
-17.729218 -0.365802 -0.543264 
17.876163 0.812842 -2.656203 
29.051937 -0.340234 2.851556 
-14.206245 18.732040 -0.918593 
-19.093853 8.653392 -6.954819 
16.152977 11.191312 12.881041 
-24.741961 -10.857899 3.931552 
19.967949 17.855127 -3.341120 
-24.825085 -11.303222 2.974367 
11.608731 27.477655 5.555934 
-22.945461 -11.907574 3.279355 
2.655175 29.176128 -3.677215 
-26.860470 -7.320260 4.566230 
-8.514215 34.680984 6.124202 
18.041088 21.331432 6.415837 
-22.399544 14.634387 3.628207 
-5.977113 38.907402 4.328571 
21.789343 3.924051 -4.105959 
22.436865 -7.482728 8.795121 
-3.220968 26.194319 -3.916300 
29.103910 6.180871 4.638513 
-19.223547 0.492615 7.418863 
-16.326864 26.081644 -2.475099 
28.288088 1.942177 -7.097669 
-22.998865 15.502080 5.333488 
-22.947372 -4.494925 0.148604 
14.673690 23.072723 3.680715 
-19.599421 19.338200 -0.680297 
10.674170 28.870930 2.962397 
3.205356 38.095928 0.575517 
-26.372679 -2.681796 7.525165 
-18.778280 -4.237837 -1.263109 
22.259275 -5.605704 0.199126 
-8.857743 27.070559 5.836104 
-14.744969 32.201584 8.017385 
22.010035 10.693549 -5.324223 
10.480147 28.279867 6.439337 
-6.838780 24.012032 0.185288 
3.174553 31.305838 1.141215 
29.990585 -0.246931 6.256335 
23.457272 8.037573 -5.460474 
4.858601 38.839458 5.218257 
-18.164103 10.000073 -6.881631 
20.590221 -0.228668 6.485194 
-21.584518 8.531349 -6.706019 
15.826680 12.601208 9.966215 
18.503159 25.140305 7.088059 
11.633930 24.932026 0.929191 
27.550228 -1.127361 3.456617 
-0.462885 29.893534 -8.124397 
13.297422 10.698177 -10.524669 
18.729601 1.852256 -3.781428 
6.680111 33.904984 0.956653 
20.459751 7.297709 5.403094 
16.195890 18.911938 5.321830 
20.140764 14.901006 0.543220 
17.956301 27.705084 2.498786 
1.773339 30.225115 -6.254399 
14.899139 32.256527 7.395847 
1.292818 40.185078 3.042298 
31.106384 1.628456 9.648178 
-17.148088 28.599213 1.367174 
-5.041137 33.218872 3.517872 
15.673203 22.180769 6.316482 
-2.439108 23.029064 -2.704971 
23.209152 1.625121 2.367825 
5.558849 19.529615 -9.229152 
-17.106791 1.779797 -1.498504 
-9.528873 33.611969 3.638786 
17.981119 -1.021045 -0.411398 
-18.956356 15.542290 1.496673 
-17.846172 16.652632 -0.373819 
19.824076 -3.400759 2.266487 
-18.661533 -8.712184 -2.327650 
24.401512 9.493663 -1.481229 
-29.200329 -6.585936 -1.318457 
-6.284704 18.938681 -13.821110 
2.910455 34.459084 3.356948 
21.243454 8.500948 -6.348474 
-13.651731 28.871178 2.795243 
16.721928 21.579325 -11.855586 
22.973179 8.535532 2.929300 
-22.186653 -0.367335 6.075922 
29.040838 8.561708 11.504950 
-24.199224 -13.408863 0.148991 
16.795204 17.794603 -6.365057 
-13.232068 18.662231 -3.386750 
-17.463526 28.684753 12.400670 
-13.279710 25.532280 1.538499 
-2.856220 29.705309 -7.368004 
22.040327 6.191107 1.075711 
14.932688 19.745998 -2.755637 
-8.741242 27.854288 -6.385365 
26.559736 0.078300 -4.483434 
13.518274 28.630316 4.155492 
-10.783491 19.671762 -5.149428 
-11.099476 34.914814 3.761795 
-20.706232 15.802055 -12.211912 
-14.243438 18.257652 -4.847561 
-25.376989 3.069605 -5.689492 
7.805553 32.739128 -0.139601 
-20.100931 19.047775 6.904846 
25.725573 10.755677 5.074749 
-27.633593 -4.298384 0.747584 
32.088127 -3.709106 11.958220 
29.325893 -6.314054 10.266345 
-31.459930 -11.117598 -4.089846 
-26.181356 5.053760 -2.529532 
30.420124 3.593331 7.163395 
22.066648 -1.065091 0.685497 
19.924826 0.627676 7.213249 
20.484665 17.527405 -5.415205 
-10.383801 32.090370 0.992628 
16.884811 22.045918 -7.481072 
-18.135956 15.620137 1.089156 
-6.660623 25.909966 -2.832218 
-16.400797 12.548608 7.851615 
-15.189143 6.357706 -10.689754 
19.286413 14.658090 -6.502545 
15.000908 14.831502 7.193451 
22.751732 -2.124649 7.169612 
-9.954238 23.913265 1.665530 
-19.087006 -3.306626 -0.614144 
-25.856581 -11.565481 5.123333 
22.116148 -6.732554 5.195408 
29.935659 -5.023387 6.748357 
-23.252840 12.984740 -7.510578 
13.407343 32.695515 4.530937 
22.931145 -5.248260 8.569590 
-28.182043 -0.614412 -2.571270 
-9.107078 32.259441 7.133078 
-13.114401 21.967987 -5.722002 
23.412058 22.043922 9.259509 
16.419527 3.970446 -3.876791 
-14.851050 7.486623 -7.883008 
-2.180912 32.104076 7.498394 
-15.701469 20.360283 0.379020 
22.294598 13.587309 -4.147099 
-12.713749 19.194872 -5.055348 
-29.881510 4.858087 5.585683 
-28.673201 8.209857 5.707337 
-22.333738 -5.638583 -1.351262 
-20.654865 14.738429 3.372631 
-10.751881 17.384270 -3.671929 
-28.452333 10.769093 10.750741 
-5.126737 31.358273 2.993065 
-8.895989 25.268988 9.495779 
-14.834064 16.130014 -2.275422 
30.896587 2.677054 9.037820 
23.986427 1.601814 6.730370 
20.864765 -7.962893 6.643108 
32.075588 -5.260852 5.957934 
25.394978 7.668871 7.665153 
24.936871 -5.545375 9.806101 
-13.441149 16.211159 -5.406338 
1.339145 29.317039 2.036100 
27.307043 0.897266 -4.001375 
4.840908 22.994642 -3.603768 
10.702961 26.702625 -5.765901 
-24.932716 -11.959118 4.756500 
-13.959402 26.317989 0.399023 
20.672363 6.026685 7.654047 
24.427389 10.989449 0.842192 
-18.879917 -9.390049 -6.494679 
-21.626911 24.154898 5.469248 
-21.400032 14.476816 0.167676 
23.670977 -5.307991 -0.348420 
-17.915558 0.636924 -5.272420 
-16.958286 19.541134 1.764982 
-13.304122 30.828348 7.619132 
-23.404335 4.841671 7.854152 
-26.349842 -13.709888 3.761259 
4.446751 29.700167 3.465678 
21.658167 20.805307 1.792233 
1.372393 28.378347 -1.345912 
28.855326 -4.466818 9.708991 
-11.406292 26.179699 -4.576639 
19.272495 27.736286 5.484174 
-26.545013 4.213462 -4.428729 
-26.461487 5.424258 -10.806834 
18.686319 -4.462456 0.539691 
2.378576 28.708929 -10.992094 
14.234789 8.933270 -9.994741 
21.363558 -3.411406 -5.114984 
-20.353718 14.786334 -2.308774 
-18.339193 9.023642 -6.878660 
0.071336 38.615227 8.403968 
-14.222404 20.672394 -3.814844 
-8.055451 27.509455 6.210593 
-4.404067 25.160519 0.107330 
26.401321 3.907215 9.029202 
17.262478 16.963398 8.387115 
-5.735681 19.464432 -8.542620 
-17.038017 11.202346 -3.466462 
-27.111631 10.125100 4.924161 
9.849617 35.408905 10.383068 
14.526428 15.856842 3.500132 
17.379539 18.508690 -5.062761 
5.557788 30.276524 1.738888 
8.551901 23.292154 -2.657967 
-4.057921 38.399582 6.051255 
-13.089995 24.313782 -0.952169 
22.262993 5.432562 8.470070 
-26.021231 9.045681 6.708675 
21.945904 11.726631 1.125491 
31.571020 -6.158950 4.936169 
18.845209 6.826711 -6.025396 
-25.082136 -2.890531 2.857270 
-26.489309 6.045414 -7.751094 
-10.753777 33.995338 6.020775 
-17.098616 7.410252 -2.526009 
-15.544086 30.874355 4.261126 
-24.839087 -3.477823 6.376131 
0.391065 35.958138 2.152073 
19.577923 14.940229 7.019726 
-22.200514 6.179461 2.811745 
-7.594995 28.177143 5.779615 
-28.963572 -11.302905 2.332570 
25.859283 3.886011 0.996812 
7.189666 38.060253 4.867696 
-25.142805 3.266042 1.950915 
-22.452747 -3.275989 -5.100737 
-19.330063 -7.741813 -0.408447 
29.556963 4.241940 5.070028 
19.015017 12.987327 2.055983 
-29.846140 -3.562722 -9.461725 
17.628014 25.651045 -0.265856 
-9.186616 37.328098 0.095895 
-11.157500 22.057611 12.476772 
6.499467 34.906826 1.702909 
22.464979 10.009050 1.853623 
-20.840445 18.259748 7.003616 
20.714697 12.568096 -0.016517 
9.232674 21.348957 -1.702068 
-20.999559 -5.928168 3.006015 
-9.717240 22.421581 -1.572174 
-4.956714 27.113621 -0.755691 
17.929035 10.851016 2.277499 
-19.526758 8.056773 0.250794 
-18.734463 24.352570 -1.289052 
-1.235836 24.961290 -2.107751 
5.359730 34.807419 9.298799 
-14.645577 32.107994 8.970681 
-11.690180 22.260361 2.885839 
-26.586983 5.584050 7.265032 
-19.771669 -12.576981 -0.132404 
-19.472267 13.784337 4.183335 
-22.256805 -3.021824 3.043910 
-22.955011 6.180244 7.045050 
-21.268774 13.466497 4.746367 
20.226660 20.435255 0.100237 
-19.614466 27.455627 3.927311 
-18.753941 8.115073 2.631149 
-25.737848 3.855662 8.230903 
-0.069047 35.714230 5.083014 
-7.943013 26.930763 -4.660872 
21.463985 5.433292 -3.892166 
0.241765 36.973656 6.100721 
20.290554 14.082744 -4.614026 
-28.940220 2.227126 1.747475 
14.624236 15.949795 4.423921 
-12.479228 18.030308 -3.373545 
-6.993084 22.684561 -1.963047 
-6.343834 19.808008 -4.773215 
11.253957 25.735538 -9.903681 
18.508852 12.271640 -3.786407 
-10.775073 20.858616 -5.462876 
26.122456 8.484631 4.433599 
-9.806576 24.438972 9.227213 
-21.131533 6.693198 -4.343640 
27.219036 13.112694 2.846639 
1.789912 39.547421 4.888852 
-19.436188 24.472223 6.732832 
23.946831 -4.128710 8.631548 
10.549182 32.375439 -1.097846 
-27.308754 -4.188163 1.481197 
3.747187 20.732840 -8.784855 
5.623646 32.562775 3.148680 
-19.048510 10.067139 6.181968 
-17.619572 18.129667 6.998536 
-13.170004 32.068714 7.388283 
-13.234231 23.513496 -12.861007 
10.658786 26.734680 -4.678842 
-13.536533 32.142200 11.335392 
-11.679970 30.111101 1.354521 
-11.174236 32.198982 -0.914591 
-7.781339 20.066965 -3.301046 
18.771063 16.117540 3.320251 
5.446057 29.132309 0.149014 
-19.453743 1.749921 12.255096 
31.796913 -1.459244 10.559300 
-21.348949 -4.470109 1.133473 
28.033129 -2.395690 3.791437 
21.338661 16.598331 -5.860029 
-20.293129 14.939283 -3.749614 
7.044711 37.152267 8.656839 
23.014845 -2.536793 1.996515 
-21.387743 23.906151 4.559723 
-12.377810 33.031620 7.422757 
-13.203365 33.454464 4.186053 
11.920261 18.491720 -5.178005 
-20.922035 -2.532217 7.006764 
9.538338 24.886732 2.061634 
19.935432 -5.101195 1.653439 
17.493034 21.318159 5.311423 
-24.143099 19.202349 4.437459 
-5.885047 27.041277 -4.251162 
-22.628178 13.411407 0.170078 
-23.279537 -13.428596 1.195765 
-2.723193 36.880096 7.572111 
-24.073406 17.026384 4.709541 
-24.890827 5.742206 -0.455438 
5.331202 29.003204 -0.791139 
3.824950 28.590109 2.028388 
3.684957 29.750746 -5.937464 
14.748396 16.075735 1.788005 
8.332247 26.043503 -4.535637 
-1.741634 34.099159 6.996775 
23.620008 -4.934300 8.889030 
13.498024 18.572559 1.102431 
-27.940313 5.481454 1.108935 
-23.069233 9.628786 -6.430905 
-21.787724 7.685630 1.806071 
22.418913 21.167913 3.707398 
11.606343 24.639439 4.976566 
17.805780 15.080496 -7.047629 
10.695317 24.402735 -1.507338 
-4.053154 26.133780 -0.663269 
-21.546692 -1.808689 12.205726 
17.199272 10.740499 6.632124 
13.624417 15.346981 0.109440 
-16.462889 21.025951 -12.329842 
5.090992 26.386118 -2.378758 
-4.734107 33.982254 9.672502 
-12.857668 21.390974 5.797662 
-16.521795 13.632708 5.524632 
14.068663 29.660017 5.153421 
-6.745941 35.079411 9.821958 
-26.557621 -4.433705 7.074258 
-26.497576 5.367210 -4.077813 
20.961222 14.836245 -2.728750 
18.384386 28.114836 5.267392 
26.767235 -7.991822 10.604096 
-23.396599 8.664856 -0.812048 
-20.863998 4.184918 7.451694 
17.636379 8.349929 8.554722 
19.300308 11.281547 -3.647452 
-10.185060 31.183441 7.932795 
10.719597 26.823000 1.276315 
11.367230 21.482668 1.334034 
22.573406 -8.478988 4.914987 
-15.196378 15.868314 1.107391 
2.778082 36.020012 9.744812 
13.292208 22.066231 -6.045124 
9.673446 34.950951 0.692786 
20.724916 22.701408 4.196177 
16.810762 21.976446 -6.373188 
9.075788 21.239559 -2.880460 
9.036410 24.328999 -3.105136 
20.724575 -0.122416 5.533329 
11.476090 18.773073 -2.493081 
21.380529 0.440380 1.145913 
18.868336 25.934330 5.627980 
9.181149 24.509708 8.425963 
-25.021646 -2.366493 8.317154 
20.870590 5.773382 3.468220 
-15.872287 19.748722 -0.896235 
-21.885780 24.456741 7.740508 
32.442436 -4.543866 7.914161 
-26.334692 5.875308 -5.030695 
17.385580 16.968544 -6.777678 
23.686758 4.201746 -4.137333 
-14.708013 28.159876 3.317478 
5.381889 28.356907 -9.966443 
-20.715498 8.379889 -0.227726 
13.770518 20.019718 6.661188 
-15.172751 21.342621 3.464530 
-13.277189 27.094212 1.115558 
-18.675076 14.903191 -0.959283 
-16.108995 21.376461 2.043283 
6.901567 34.032246 -0.135915 
-25.133492 6.800386 -3.777987 
17.224976 6.548097 -3.192615 
-31.135941 -6.916898 -1.489984 
5.388347 23.240904 -4.335778 
-14.687459 19.561937 -2.541131 
-11.499244 24.808434 -3.269150 
-28.510221 1.037626 -4.077339 
25.331718 8.495173 -9.296523 
25.097383 -0.103057 3.694238 
6.592251 32.332100 4.579793 
-13.970246 31.285927 5.669724 
25.273582 7.783522 -3.526520 
-23.714466 21.506357 9.398277 
-6.833033 30.221195 2.052121 
-28.084087 -4.801304 2.023230 
8.186985 35.843262 11.512572 
-21.602880 0.631553 8.368220 
-15.981458 21.329407 5.611943 
-23.310797 8.634986 -4.266035 
-13.568355 21.314308 2.946467 
-2.097831 28.174347 -12.756552 
-17.713913 3.589250 1.144784 
-14.976210 17.672892 -0.314692 
3.243869 35.842800 2.845673 
-4.014332 31.364061 1.666447 
-6.489664 36.824955 8.434453 
30.460863 -6.937206 4.754910 
-17.667177 0.512454 -4.121119 
21.003534 -4.864069 -3.878953 
-6.634686 29.532602 -4.460740 
-9.886642 36.002842 4.119791 
-10.611591 26.919256 -4.456219 
-20.662365 -13.143617 2.715563 
-24.933638 13.169043 0.066738 
-22.998587 16.722683 -0.577987 
-16.826200 23.076008 -0.076937 
-19.411333 5.585828 -1.657354 
-21.519798 21.335960 2.872609 
-10.820465 14.858849 -6.822326 
-2.150532 35.323540 2.225055 
19.063499 14.671330 6.389903 
15.902441 14.753362 2.891795 
-0.403110 26.465033 -3.130974 
22.558804 6.173707 8.248616 
-21.397017 19.435343 -1.342935 
-13.678177 33.066242 2.926574 
-21.295130 -1.388623 -5.835910 
-20.545532 -7.767046 3.841538 
-28.541569 9.811108 12.139188 
-17.049963 29.244967 4.201324 
-29.305771 -1.243705 2.841052 
-1.372150 25.381388 -2.956248 
-6.885133 18.294201 -11.160615 
-18.685656 19.965248 -5.559960 
11.298384 24.039709 -3.769566 
-3.326765 26.546070 0.583350 
23.674978 6.739226 -4.283624 
-13.996888 22.984400 2.912641 
23.606796 -0.883391 -5.567826 
-26.666555 -12.647010 0.031730 
0.925031 40.507378 1.295920 
17.493168 12.065405 -5.320301 
8.061423 34.188591 5.468771 
-20.285089 8.848914 7.531848 
-16.011612 18.160460 -8.245367 
-22.354784 9.361182 -6.693492 
-12.511626 24.152754 4.481415 
5.877820 36.960915 10.877685 
15.173494 19.657244 -3.709516 
-20.995790 26.002188 8.540988 
10.698444 16.146315 -3.741347 
10.679740 26.580629 4.653022 
17.951389 28.740549 5.529304 
-17.172630 7.994998 -0.447659 
-8.089602 27.960554 3.136949 
9.488740 31.795740 1.273517 
18.105989 23.646904 1.580698 
-9.800576 21.168314 -5.140756 
15.130466 15.260125 3.847536 
-23.813643 1.068722 2.003437 
-19.914238 16.143511 -13.740673 
18.225252 8.426956 7.175584 
-10.609892 26.810316 -3.508579 
21.652491 12.370612 0.377289 
15.962146 18.740227 0.426802 
-12.761218 17.943962 -2.438116 
-4.938909 19.974802 -9.189216 
-27.765123 -8.125369 -2.341089 
16.826471 -7.525140 12.813752 
10.166777 17.645584 -4.018932 
21.715919 8.894502 7.625938 
26.310770 6.474905 -5.267251 
11.036810 15.061742 -5.260278 
-24.333973 -1.579167 1.938136 
30.547569 -9.026324 8.463281 
-29.260855 -14.027947 -4.275012 
-20.745115 4.750842 3.555086 
28.483004 -3.631477 -2.318977 
-17.322073 27.620249 5.196528 
16.154903 10.399287 -1.098009 
14.384477 17.281216 5.232401 
19.004673 5.376546 6.979423 
19.157669 13.459983 2.833449 
22.869532 6.237530 -0.201278 
7.866467 28.008043 -3.768426 
17.381969 8.445715 -5.044686 
8.854209 23.821535 -1.255660 
5.839926 25.829996 12.772499 
-30.610830 -8.582578 -0.034704 
19.025970 19.272120 0.714301 
22.055227 -1.796148 6.692026 
18.031557 10.716839 0.481234 
19.575287 22.108744 1.827734 
-17.275236 24.889210 7.664911 
-19.808201 14.414303 -3.353697 
15.133383 9.709224 -2.122125 
20.652468 6.924230 -6.095787 
-18.945116 1.290029 -5.732715 
-25.271103 -4.289410 3.686098 
19.794413 -2.092785 1.245118 
-5.305857 20.735968 -4.300122 
31.160748 -7.104048 9.729506 
9.569915 22.470715 -3.610140 
-20.590841 15.902578 -0.624645 
-23.913698 -1.336359 2.810444 
17.213448 6.062102 12.877027 
16.695908 26.546284 8.676254 
9.292059 32.746330 8.145418 
10.939036 31.467079 5.302194 
7.106757 26.208967 8.900562 
-21.277121 -5.493881 2.360388 
15.096519 22.277975 -5.605409 
-16.004202 6.541918 -3.220568 
24.136309 8.361296 5.665693 
28.076710 -1.203696 4.323188 
-14.081319 27.741102 5.845603 
-2.982638 31.205359 0.387916 
19.248547 8.669986 0.373942 
12.378185 28.268629 6.856042 
12.073089 21.712547 3.012909 
-28.943865 -11.056062 3.294444 
27.495703 3.615448 8.793371 
-10.755779 29.474873 7.510594 
-12.560230 32.266251 12.496421 
-1.966074 34.187428 8.001119 
-8.489660 36.385201 8.437844 
8.302952 36.179340 10.240687 
28.910933 1.008816 8.230187 
21.107714 6.622198 5.836694 
7.141958 39.084892 2.252985 
-0.468876 37.963642 3.696099 
25.775274 -3.862649 2.047020 
23.466581 11.016717 -0.683044 
17.697983 19.574530 5.148888 
17.423450 28.276438 2.330232 
15.116907 28.994789 4.839156 
4.711392 27.733540 -12.288299 
-5.383125 39.630600 1.998630 
7.462039 34.807941 0.061602 
24.437700 15.012033 0.925134 
16.650608 11.485310 -2.581935 
-19.600943 0.554283 4.043931 
15.111200 12.166626 -0.254573 
-21.836300 14.927856 -7.874180 
22.876217 0.807644 9.018129 
-15.543128 27.980116 7.073095 
26.181152 10.489002 7.041790 
23.527168 9.298626 7.577944 
-29.374792 -6.833877 2.053142 
22.782516 3.941047 -4.521440 
10.283595 18.685652 -4.863848 
-12.989894 29.664692 -0.320525 
-19.412159 -10.824211 0.402839 
19.228836 3.748477 -1.806454 
-25.260994 5.298790 7.656415 
-17.632977 11.331520 -2.001953 
15.110135 10.799448 -1.698785 
4.184403 24.572147 -3.600979 
10.917488 23.408413 2.197115 
27.242178 -2.585243 3.837992 
6.156022 22.895639 -4.434213 
-27.454941 11.631441 5.266598 
7.466170 31.300716 1.964306 
23.983328 -6.818106 3.547108 
-15.670960 16.991138 -3.432789 
16.393213 20.578348 -3.290500 
26.922192 -2.275713 1.498230 
9.212649 31.420462 2.009183 
23.015936 4.380675 -3.638155 
-17.347641 11.903180 -3.146390 
13.300836 24.575197 -1.227660 
-12.520717 32.419422 8.158572 
-26.209641 -4.145848 3.502473 
-5.847597 34.568764 9.849545 
24.114511 2.037802 -5.342948 
19.763021 -3.860201 7.459044 
-1.682143 31.215487 4.039993 
13.749557 24.180590 8.219892 
-27.776682 -2.212625 6.459079 
23.274534 4.933273 -2.355368 
-24.498503 -5.191435 -2.258738 
-4.548527 39.602131 2.425503 
-18.647699 28.428404 3.502342 
-10.568609 27.780378 0.949452 
13.361567 20.664370 -3.606622 
-17.879152 9.254926 5.421329 
16.997444 8.287791 11.588029 
-16.518816 2.868812 -12.231564 
-11.078730 24.180799 2.813827 
-23.400160 -9.890904 -2.832016 
-17.208796 16.976936 -5.276990 
22.029119 3.556137 1.433322 
-23.796505 9.503051 -4.098754 
22.670668 11.308490 -3.471895 
-24.168337 -7.786547 3.321365 
22.840183 1.613247 9.112585 
-22.637867 19.828133 0.468691 
-16.318651 1.880216 -6.598899 
-1.725769 36.224167 3.873025 
-27.183599 2.971206 -4.343270 
-19.006973 14.761242 -6.353587 
-19.297064 13.318473 -3.636963 
16.159729 28.286295 5.120141 
24.826328 9.827533 -4.298179 
-17.213512 10.662459 0.616033 
19.337687 -5.620316 -0.572188 
-20.518740 6.331552 -2.527913 
23.539698 6.498411 2.120925 
20.317661 16.681717 -5.198365 
-11.751634 32.770481 -1.879887 
31.051437 -0.588029 7.797498 
1.105654 37.300190 11.698916 
12.971251 21.441257 6.310373 
-17.394470 -1.224910 -10.210515 
23.625910 -9.511891 4.817825 
21.404238 14.635956 6.839032 
-2.566238 28.519842 10.090038 
-14.232121 18.949194 -1.933148 
-18.929522 13.681403 -0.529038 
11.677065 19.378899 -5.622081 
-13.010834 24.735765 -8.571361 
-7.968441 30.320339 5.311559 
-12.225846 18.333860 -4.596416 
-29.758091 -5.328425 -0.401922 
-17.859566 6.920150 -5.057800 
20.714859 17.147745 -9.534404 
-23.849220 17.347582 1.165726 
-4.120886 28.704792 -1.753530 
-11.553098 23.392838 -5.554500 
-10.431847 28.873154 7.098697 
-19.408846 12.256300 4.613060 
-0.274684 32.871849 4.247587 
-2.735831 31.997923 2.921731 
27.521271 12.519453 3.995900 
4.376810 24.928713 -2.745803 
-4.177518 28.001286 -12.430707 
-8.758343 22.168940 0.717105 
23.409185 -4.235072 5.610855 
5.715044 35.665966 1.978555 
-1.978652 31.308529 0.369207 
-12.329243 32.151493 5.935182 
-22.836164 16.549383 3.587639 
-7.885822 26.654692 1.843791 
2.995996 30.776525 5.552544 
-19.727976 27.331215 10.213801 
-19.300343 -5.912348 -0.698582 
-26.583050 -3.931520 1.175665 
26.671446 2.966826 0.712075 
-21.440594 1.681599 8.269614 
-21.191227 7.581997 -2.507392 
5.942097 28.566393 6.315260 
-12.555410 22.595083 3.489436 
18.091686 3.217723 8.559367 
4.181301 37.546547 1.121782 
-2.367555 21.720526 -6.610427 
-24.385323 -6.109618 -2.726853 
21.161161 16.473818 -4.956594 
-28.806416 9.910594 8.101148 
9.871502 28.113544 2.187998 
3.476533 32.229469 7.707417 
2.280910 36.045670 2.743595 
24.186480 11.397941 -7.009859 
5.822202 27.735907 2.397513 
13.508107 24.352720 2.957879 
19.444107 5.297708 -0.069205 
23.811548 -9.109763 9.604638 
9.779257 25.340269 -2.218483 
-17.619864 26.844133 -1.544143 
17.246162 3.161815 12.865419 
22.897264 22.854973 8.940336 
18.285431 7.071091 8.004732 
-17.871378 20.397026 -4.450311 
20.385849 26.704561 11.366090 
-6.958867 37.045704 9.054854 
8.387228 36.413902 9.042934 
-4.762926 27.868382 -1.205186 
20.156597 11.503470 -3.688914 
8.813981 16.951878 -13.353854 
-22.418699 -10.028284 -2.608191 
-22.983877 2.946006 -3.109678 
-5.613620 36.627533 11.155808 
-5.837553 28.403059 -10.124476 
22.944500 11.950834 -12.572699 
-25.579363 -12.132614 -2.187484 
-19.998413 24.889418 2.177286 
15.102323 28.313614 0.062641 
-21.487755 -3.564130 -0.684439 
-21.487997 11.059910 8.152598 
14.083048 23.097763 2.549607 
26.750072 2.073514 0.565653 
23.623503 15.165956 1.003928 
28.231501 -5.836666 3.930074 
-4.224786 30.058609 3.361228 
-27.863979 3.579213 -6.564539 
19.166668 5.345648 -5.117679 
-27.029978 8.060485 3.110776 
0.455417 30.061756 0.057556 
20.685375 15.196726 -1.209770 
11.632011 20.597204 -2.971226 
-20.942488 -5.537429 1.063595 
0.200866 31.006237 6.231259 
-21.326765 15.709875 6.602964 
-9.104446 22.636780 -0.542331 
17.394609 -1.444669 -9.399445 
16.813368 0.605499 -3.974460 
4.541597 20.441984 -6.660145 
-7.235803 39.045067 3.145430 
-3.376283 26.891191 -4.294643 
15.532429 18.952772 6.771501 
8.654840 28.652184 3.395167 
22.075264 6.467879 -5.476262 
-19.053350 -3.331645 0.250961 
-0.381729 27.461170 -14.656247 
-26.007521 -3.230153 -0.738141 
0.138606 36.765629 12.724401 
-26.517593 14.106084 4.387584 
26.230099 -2.804199 1.918702 
-22.862984 8.187603 -0.416319 
17.964851 20.782623 -8.282809 
19.971172 16.535656 -6.192937 
-9.000543 35.899437 8.911098 
-16.251371 12.541992 9.167028 
23.617388 -3.706453 6.184113 
-25.836624 8.738210 5.898520 
18.650797 9.827386 -5.780783 
5.607934 29.151859 5.785904 
-9.379985 38.080742 1.594304 
-27.872372 -4.888204 -1.514403 
-0.583744 25.452953 -2.200642 
-8.833224 26.462980 2.192363 
9.988351 25.023706 -1.523788 
-9.326160 37.978390 2.456627 
8.675631 35.781212 3.833706 
19.891642 8.857431 0.821924 
-0.666627 33.722084 3.575811 
8.766664 27.388720 -7.246784 
-17.196703 10.560999 12.329166 
-7.167441 18.920502 -3.370869 
20.465666 10.727310 -5.465804 
-21.009443 4.248253 -5.858582 
13.077926 28.615770 7.817729 
-3.197814 28.165192 1.354304 
-16.907970 18.751202 -8.255858 
-22.200735 -3.382837 3.939187 
-17.015396 9.251223 -5.567361 
-26.915144 -10.990652 5.691336 
15.959367 4.933448 -10.063508 
26.534170 3.749157 -11.615625 
19.346632 22.267717 4.033105 
-26.869694 13.058245 3.791491 
-15.285089 19.038162 -5.696132 
25.388996 -7.942559 10.336978 
13.531436 16.295101 -1.562385 
9.803346 26.971670 5.056477 
28.124245 10.070483 5.948738 
-19.425110 1.312510 4.749298 
-22.026060 15.230063 -0.953960 
-26.234667 -3.017540 0.090976 
-23.205971 -8.921238 3.300610 
-15.351811 25.550493 7.561257 
4.691463 23.948799 -4.103631 
20.762581 17.305033 -8.567531 
-7.661818 27.218063 -11.444934 
-6.082409 28.200378 -0.911991 
27.312099 5.519523 5.917937 
23.052971 -13.178645 8.263681 
-27.222616 -2.646968 5.932960 
13.820312 9.848784 -6.332027 
-17.403002 15.338958 -8.296229 
-16.375004 22.992176 0.736921 
-18.921953 -10.506806 -4.937003 
-9.612299 29.411093 4.989511 
1.798994 29.907423 -7.537385 
-4.806290 23.484722 -2.937521 
25.318926 5.001866 6.074638 
-21.725941 13.845495 1.081422 
-30.137022 4.451269 10.937085 
32.559872 -8.477772 8.830214 
-21.776699 13.051348 6.477950 
30.983562 -1.411377 7.229170 
16.567629 6.237129 -1.518322 
-10.517621 30.324640 5.284964 
20.503130 4.360695 8.134756 
24.322739 16.650240 4.141587 
3.061193 20.762360 -13.866092 
-20.732315 -4.252523 -1.633505 
-19.300116 7.896916 1.836891 
-23.829287 6.445517 -2.729970 
18.918478 6.085396 -1.316788 
-21.597382 4.409700 0.948106 
-25.421349 13.414037 1.154492 
-17.624825 9.311350 -6.677791 
-19.899857 -0.037269 4.746332 
-27.167021 11.653048 2.584321 
31.883694 -3.755785 13.077515 
6.981783 30.114649 5.796458 
30.458300 -9.322243 7.319902 
-12.452868 32.111263 -1.820794 
-28.175888 -11.254706 3.476716 
-6.755793 29.861246 3.857324 
29.286673 7.666277 11.636436 
15.975772 5.829965 -2.908432 
11.013109 21.254000 10.457904 
18.008286 9.375142 -5.429073 
-19.686722 18.575855 0.097270 
27.233427 1.163872 8.879991 
3.601297 28.897354 8.056525 
0.051272 35.069748 4.512533 
-21.650406 4.379251 1.961281 
28.157997 13.005242 7.791690 
5.588933 38.468800 5.709115 
14.137029 25.161304 1.545275 
7.225444 28.495394 -3.057905 
-15.390850 5.699255 -8.694923 
-18.565258 12.800579 -3.735654 
-26.844542 14.854949 6.753692 
22.532549 18.605045 1.122032 
-18.138273 6.552665 8.485599 
16.794636 23.147532 1.788963 
-11.865434 31.822786 -1.050673 
-18.952587 22.018490 3.529742 
4.927381 31.791792 5.458755 
0.535821 28.959908 -1.528266 
18.828505 13.934107 -6.507791 
-7.783508 38.197800 5.042706 
8.129277 36.639706 2.807375 
-24.309328 18.742279 3.808966 
-16.929771 -1.028096 -7.463541 
19.492863 22.121386 4.984067 
-18.083853 25.192623 7.581071 
-15.218325 14.240093 -0.826763 
6.950914 28.862206 5.296441 
17.126982 -0.537855 -9.318446 
17.633530 0.942392 10.023649 
-9.602015 34.403446 4.006561 
11.346811 26.707806 5.903229 
27.713322 -4.302335 9.751484 
0.834775 36.538898 1.794699 
-16.154192 13.904870 -0.919892 
-28.445539 -6.153803 -1.663444 
-4.475506 25.628651 -3.818736 
-9.856195 26.519861 2.934609 
25.440012 0.314205 3.020326 
-20.863628 19.873671 6.454723 
19.378574 -4.138897 2.268342 
26.082306 -0.418549 2.893266 
9.642804 28.001032 6.176093 
-16.479216 29.021215 1.962729 
5.593414 26.761982 -2.998322 
-12.321877 24.584948 -0.495247 
16.880634 13.058987 -0.363204 
-23.327679 2.364100 1.360805 
-17.065613 9.280496 0.899291 
-29.872925 -7.373267 1.703331 
14.984836 12.147100 -6.060842 
30.705173 -10.770579 7.286377 
6.041172 29.356836 -4.944426 
-21.036150 17.025749 4.203276 
-15.711288 15.413622 0.715445 
-23.682653 1.710094 6.117621 
-10.508159 30.369724 2.594632 
23.544233 16.236258 3.450873 
25.979788 2.643856 9.226767 
-17.358994 19.555143 -6.879150 
-23.713575 19.920095 4.545559 
25.185356 -4.080299 2.567088 
-10.655678 24.257328 -2.009629 
-7.809784 23.142744 -2.560152 
4.003903 39.777481 2.764321 
-27.699194 13.444230 7.634420 
32.253384 -7.318113 13.068686 
-17.882637 15.543165 6.931922 
24.128014 4.356952 1.952081 
-13.015445 11.795208 -7.499687 
-30.996702 -6.095152 -4.433382 
-22.614231 6.742607 0.243710 
-17.063944 25.745369 -2.826569 
-10.970057 26.472084 -6.931957 
-12.915631 26.397018 1.842985 
10.531761 27.359789 2.068563 
-0.870607 30.476164 -1.623313 
15.691046 5.363825 -5.695255 
1.024908 30.806244 0.078654 
-24.042662 7.713504 5.921223 
24.215046 11.221376 -8.112947 
4.342596 26.439774 -0.582447 
2.974251 29.535383 -7.414469 
-22.995796 7.625357 6.516938 
-19.874365 5.373034 -3.101435 
4.308200 29.379330 -7.570820 
24.720015 8.326231 -2.418938 
-11.068274 31.394924 1.227212 
19.825605 1.309794 1.458451 
4.001054 21.117550 -5.639078 
-26.025011 10.268144 0.020929 
-12.302735 25.313892 -3.817988 
23.883720 15.662127 2.983102 
