-21.075121 -13.139364 6.321454 
15.320513 4.366129 6.022649 
-0.970474 29.295225 9.554235 
2.858837 35.101887 14.079247 
6.866743 27.748117 7.320518 
-1.898073 36.506302 8.165897 
19.124014 7.419941 5.696713 
-12.970334 12.843497 0.912963 
-6.462107 30.732241 6.894524 
16.191746 13.640007 11.960376 
7.635189 35.086941 4.403693 
-11.673486 19.053404 1.835815 
15.755597 18.132322 -2.749557 
-20.509014 20.279020 14.520563 
-21.556831 -1.627675 2.259884 
8.644073 35.245010 7.958809 
7.247352 28.944799 0.213478 
-8.207922 28.534933 12.390509 
-19.363556 -0.027978 -1.588446 
-3.527928 23.919748 2.589570 
16.389566 12.455530 5.071878 
-14.623373 24.992132 13.147950 
-10.802896 32.407482 8.991145 
-22.164810 14.557649 10.772459 
-23.104593 7.068593 5.358032 
13.628185 10.714215 -0.706488 
-13.078392 15.468689 5.948693 
-17.467588 -1.072869 0.112255 
19.768682 -7.427682 2.783931 
-18.735300 12.690117 0.759625 
19.355007 -3.183014 14.567212 
25.117256 11.312346 13.400099 
2.871633 32.789356 7.398514 
18.273430 15.086127 6.274750 
-17.878956 18.527332 3.471872 
-8.129378 26.408434 -5.501297 
0.014194 37.108738 5.948600 
-2.712534 24.859077 14.953394 
-16.177933 8.031180 -1.328268 
24.218454 11.985603 9.120134 
6.655166 29.933573 7.176143 
22.122276 12.786902 -1.038986 
14.942524 4.615820 5.128819 
-26.285292 1.296724 0.466246 
10.289679 32.595554 10.479584 
17.513050 26.281139 5.097965 
18.321156 25.481361 14.972551 
23.849546 -2.616439 12.419507 
-15.589755 8.459203 5.602821 
-19.149630 20.466839 7.945091 
-17.405956 -0.377542 15.931092 
-13.831789 19.030880 10.058643 
16.951658 -1.700906 5.810458 
-21.722227 10.749927 12.664945 
-27.058287 -4.812098 2.439379 
22.404390 -8.883396 6.896702 
9.566183 27.837307 -2.108901 
17.872759 1.555451 12.528623 
-13.925569 14.264480 4.316468 
-12.661672 30.847702 3.526550 
-23.263674 11.064479 8.076105 
-23.505888 -7.938908 6.927378 
-15.167636 9.166018 5.635443 
22.696341 7.727127 3.326591 
-17.295670 12.264995 5.921865 
3.024271 32.897896 13.414191 
10.361834 27.168314 1.308290 
-5.948514 20.836294 0.807723 
-19.194796 21.674360 11.656742 
20.025980 3.308326 13.081350 
-5.023417 27.144709 4.246305 
-17.285204 3.734279 -0.639258 
16.839825 0.949146 -1.478039 
-15.243708 14.020056 -2.164546 
-19.615820 -2.891602 8.365048 
-29.069788 -3.665116 -1.200265 
-19.975920 -3.434008 2.289967 
19.952293 -9.817419 1.920292 
-12.843663 24.625822 -2.399985 
-0.656134 31.137251 12.959089 
-19.187069 -3.650935 10.706128 
25.375149 1.856780 -0.650005 
-3.579824 36.598568 7.676315 
-22.408695 -13.244390 3.325741 
-17.530190 19.522823 2.214000 
-6.319514 29.023886 6.602960 
3.764071 34.848850 14.371263 
-8.425653 22.900438 1.336489 
19.939150 -3.144345 4.335268 
-3.860897 28.646538 9.484557 
-20.753578 3.014483 7.029384 
17.833197 -2.117882 11.124198 
13.657363 16.811129 7.440546 
9.712866 29.282648 12.501961 
19.068956 20.203934 7.436189 
10.477684 27.921675 13.344268 
12.975959 15.577892 -1.696371 
-17.398211 -3.350732 -2.085196 
16.492249 14.948519 -2.184273 
-24.235306 9.857512 16.257202 
1.852362 30.021261 2.460648 
5.324537 20.331638 -5.416956 
-14.379262 14.791378 3.975940 
-15.408092 4.169309 3.173988 
-6.039397 24.636887 -1.743479 
17.148838 0.099673 9.181394 
-23.445827 -7.165460 6.901289 
19.801577 6.166209 1.490229 
-26.828167 2.618224 9.295587 
-11.633109 19.283602 -1.263773 
18.997702 9.790990 6.122500 
22.327404 13.242837 6.726935 
-7.926899 23.584381 1.372869 
-28.566576 -5.639398 5.597336 
-18.183434 7.665996 7.190916 
-6.662510 29.396276 9.538692 
21.507154 14.512193 5.187338 
-15.725594 19.298660 -1.739309 
-26.264454 2.893538 6.651716 
-13.995634 11.116372 4.348273 
-5.759859 31.751074 12.536510 
-16.085533 27.781630 14.005507 
-21.072927 -7.121089 7.833943 
-24.431189 -8.329675 10.957854 
24.028883 -13.686299 4.664086 
24.237593 7.691768 -5.170983 
20.626423 12.817037 9.965174 
7.151906 33.216160 6.002542 
-14.071036 7.673462 -1.395177 
21.578503 -5.186149 6.939535 
-12.338085 30.576971 14.500480 
-26.781212 1.134921 11.164040 
10.706318 19.994770 -0.752219 
3.620570 28.045891 10.427006 
-0.573020 30.623854 7.006304 
-15.524391 1.671457 4.470415 
-3.246536 29.456038 0.813665 
17.163052 1.073493 7.020109 
14.030283 21.782757 1.467815 
19.501785 18.126215 -2.351710 
-16.793383 12.482960 4.624322 
-29.302380 -10.181466 15.691382 
4.577352 36.762867 5.119396 
-3.782953 29.149292 -0.896837 
-18.732264 17.670240 2.059309 
21.485743 -1.807137 6.698561 
22.941578 10.970259 -0.062095 
4.052464 29.238419 13.043497 
10.662038 23.965626 9.803453 
-16.123138 22.451572 12.164021 
-18.875992 17.310558 1.151058 
15.333871 22.090008 4.472731 
22.827497 17.338856 11.236067 
-16.383078 11.955823 7.244567 
-19.232220 -2.274046 6.563573 
18.195518 -1.682687 10.422503 
-9.273515 25.346619 4.933979 
19.063858 17.718426 3.634511 
17.209196 3.097349 7.965468 
25.177355 -7.612002 6.996816 
19.140491 15.011287 5.451749 
-14.725888 15.476841 4.268471 
-13.361224 11.557611 14.788465 
-22.628775 7.389032 5.865513 
12.081707 30.725767 5.234912 
6.342529 22.623096 1.647590 
-17.358925 7.204683 -1.448076 
-13.178214 14.960553 6.687742 
13.327481 31.775564 7.989436 
-17.551916 13.449015 1.785574 
27.991257 -8.081218 7.998166 
25.536640 4.682999 0.021897 
26.032604 7.302857 10.882858 
2.423085 34.564053 6.182761 
22.179874 11.361446 4.160907 
-25.461622 -7.482121 14.909290 
-15.540934 13.822943 7.772176 
-17.925341 17.790293 12.978228 
1.683270 36.121338 8.435565 
16.951597 5.765216 9.941090 
21.777145 12.210027 9.428085 
1.576066 27.476679 -1.218274 
3.512319 25.705021 4.012277 
-5.657135 29.104305 6.979639 
-10.468226 29.348839 9.489812 
13.537807 9.712648 -3.875728 
2.387247 31.067368 13.555814 
12.518797 16.499716 14.934936 
17.738142 6.919200 7.655261 
19.069067 24.829679 11.587354 
18.751503 14.991805 12.579898 
-3.355363 36.335415 8.370691 
2.705517 28.083292 -0.213247 
1.506073 29.897339 -0.593941 
-1.871867 34.895725 14.393653 
-20.343924 -0.102005 5.143812 
-19.744396 -10.583984 4.219017 
-5.716028 34.289909 4.869529 
-20.239353 -2.457103 7.954644 
27.122152 0.373848 8.737260 
26.354115 1.163060 3.122835 
-16.667431 0.846199 9.692994 
25.463106 -13.139636 7.062109 
8.754954 23.263224 12.578277 
-23.619913 -3.655483 14.017759 
3.344360 31.897310 7.868796 
-6.394655 28.667480 4.737889 
8.844938 33.678207 5.047213 
16.687891 27.785208 12.451085 
-5.173971 27.384460 -5.554629 
21.786551 12.732697 1.633975 
-12.969061 30.126984 14.364958 
-17.913439 22.460226 10.489296 
21.424294 10.348691 -1.256977 
19.015097 19.811241 9.597032 
-7.414227 22.645618 13.466660 
-21.548805 0.892346 5.650552 
-12.273731 14.248192 15.187813 
15.488887 8.217391 14.081320 
-16.381310 0.297396 1.829684 
-16.241846 18.771597 5.158979 
-3.824014 24.684938 2.991320 
-22.593891 14.716789 13.708952 
14.633087 15.965317 4.430708 
-5.523890 37.443737 4.786076 
23.938246 -1.158356 12.897241 
-3.669222 21.034418 -2.629158 
10.240087 32.155701 9.233955 
18.359058 10.826160 5.942225 
0.361338 36.734024 6.555136 
-18.955883 23.288752 13.413733 
-11.781133 13.041825 -1.059760 
11.347024 18.260895 1.350802 
26.149961 -1.713044 6.724356 
-19.876453 14.998967 9.398839 
12.314467 24.614447 11.391119 
-0.826546 28.301579 2.061579 
-6.103721 25.877110 1.986014 
-14.408648 15.655467 12.732457 
-11.898577 15.535636 2.663004 
-6.791658 30.064892 7.013158 
6.872281 31.136513 7.081486 
-22.517729 -11.734554 12.120850 
23.633924 6.869396 9.461735 
0.592471 24.924267 16.599796 
8.561283 28.113796 8.737318 
-23.187798 10.131855 8.115217 
18.514194 -2.246001 7.675311 
-25.482822 -1.450780 12.685176 
21.423073 3.403702 13.257764 
19.528276 7.033753 8.790933 
-19.242785 2.588382 13.023625 
-4.892508 28.572342 7.165808 
-26.956781 -13.289230 -2.037258 
-13.544863 10.783505 0.484750 
1.115457 34.973225 7.514201 
-25.958456 -11.537247 10.803218 
17.043631 -0.693114 11.642440 
27.332027 0.811243 0.754951 
-11.595927 21.610935 9.751510 
-15.873365 1.590701 -2.691409 
11.141706 27.219477 13.251566 
-15.968841 0.871883 2.103192 
12.840587 25.913532 9.268123 
23.673319 -3.145252 10.452662 
-1.263315 29.706888 -0.537272 
11.363592 14.667792 -1.482957 
17.053291 23.720720 4.247788 
13.688106 14.174360 4.308541 
13.131003 20.622501 -0.071180 
-5.458682 20.139812 -1.484772 
-9.533668 19.067530 3.001052 
-13.405563 19.070623 0.616962 
24.875696 6.910005 -3.792461 
-10.874613 18.627922 1.789137 
19.466557 -6.585270 3.388497 
-22.729923 -11.789005 13.586502 
24.998667 -11.582382 0.454743 
-25.137697 -7.781080 7.836424 
-12.639667 11.478159 -1.376844 
19.465343 14.680011 12.313306 
-18.721008 6.771663 3.583437 
-14.711373 7.444042 13.170325 
7.015872 28.227602 0.837459 
-12.701982 16.312637 11.481335 
20.637688 -2.671535 0.605629 
-27.466915 -1.971153 1.973247 
-17.233290 6.950148 9.040557 
-16.932467 21.831488 8.352309 
17.254936 0.107750 5.928540 
-26.795774 -1.711714 12.896337 
3.894235 29.771742 3.420634 
-15.615620 2.646193 -1.636086 
-5.738791 28.602045 0.567159 
-0.495977 27.662949 3.472356 
19.716898 -4.144563 5.266192 
14.317882 14.086913 8.117108 
-11.454296 32.715405 6.374454 
-28.259686 -9.870004 12.193179 
-17.450073 24.813705 12.218695 
4.738218 35.145191 6.270749 
26.641573 -1.913245 1.499422 
18.777046 24.651094 6.255807 
-21.770870 0.197347 -1.538062 
22.578718 11.788175 -3.381322 
8.869010 33.216232 13.581706 
25.173923 10.456470 10.325051 
25.534113 -14.207953 0.755268 
-4.542550 23.290401 16.572271 
-3.407156 28.535511 10.467804 
-12.260057 32.261238 6.394969 
-19.890081 -0.399288 10.478354 
21.518053 11.719406 4.464751 
19.971306 16.100578 -5.399285 
28.665131 -4.141325 2.543294 
-11.875858 19.210226 2.627507 
-18.226089 12.415483 11.002962 
-9.963452 26.724218 6.982533 
-9.593318 25.425438 2.025136 
-24.641928 -13.526992 7.335490 
13.838439 13.655746 14.993248 
26.217543 2.822771 3.428949 
26.139524 3.814906 5.675662 
21.548525 -1.852931 5.769359 
-21.870090 9.844987 4.977099 
-18.158367 -0.338201 8.226760 
5.908516 25.849541 1.753526 
-0.538034 25.979748 2.655964 
-15.568522 28.337368 11.201859 
-26.257488 0.993650 5.771193 
-8.857914 27.142712 -1.205478 
-24.006670 -11.855836 1.883931 
-19.446239 8.521420 1.067162 
-20.488674 13.751900 5.816319 
18.239153 19.523983 10.307305 
-30.055786 -8.174984 -1.025518 
-9.171622 19.077349 -1.139102 
15.455073 29.142017 6.348245 
16.822077 -0.332509 -3.768660 
-16.181240 0.139628 2.813753 
2.455729 28.625370 -4.408438 
26.754890 3.623678 7.402630 
24.812305 5.118997 12.404490 
23.398962 6.682145 5.572421 
16.918360 0.646610 5.437240 
11.588006 25.453190 11.640139 
25.122576 -0.858659 3.326388 
-5.554675 25.731411 -0.859015 
-23.185366 2.889924 6.069592 
20.318840 -4.195570 7.581840 
-4.171601 34.018196 13.030708 
-7.810255 27.665762 -1.529925 
20.429728 11.804022 9.269382 
7.498838 28.612970 1.923482 
13.682377 13.998008 3.173501 
-19.100615 6.438499 1.724580 
-20.499102 2.902966 10.654384 
-18.155027 20.738466 9.512476 
0.111341 28.292393 10.735212 
22.060349 -3.875345 6.905228 
14.947330 30.017515 4.043708 
-20.732243 -12.827661 5.387042 
23.224913 7.812510 9.231996 
-0.527931 37.090286 6.599893 
7.508454 30.367020 9.390676 
-27.234606 3.845344 10.900009 
25.540316 4.746759 12.285718 
-15.858603 20.322039 5.986034 
-6.046368 33.187038 11.504937 
15.755672 20.203171 10.620077 
-19.918421 -0.056649 12.953902 
-1.113273 24.635202 16.598068 
13.023565 18.074913 -1.165516 
-10.617668 27.529024 7.323037 
-19.526360 2.894135 5.873848 
12.336178 25.553513 11.672888 
19.108078 5.451206 7.811698 
-22.308905 -8.661501 8.742733 
18.089523 -1.370600 11.479560 
-24.669701 6.276771 -4.746665 
-15.268948 21.024837 5.903665 
-15.877278 28.216217 12.064728 
-7.278622 32.777710 5.166149 
23.353048 -12.956567 6.116521 
-2.216066 24.653658 -0.425703 
-20.085577 -10.836298 3.564083 
17.148569 1.982663 6.823076 
-14.280313 14.331235 10.043089 
-12.456676 32.391785 4.782924 
-29.152178 -9.918581 4.764287 
19.581581 -5.725831 6.681911 
-4.573563 34.009300 15.226327 
-0.384157 22.778889 -0.021338 
9.084707 21.202051 2.792966 
-30.135721 -7.012856 9.093344 
11.991973 19.390156 11.131603 
5.619947 30.990982 10.390768 
28.195318 -9.721643 7.792320 
17.794762 26.172096 14.798294 
13.530846 19.776445 4.472843 
-26.807560 -11.974771 3.059107 
-11.007386 23.702990 -2.537405 
-12.703230 30.002203 8.637826 
22.145168 -12.054614 -4.540683 
20.358473 -3.112871 3.347101 
21.113781 8.804687 1.039758 
17.559549 9.518119 -2.036588 
23.535635 9.883939 -2.942292 
27.239832 2.106088 -2.830002 
13.591674 25.239216 5.990599 
23.236122 -8.484505 -0.541684 
-26.486891 -12.892905 6.574971 
20.391180 13.626749 4.282441 
-0.560815 32.897224 12.170374 
-26.581882 0.894895 11.911969 
-30.314274 -8.032709 15.758183 
-7.815190 27.777390 -0.780930 
-4.984049 29.071791 10.874662 
7.254010 19.106998 -3.909355 
14.549510 22.925127 0.290379 
15.011367 25.286283 5.236710 
-28.270817 -5.992073 6.303956 
-3.028273 21.454306 -2.175629 
-18.803631 13.385109 4.396885 
18.237000 19.449453 5.427481 
20.285172 22.077139 11.337002 
-11.159106 14.301383 -0.772206 
-21.322496 17.789232 9.429488 
13.869177 21.294855 0.354862 
30.380579 -8.088905 -0.851055 
-25.148024 -9.578822 10.003895 
-12.686479 27.607935 10.468458 
23.528028 -1.962868 1.091400 
16.928680 11.745434 6.821479 
23.694651 11.808612 10.604608 
1.207314 36.727253 5.926565 
4.786173 34.492954 6.962730 
20.003942 4.149072 -2.031430 
-8.078295 27.763638 11.893431 
-25.548149 4.050515 2.612742 
-10.347057 21.139244 4.626093 
19.204826 24.447908 10.769289 
-28.239937 -1.779712 0.000889 
-29.773348 -4.664811 10.757237 
14.053668 24.691769 -3.931876 
-11.140965 15.175965 0.612033 
20.129036 8.019540 4.280210 
-20.765617 13.049919 10.468580 
17.618980 22.675360 13.047867 
-13.106297 9.567534 -3.779408 
-12.148270 22.252266 6.434364 
-25.498024 7.914627 13.668115 
20.422539 14.275059 11.094191 
-28.015205 -11.159867 13.721172 
-21.743732 17.292397 14.319301 
-19.884010 -4.080581 10.286922 
-21.115086 17.683172 7.962893 
-11.028866 21.647572 9.209014 
6.591731 32.116764 6.821746 
16.306528 3.801975 15.920410 
18.304846 2.505684 -1.982823 
-4.757768 30.351852 7.073309 
19.196165 7.959229 11.844686 
-13.779111 19.508829 6.668744 
-13.619506 24.484962 4.979139 
15.332202 9.375794 0.810968 
-14.749148 27.917633 4.975426 
18.491922 6.986719 1.048277 
15.201799 9.594621 14.861267 
-7.363860 24.122477 11.498006 
-16.589876 7.236562 -0.215394 
-0.206543 35.799927 5.113168 
6.559394 33.167076 11.649475 
15.000339 19.813181 -1.196203 
-23.157076 3.432357 -1.280941 
5.070632 30.259304 7.079346 
-12.241566 25.241093 -1.514368 
10.088146 24.267078 5.803066 
6.125971 29.058529 -0.986769 
-29.607300 -10.915845 1.023517 
-11.987556 16.665199 7.300687 
20.029953 1.310844 13.224593 
22.040287 -10.253719 -0.133919 
25.118130 4.426533 4.272451 
-10.800543 32.966961 6.847525 
-2.275509 28.260452 2.092580 
-17.300566 13.071334 5.165459 
-24.606937 -6.522009 1.057057 
20.468664 22.223480 14.172815 
21.816839 9.422651 1.171499 
-28.138304 -1.411021 8.207665 
-27.110407 3.899928 16.094378 
-13.060461 17.447809 -1.872518 
-29.839270 -9.387431 -2.378387 
-22.213156 11.728169 -2.154643 
-27.453033 1.080054 -1.173486 
7.298615 36.093182 7.942344 
5.153895 29.907892 9.814433 
-24.342932 7.315646 -3.545305 
2.288121 33.288429 12.123106 
14.294139 14.417914 -1.012592 
7.200712 24.909090 12.170861 
-18.053917 15.241098 -0.136187 
21.497084 9.744291 -0.811103 
2.372761 29.106949 0.843044 
17.498552 -0.380388 9.803127 
-25.983772 2.181602 12.347871 
19.395386 6.798953 1.186263 
11.984300 23.956182 6.472175 
-26.920477 1.770174 9.482813 
15.509473 29.983393 4.564602 
21.885109 12.358553 4.269157 
-28.754057 -7.234216 3.119456 
-28.129219 1.881134 12.620582 
-0.715320 26.913950 12.288471 
-20.618767 8.226505 4.872966 
-27.480734 -7.149535 7.797984 
16.242096 16.544683 12.677972 
23.929152 6.009853 12.268539 
12.837210 26.354736 3.958779 
-15.498031 7.978877 7.873809 
-14.100654 23.713512 3.676954 
25.971621 2.632764 6.101044 
-15.140728 24.094921 4.841502 
13.815582 9.069403 -5.132776 
-11.857029 23.214705 7.708905 
18.384153 4.433880 10.235809 
-22.466675 -10.652870 10.215543 
18.969423 8.301353 -0.834153 
-8.023656 20.106287 -1.010145 
4.577023 35.277538 12.153279 
20.156071 18.762651 12.139663 
19.100513 2.703083 10.080992 
-17.133348 2.992544 12.042466 
-19.703478 -5.403336 7.047232 
19.388905 3.760332 5.857455 
10.738273 32.751678 8.692594 
23.571676 12.583261 8.399482 
-16.760668 19.237183 4.230648 
16.899784 18.343958 9.151769 
14.429900 23.716219 6.002347 
26.107698 3.126347 2.206007 
-26.813944 -3.355831 7.023539 
8.012608 35.013794 9.634126 
21.794807 0.781678 6.651161 
21.279293 7.888761 3.371139 
-14.711164 7.927956 0.752882 
9.278535 31.877697 6.438377 
-12.083415 31.775665 8.288410 
-16.570242 13.976707 10.212214 
-15.449312 3.561497 -1.377297 
-19.824987 -3.213846 5.939548 
-23.298761 -8.884758 8.776472 
8.891923 17.721035 -2.822871 
-12.850019 28.267593 7.487717 
-17.411430 7.247397 1.745984 
-16.278700 0.684103 -3.675888 
-16.212997 28.043283 9.298657 
4.306097 28.092577 6.161613 
23.425671 -9.037704 6.599349 
-21.674183 7.071204 2.060139 
27.161373 1.182214 8.792686 
22.993202 -4.341136 12.468175 
8.440908 24.377279 4.183442 
20.635935 8.235952 3.141579 
16.989292 21.527060 -4.393554 
-25.381332 3.648905 12.485506 
-24.590628 9.145518 16.237789 
-9.146690 25.826609 4.285016 
10.452834 19.464779 -0.079534 
-26.342876 1.803552 2.837078 
17.228098 -0.500683 10.650596 
-19.657883 15.504309 -5.072574 
-3.495785 28.681082 7.718347 
5.926627 33.982361 12.990297 
-8.957332 23.745846 -0.108474 
-27.940580 -12.096311 -4.149904 
-21.127920 13.280900 -1.178991 
16.199457 22.209978 -0.590537 
3.200478 33.461006 7.156503 
-4.868116 33.405613 13.129809 
25.288004 1.984137 10.898104 
-29.851582 -4.739916 9.793011 
3.230230 25.610889 14.256190 
9.800381 27.542641 9.436007 
11.664050 26.826305 6.163670 
-17.241734 19.687105 -4.315588 
-16.340626 2.087747 8.765180 
-20.531366 -9.774337 13.074174 
-24.367432 -5.289033 3.661092 
16.150358 1.708351 1.025255 
-5.856802 27.274063 1.539803 
16.908054 17.413414 9.740368 
25.685356 -7.446336 -0.310643 
-22.796747 -11.180358 1.430583 
20.771961 6.141238 11.761147 
17.157454 13.007478 0.894799 
-16.471783 7.159749 11.095958 
3.619662 28.590111 -4.208869 
-1.962312 29.727406 12.581424 
-14.600172 5.901534 -2.558657 
-14.576880 14.192304 6.982232 
-18.799576 10.604079 6.358746 
15.377753 22.063337 9.893909 
-17.175667 3.892043 5.556617 
-7.743563 26.473808 10.241210 
-22.609322 -6.485351 0.852743 
-11.609344 28.615404 11.133129 
3.734363 29.501743 -0.948656 
13.102576 21.348696 8.284896 
-21.614832 16.514790 16.441483 
-23.227913 10.537530 7.214917 
-16.384066 14.235040 4.962093 
14.917413 25.532688 12.827053 
27.669477 -7.146948 2.912516 
16.408957 21.082790 0.808324 
-12.633464 13.974831 2.215616 
8.334588 19.642502 0.899121 
27.501225 3.304773 14.984879 
-24.785904 9.234610 14.841841 
-18.137287 7.241987 4.969071 
-22.079678 -7.660864 10.341433 
17.527159 14.971377 5.556211 
-27.244974 -10.520896 10.524275 
19.621132 -2.462720 12.329712 
-3.143904 36.076630 4.320487 
-19.670734 19.672438 6.714764 
4.444519 35.564018 11.056607 
18.061831 7.220860 6.521935 
20.341091 17.020002 12.517620 
19.490231 8.835681 12.192148 
-19.876093 18.624006 4.625860 
-26.752323 -5.950902 9.014503 
-15.310518 2.820888 5.247152 
-17.953053 5.565469 4.829818 
11.221804 26.860842 -2.087404 
-4.860350 32.562820 6.364236 
21.955666 14.004768 8.367979 
22.325657 16.954506 7.478956 
7.711863 29.497540 5.964170 
25.646479 2.557891 5.416688 
-20.589338 -8.654758 13.265216 
-22.160439 15.988530 13.819133 
3.695798 37.223408 7.550258 
-18.508564 6.797588 1.162009 
10.263847 23.526182 10.474688 
-21.811104 7.137102 10.140652 
-8.619215 32.813602 4.361071 
-1.789386 33.690117 16.865431 
23.131216 -12.941715 5.168771 
-28.976400 -9.044485 8.628546 
22.017807 -2.813862 2.662723 
18.290798 9.757051 -2.078307 
-19.090311 6.081700 0.820795 
24.008846 -1.766892 1.702804 
-4.446828 28.771425 1.900123 
-17.185379 11.383134 4.775512 
-29.790154 -5.660389 -0.088036 
-10.693871 18.513111 0.969311 
-4.942904 31.648945 7.045790 
27.816446 -9.635504 0.751057 
5.978380 19.907593 -5.408854 
23.155962 6.612401 11.483689 
-12.798659 29.867710 15.518849 
4.191280 32.230747 7.827647 
-9.662087 21.526751 11.066459 
26.300737 0.100824 5.638319 
-18.698927 -1.841828 10.445673 
21.576584 18.977709 9.012990 
-11.084871 13.440084 -3.943012 
-14.473524 8.167300 13.248981 
9.951905 27.644135 7.574416 
-3.671962 37.599590 4.979846 
-16.246994 21.264847 9.179712 
-24.299408 6.976099 -0.477403 
8.581611 28.365292 10.024454 
8.556804 32.158455 9.684263 
19.296907 11.605745 -2.018416 
5.539152 31.575781 7.615788 
-9.658299 32.508110 13.654027 
14.235802 27.320629 7.947691 
22.473698 11.701365 -4.274859 
20.162853 15.100045 12.275054 
17.558571 13.863691 2.912598 
7.884636 24.738161 2.104309 
-22.213531 -8.747358 14.025369 
26.017073 -0.899220 5.795193 
1.587184 32.995644 9.527200 
-0.771234 22.168676 -1.632635 
22.469614 12.668906 4.712469 
-13.393192 26.241932 5.243042 
23.312731 -2.399530 3.691576 
7.633642 26.745493 9.787415 
-24.514090 9.958132 13.767628 
-4.855349 24.260818 3.203710 
20.624264 9.104831 6.076519 
18.994968 -0.082994 5.613053 
14.206399 17.533552 7.984533 
-28.149523 -4.834005 7.047850 
24.244299 4.181868 12.846746 
-26.230745 2.283731 1.001403 
-4.380066 27.606657 4.662084 
-25.594147 6.148158 9.005592 
-6.353167 24.468496 12.088964 
8.770393 25.052074 0.396542 
-5.783650 34.772602 10.783031 
-22.164072 9.966135 0.589881 
-11.362583 24.422344 11.716223 
14.294410 20.903889 11.658693 
-1.082412 33.672913 10.427195 
-22.270479 13.035651 7.331777 
-24.363626 1.765760 6.413951 
-3.591084 33.405304 16.864204 
-1.532233 27.654041 2.554680 
-21.064894 5.837849 7.043201 
17.233706 27.309490 6.349554 
17.332014 20.686655 10.428025 
17.175411 4.046267 9.922086 
1.000901 29.187519 -3.035970 
21.474060 8.924551 1.817600 
21.246065 8.676215 2.514189 
13.671308 14.954604 7.556844 
-22.256609 6.277767 -0.671754 
23.744913 1.361302 6.253283 
20.244944 15.258527 4.194320 
-29.730331 -6.924680 -2.767220 
-11.622737 29.291540 11.485039 
-14.328048 27.319742 12.664336 
9.511484 22.649269 12.302052 
-20.629940 5.265095 7.307416 
11.199478 15.362604 -0.485576 
-6.285700 28.251909 -1.599148 
15.301146 8.934073 13.922414 
10.801508 30.151844 6.463494 
25.220728 -0.437912 -0.256020 
16.687267 8.103012 10.524807 
-8.888680 19.906420 -1.518922 
-12.241435 17.245972 5.860651 
14.301030 11.278695 1.047807 
-21.626598 -1.795482 12.475326 
11.274533 30.583809 16.723141 
-17.695272 21.138056 6.898631 
-1.278369 30.665342 6.298739 
2.327013 30.612555 9.576874 
-17.457712 26.678503 10.273838 
8.389103 31.699423 8.671875 
20.865540 7.245081 11.318830 
-18.798059 23.162180 12.534745 
2.684804 29.863680 0.354089 
-14.696667 20.702837 8.739491 
-25.738396 -3.943134 14.431951 
-9.175435 22.593596 1.603651 
13.140319 21.787361 1.035978 
13.610352 16.828058 6.662492 
-13.383129 27.653915 11.826491 
21.405809 10.702433 12.177185 
26.749155 -0.046175 6.539857 
9.106285 30.151554 9.662444 
22.490164 -7.566689 6.557697 
-12.326615 16.495956 6.110875 
24.144083 -5.889209 7.151464 
-26.583817 3.095165 8.705832 
12.215538 25.814342 -4.603533 
10.561407 16.075285 -1.581637 
-22.992353 -11.862244 9.110686 
6.524094 23.669428 15.251588 
-18.852066 21.534479 10.986615 
-20.026711 -9.897635 7.585418 
-18.777456 16.640963 4.466279 
-17.818945 24.840219 10.745970 
5.325023 24.127523 0.978399 
-16.189098 1.430234 13.057278 
23.223310 -0.972382 13.058748 
-20.989441 13.725301 -3.065255 
7.728010 30.654486 11.708752 
13.533031 25.477034 -2.319116 
21.173830 4.427139 9.747991 
-7.428715 18.039873 -3.235885 
26.935053 -0.245222 1.120167 
-20.753260 13.333212 -0.262847 
-2.871753 28.700918 11.059558 
-17.357866 18.563601 4.278816 
-5.492234 31.388689 7.507026 
9.414580 16.800119 -5.338946 
-26.170574 3.617139 12.105072 
8.157653 22.517185 14.998788 
14.174151 26.712879 8.581500 
-11.648531 32.812630 5.153923 
20.218233 18.783781 5.020328 
-12.485496 22.682497 0.181550 
27.362123 -0.618333 13.139136 
-21.396185 -9.468055 13.056415 
19.647789 7.513369 1.176566 
-4.600979 30.114809 12.786190 
21.732704 14.806296 9.015085 
12.977074 15.324278 -0.700117 
-16.468708 19.982025 11.242826 
-28.041317 -9.712173 12.905807 
-15.366996 9.503456 8.562703 
15.033987 2.880441 3.261374 
-26.599081 2.676073 7.326041 
8.452816 17.952314 -4.116538 
-9.209006 23.659611 1.681088 
20.133993 -4.441471 3.411507 
24.066174 -8.521710 6.810783 
6.424574 23.941702 1.606664 
-27.858536 2.973735 12.782777 
21.405144 -1.109785 5.609203 
21.928310 -0.594130 6.978959 
-11.527283 26.937231 9.503592 
-11.852632 17.627525 3.190260 
-9.464827 17.059612 -0.518094 
3.817566 33.065693 10.978377 
-8.944401 26.502460 0.767651 
20.949203 14.508158 -1.455941 
-19.665285 7.926814 5.265359 
27.645878 -8.250645 0.429953 
14.818089 22.941010 10.216806 
0.039296 33.829861 16.862309 
24.086876 7.178591 6.481599 
-10.898202 31.375036 14.793341 
-2.687739 23.626520 1.122591 
-17.254581 14.929598 9.247776 
-17.424885 0.577920 -1.340357 
-21.079250 -13.284547 2.967207 
-20.513294 -11.724851 -1.656235 
-0.052388 36.084923 11.397785 
8.978620 33.357994 11.291089 
-20.480093 -10.036482 1.275550 
-17.502207 25.760590 8.666529 
-12.877338 15.082058 7.393587 
-21.096453 12.103376 9.456315 
-13.476459 14.607623 9.476372 
-1.217620 32.808331 6.959373 
-6.646547 36.897472 4.625438 
-17.468594 14.529705 0.251969 
-15.995927 1.546281 -3.612004 
20.225529 9.591605 12.335501 
21.511402 -6.119975 0.025812 
-8.960062 29.061071 12.808964 
12.689100 23.296711 7.826131 
-7.683408 24.006369 -0.380226 
-18.093714 13.293190 6.578213 
-23.294283 2.122235 7.611370 
-18.646221 6.938393 -0.378561 
-1.387631 32.169235 7.379711 
-24.802803 -9.448003 10.861592 
-12.534293 18.178045 0.918647 
-14.114571 9.942216 2.097008 
-24.677671 6.391953 -0.109480 
17.340965 21.041925 8.975204 
22.449577 -3.771934 15.674796 
9.306223 34.373325 5.917320 
0.071783 36.504879 4.895356 
-20.518105 17.300791 5.100456 
-26.290316 -11.783010 11.675408 
-8.257333 33.135235 13.274727 
-22.730375 14.030980 15.038317 
-0.136324 25.413902 15.220574 
-7.134906 24.945299 1.767611 
-8.994887 26.573709 3.614264 
2.631135 29.739912 -0.770151 
-12.859354 21.799953 6.421240 
19.442638 0.503687 4.553511 
11.474059 27.203833 7.222488 
-19.015512 -1.523288 6.830449 
18.631931 4.447028 5.082107 
15.867250 10.745673 -1.272728 
20.760118 6.211418 -1.469887 
18.314754 5.188759 5.108968 
16.305305 24.199286 4.491972 
-22.799274 13.530193 10.856519 
-0.531121 25.537968 1.305328 
3.790810 36.540657 9.322145 
6.633713 33.108528 6.655843 
13.358454 19.030890 4.368017 
-5.584753 19.494349 -5.306087 
-5.028740 33.055511 16.859646 
-25.850533 -2.504678 7.402816 
-7.995129 25.365213 1.708904 
-20.109428 12.310257 12.609541 
27.390900 -0.507521 13.901506 
1.972467 32.722061 11.708877 
25.240694 -11.029313 8.357331 
10.291756 15.650699 -5.310025 
-23.868956 6.028725 -0.219964 
-14.205839 19.302235 8.590744 
18.095766 5.958871 5.398795 
-3.923146 31.315687 10.215432 
-28.695513 -10.464477 6.715888 
11.105087 23.111324 4.972239 
-28.747787 -2.389317 6.951210 
-16.631351 3.383918 0.256708 
15.566758 18.222334 10.674805 
-12.351728 18.381159 1.755244 
5.262247 28.093250 8.020864 
6.324490 23.921457 -1.127457 
-22.501326 12.661254 5.693906 
13.167686 24.735817 7.020916 
3.675787 29.013454 -2.955885 
26.545656 2.850406 -5.038385 
-4.970813 26.303043 7.000412 
-6.501929 22.775026 4.419570 
17.469215 7.344469 10.463804 
-27.379015 -0.408367 10.420633 
-22.314575 11.969251 10.951032 
5.295061 30.625101 7.932746 
-4.455641 34.925659 11.671517 
-22.636267 9.340511 5.208022 
-22.620428 10.763975 -3.207393 
15.994042 13.065420 7.901195 
-20.792053 -9.671491 14.706080 
20.996502 13.169365 4.054599 
18.617720 15.250756 2.196079 
-0.993640 31.988754 13.525738 
9.779668 24.896818 0.283954 
7.510418 36.855438 5.796651 
-7.381355 31.216457 6.172839 
7.865028 28.181496 8.110462 
-21.243279 0.873475 7.109463 
-27.373522 4.052248 14.322125 
-19.347839 -11.286081 5.462631 
18.961851 24.349199 6.956446 
-4.819956 25.494947 5.758317 
-22.333750 -5.310458 14.187671 
-25.107016 4.437250 5.600669 
-17.698746 -2.579687 6.157132 
12.240088 14.261260 0.606794 
-4.929381 24.574694 4.159963 
25.854700 4.356626 5.176592 
10.048060 28.452114 7.421991 
19.775784 -9.807496 5.629902 
27.111713 1.134695 7.802365 
22.666241 6.587055 -0.990901 
14.630149 11.413446 2.790142 
-15.265827 6.995591 3.037019 
-17.174999 27.164501 9.342481 
-9.554081 24.646980 9.143603 
24.385443 0.904952 6.667180 
15.066435 20.189651 -0.190303 
-29.279688 -10.338359 -4.194155 
-21.474480 -13.087748 5.097921 
-17.150352 19.365440 3.232629 
-20.305054 -4.345270 5.301109 
-25.290794 -3.195111 14.042830 
-12.429002 24.608976 12.423943 
-24.239660 10.607235 12.069108 
-11.390365 18.959473 -0.547496 
19.310358 17.240789 0.893052 
-27.493069 -9.639175 2.418742 
18.600599 18.381748 4.055011 
8.379081 26.247993 -0.538390 
8.344487 33.972054 10.484794 
27.987135 -4.950603 6.655486 
9.044416 24.692709 3.525089 
-24.181568 6.357958 2.535389 
-8.124351 24.370369 1.872463 
1.988660 22.430222 -0.400124 
7.405987 35.674042 8.723504 
-10.281333 25.828671 -4.068014 
23.089245 5.307694 6.124657 
8.262817 33.668465 13.182083 
22.302549 -2.534998 1.270167 
-2.742049 23.406954 2.486921 
-3.622443 20.839169 -3.903135 
-15.420195 22.069361 12.375940 
12.114766 31.158474 11.328545 
-17.136257 26.910646 11.005675 
-4.539448 22.710670 0.143899 
15.770494 28.321177 10.089542 
-21.382738 13.582181 7.098978 
-24.201241 -9.276662 9.716512 
-25.539955 -1.311661 8.449983 
27.543980 -11.324679 8.161901 
23.220123 -10.338702 7.155676 
16.451153 21.628254 0.052768 
-24.144669 -2.317794 5.826046 
-11.803294 31.205643 13.727835 
29.642572 -4.958142 1.601131 
20.142286 16.229242 -4.207772 
-16.850182 2.846963 -0.579036 
12.199072 25.181574 -1.831041 
-19.882574 -8.452501 13.981665 
16.383240 11.222052 7.196757 
3.053660 29.297991 12.602175 
18.292601 -0.021050 12.573737 
-19.288530 9.522027 0.615270 
-13.933579 7.594196 -3.839018 
1.334147 30.198812 3.257493 
-26.864386 1.816065 1.242018 
25.205265 1.025079 6.065294 
-23.074402 7.808959 1.022791 
-20.985186 -9.311378 9.740501 
-16.180796 4.550025 2.175266 
15.228111 15.002830 12.280864 
-9.428987 32.267265 4.173836 
13.743629 16.093012 1.311162 
17.279465 17.117146 -2.545158 
-21.707113 10.695138 4.634581 
-16.121262 19.455608 4.783702 
-20.533865 3.740975 7.386546 
-17.618216 3.551677 -1.432110 
15.130365 21.016218 6.271369 
29.771645 -6.935884 -4.759159 
27.911596 -4.056036 6.314497 
21.735456 -9.118690 7.395373 
-15.012069 16.298805 5.837908 
3.639656 25.734051 1.662608 
19.616566 18.379675 4.356976 
-23.901312 8.154506 -3.596824 
-15.543763 11.711909 0.771520 
24.187098 3.803898 6.013231 
25.724833 6.323118 6.928536 
17.811127 26.820608 12.813650 
9.268000 24.198494 -0.267897 
17.036251 21.806667 9.792327 
-22.804853 4.391734 13.017785 
17.167292 20.235094 9.308506 
-8.175513 23.761206 3.566374 
-6.667862 30.072344 9.041415 
16.314432 10.180164 -2.049051 
-20.338804 7.242220 5.237579 
-10.411710 18.360237 -0.076930 
26.043734 -3.591447 1.256179 
12.523315 15.381834 4.288733 
-11.132856 16.053986 1.323792 
14.725454 19.674257 5.611850 
-9.911325 25.648273 2.801162 
13.048866 28.923412 5.456904 
15.551998 2.728194 -0.969108 
18.396069 5.372951 8.620839 
-24.736780 -2.873724 10.331073 
-1.044853 34.382454 6.131065 
-22.064541 8.528213 9.328418 
16.232635 3.221699 12.657174 
16.079109 5.995449 15.985428 
-3.509364 34.664913 6.205991 
24.161118 11.054689 6.167957 
-0.486564 21.996315 -2.551919 
-15.762421 24.645630 4.546723 
-25.971224 -4.743215 4.010017 
-18.244465 16.258587 12.819590 
-17.804459 -2.500713 14.683763 
-21.982609 -10.683161 1.257185 
-27.452412 -1.179422 8.752934 
24.456402 0.311422 13.066148 
-18.579128 23.950094 12.937194 
-25.649145 -3.287132 4.987730 
-23.130421 -4.235794 2.093638 
3.956264 36.810623 8.400710 
17.978662 14.286032 3.568855 
-16.903263 7.728209 1.221403 
-29.427210 -1.830356 12.970316 
-0.831316 35.954929 10.711722 
-18.302238 -2.015443 6.943607 
16.736818 27.623703 13.367029 
20.217339 9.861068 5.966996 
-28.190825 -3.472755 2.648782 
26.402826 4.628092 -0.227473 
19.927670 15.355083 -0.438064 
-19.387312 4.322616 1.017797 
23.081631 10.808320 -3.176134 
-8.306683 22.319874 2.221148 
6.596227 29.214806 4.090978 
18.773891 26.134022 8.771055 
25.127590 3.668867 10.673951 
-25.890005 0.450508 12.202906 
-26.812851 -1.380578 2.495940 
7.438108 29.143913 4.336866 
-11.631289 15.954310 11.060534 
-21.238745 12.767606 -4.975181 
-15.895029 5.790336 11.820689 
-16.158688 17.793501 -2.623491 
-17.381760 24.319767 7.614779 
-2.982081 25.316706 3.271978 
-19.021162 15.197367 11.795458 
22.595152 -10.300105 3.342505 
-14.154384 9.184007 3.450624 
30.207708 -9.407333 -1.602365 
-10.684709 18.747036 12.377287 
0.629118 29.780855 3.726431 
-26.714651 1.879744 -4.594034 
-13.265841 19.144938 8.443577 
2.137433 29.372429 8.052749 
21.910133 1.507850 7.066006 
-16.153347 10.830999 -1.049881 
-15.706170 27.042656 16.725954 
19.797951 4.184187 6.333272 
-6.501423 35.774494 7.818675 
16.483982 -0.695409 3.708270 
-15.719913 15.937410 5.777588 
29.603493 -9.983451 5.286937 
16.763084 23.716845 13.274199 
-20.679377 -9.404438 7.384582 
-11.738523 23.427063 0.157094 
-9.199707 24.615616 1.428629 
-4.628108 20.237780 -4.051128 
19.817669 6.675932 0.493724 
20.487701 19.113558 6.499699 
17.238272 8.154943 -0.029071 
-24.734411 9.241985 12.579505 
-29.308084 -9.717309 4.013394 
15.893252 11.640282 1.653210 
19.070705 18.565016 2.981816 
25.966516 -12.925949 1.958097 
-16.175127 20.254499 9.738612 
8.894739 21.837206 14.870132 
24.393915 10.288855 10.732950 
-17.718502 18.994116 -0.966453 
15.064117 13.935184 6.216623 
13.141796 11.056196 -2.431382 
-11.755681 16.332096 2.410862 
-28.266659 -6.909762 8.359434 
26.000797 3.779645 1.536543 
-27.941597 -13.375408 2.392902 
5.231265 32.483818 7.748785 
-22.082281 -0.729341 -1.206612 
16.662968 18.565897 -2.532689 
-20.599751 14.304530 -3.937679 
2.987583 36.242188 6.057712 
21.682323 12.005656 -0.508695 
10.648970 27.486769 7.244637 
21.429564 13.328732 5.268879 
-13.588847 15.050312 4.225736 
-25.748203 -3.736218 3.017920 
-2.969054 30.128597 8.664552 
2.156211 30.395161 3.353673 
27.094015 3.793480 9.116996 
18.201620 12.821445 -1.117553 
-19.446985 14.517790 8.876534 
8.840293 22.902029 2.731508 
16.741138 23.009247 4.445424 
-29.215935 -8.563071 5.463469 
-18.262327 5.342762 0.258290 
-24.544739 -3.466925 14.116071 
23.552170 3.622680 13.114819 
0.965194 34.906479 14.721807 
-15.814033 0.776501 3.551159 
-28.134510 -9.359955 2.815909 
-21.254984 6.350134 -0.272167 
13.750058 32.089474 4.112445 
-3.731242 23.703594 16.581152 
-23.052717 13.522582 12.183058 
18.133034 -1.831883 6.824313 
20.668276 0.417441 13.277637 
20.108536 16.212032 -2.153299 
-20.131268 12.933784 10.885772 
-27.914343 -1.405289 12.390224 
21.507917 0.062041 6.493265 
-13.862823 11.616521 1.237275 
-25.667280 4.844014 0.750565 
1.519773 30.077209 0.618678 
-6.671410 28.576681 9.363916 
-17.878897 9.042197 0.820154 
-10.750910 25.666021 6.288809 
-25.969732 1.016084 4.570536 
-5.199286 22.961102 -0.742391 
24.933561 -0.925396 4.492670 
-29.646784 -3.252321 15.895296 
-13.927455 21.049429 10.558624 
16.609823 3.322295 -0.225144 
-18.906670 -6.373075 10.745598 
18.862165 4.729989 12.426026 
-2.995856 25.518574 13.533334 
-17.853157 24.552736 16.661629 
-22.404810 -3.293120 1.631546 
24.592745 -3.576085 13.409658 
16.184198 5.502363 -0.131145 
-4.707370 24.949537 1.628458 
-24.178638 -1.585864 10.835656 
-19.112665 -1.196072 -1.190952 
26.317001 4.539360 5.879093 
-6.141016 26.480612 10.010980 
26.114346 8.780054 12.766713 
25.009327 11.354450 10.997190 
-8.244109 34.494205 5.096057 
-12.958116 20.184868 5.287835 
-16.228273 1.043960 1.315711 
-16.249594 25.646692 4.292425 
23.588043 2.140683 6.281547 
-12.903717 22.225355 7.245152 
-21.575102 13.209324 9.587868 
-18.118567 9.106532 5.468876 
-18.839878 14.515536 0.638753 
-20.519794 18.686604 11.730803 
15.711118 7.457005 14.922508 
12.021669 27.006514 13.165332 
20.519398 13.037887 8.999057 
-11.837759 28.478891 7.611423 
-14.431988 19.429155 -0.252242 
26.114742 -1.650652 10.049680 
-27.749886 2.828596 11.726605 
20.838184 14.766691 8.927820 
-4.886755 25.792715 1.797311 
-15.198527 19.156128 6.336605 
-7.036768 18.991430 -0.943942 
-27.700083 0.105997 -3.078340 
-0.287892 31.028837 10.825161 
-17.951015 19.117153 -0.049903 
28.650887 -3.900027 3.465096 
-20.032188 4.526791 5.407225 
-10.971169 33.150177 5.716218 
5.437565 28.762739 -2.793459 
12.919332 19.808302 9.515692 
-24.214569 10.668821 13.913184 
15.456134 8.258427 13.231368 
14.311493 19.817184 4.991154 
-22.405174 -2.704989 8.789619 
-26.148554 2.493027 2.577135 
-25.070404 4.941216 3.048059 
-19.853241 20.148897 8.371108 
-17.398737 12.636270 0.344155 
-21.324043 6.853272 11.127819 
-12.809258 22.886417 6.832619 
20.729883 6.808531 10.253237 
-28.878807 -12.363379 2.425802 
-12.859235 21.513977 7.499014 
11.013270 23.208239 -2.224431 
-14.949757 28.587915 6.901741 
14.188465 30.684862 9.523226 
-0.519674 25.288504 0.532946 
-21.991032 8.772936 5.285490 
14.005010 25.635557 4.491051 
28.205107 -8.634568 0.760822 
15.426471 30.698492 5.092695 
-17.952671 16.832001 4.470064 
-24.751068 -9.422550 8.591125 
-27.176538 -11.553431 6.299294 
-22.741678 -0.955507 7.679514 
21.801376 6.482800 -1.233247 
7.387759 27.069941 -0.876112 
-20.643372 0.739553 6.659133 
-21.273569 17.969833 10.167910 
-22.450985 2.056132 7.904532 
-8.898372 33.128990 11.183828 
-21.439857 1.172301 -1.755392 
-10.469637 15.261174 -0.928688 
19.640923 10.360636 0.943908 
12.873693 26.090452 -1.957240 
-0.250597 32.905773 11.371112 
-20.687807 -1.077522 -1.281557 
21.210476 6.430590 10.924586 
25.567268 -2.206734 6.659100 
9.222720 28.063192 2.798601 
25.672201 -0.300581 3.154412 
16.184862 12.381273 0.866397 
20.899796 5.673571 5.832182 
-16.364706 2.919676 16.023375 
-18.522491 10.082722 5.822988 
-16.063274 28.101496 8.312778 
-15.526289 8.535522 11.449913 
18.224672 25.685108 5.718613 
-12.851801 16.762394 -2.196319 
18.979052 16.409409 0.297608 
14.576884 16.828392 11.799043 
17.313011 0.215904 11.264148 
-12.111200 18.934792 9.846397 
10.334671 17.876001 0.303532 
-17.165039 11.154209 -1.918276 
-0.274039 29.895126 0.681893 
7.582202 33.480633 5.354857 
-5.251814 33.158875 5.717218 
-29.842739 -7.606644 11.171214 
-9.060058 34.094536 6.290769 
-7.536119 33.387768 13.323355 
-18.994373 -2.421491 9.058191 
8.342211 28.156818 -2.505018 
-17.534546 18.855799 -5.193304 
-16.164940 27.944725 10.272725 
-19.780594 13.513252 5.488967 
-15.521534 9.435132 4.854822 
25.107428 5.680366 1.548007 
-23.749447 -0.347439 10.204980 
24.137411 -3.039072 8.427512 
-21.020947 -2.679194 -0.466484 
-29.723743 -6.775656 4.676490 
10.262235 22.149504 4.217315 
26.417187 0.634225 1.626920 
-21.182566 -10.820259 1.391089 
-7.203022 27.206871 -4.264551 
17.484388 4.320679 -0.952727 
20.040127 -4.026196 6.884891 
-13.422460 19.050287 6.011890 
14.829941 12.412952 3.427833 
14.615130 30.084442 9.814157 
-3.801135 31.865362 7.470892 
23.318359 16.066477 12.938741 
14.205991 27.959595 5.250242 
20.499319 9.545339 -1.463132 
15.002792 14.227165 -0.781664 
-17.713737 24.439516 11.384953 
-25.905376 -6.661306 9.100657 
-2.014449 25.573278 13.987604 
-26.834587 0.661628 8.590642 
24.399420 11.606561 8.014592 
16.275240 10.011260 5.147113 
-20.759277 2.019788 6.788081 
-21.767151 -6.440912 14.099247 
12.557969 16.474781 16.305641 
19.163521 7.813883 1.877084 
11.729868 16.841688 1.661805 
-6.792490 24.173847 5.573534 
-12.877225 11.617428 -0.502661 
-27.246147 -3.084144 11.163803 
1.731000 34.272339 8.272509 
-13.607094 24.414242 3.261703 
-23.039295 9.936864 -1.505310 
4.797263 28.961744 5.279962 
28.567095 -1.660489 -2.022451 
0.736435 35.367245 5.285681 
-19.188183 14.622860 9.727100 
-23.385162 -1.909194 -0.272854 
-18.413811 15.161810 2.798610 
24.976519 5.848974 3.098020 
-26.744089 0.102113 7.727993 
18.153645 26.665550 10.612666 
14.619166 31.301714 7.043358 
-8.219173 29.435610 12.679604 
-24.350780 -12.974065 8.782557 
-22.519188 12.141882 4.974138 
-17.150183 4.172136 0.090869 
27.085047 0.017701 7.255902 
-26.644032 -7.267163 8.172053 
-21.255301 2.937361 -1.785337 
25.362455 -3.284255 1.914540 
-22.737202 -10.316820 1.113373 
-20.283594 -8.169501 1.036408 
21.857975 -3.446824 11.773733 
-20.873819 18.420084 16.494259 
25.871643 -13.053270 -4.538607 
23.355555 8.100735 10.236348 
-14.886254 11.518662 1.393510 
-25.492781 -1.097642 0.534059 
11.599366 23.499245 10.587069 
-16.422867 19.707916 5.998414 
-0.473199 23.586760 1.612139 
8.089372 25.931459 -1.362831 
-12.923631 10.224026 -2.581225 
-14.778082 28.551662 10.762900 
-10.006514 22.213022 5.164386 
23.983704 -11.577043 7.945640 
21.816458 16.642612 11.553526 
-16.146648 9.519949 0.956656 
-22.282225 -4.174294 7.518983 
24.115206 11.644164 6.735665 
-13.543022 24.093044 -0.826382 
28.073507 -8.622006 3.963098 
5.458900 26.176043 1.030061 
8.521861 36.157001 6.105364 
19.604851 4.883879 12.594565 
-1.194292 29.903748 1.063184 
15.734143 18.687347 8.686157 
-12.713368 20.657576 8.562572 
-13.368477 9.062992 -2.918057 
14.290466 18.034893 9.421561 
-0.195079 28.328472 4.746590 
-18.896929 16.704082 1.921028 
15.582702 2.021549 0.000072 
-14.331289 14.095097 -2.277135 
-10.447186 22.335691 9.471148 
-2.354910 26.268372 -1.137207 
19.405613 15.718093 0.126293 
-4.066811 26.742867 4.582351 
-14.589748 5.865440 -3.613077 
15.420732 30.749884 6.123439 
13.775876 18.309666 9.912290 
20.632221 -8.660378 1.096050 
23.415905 7.514254 2.991301 
19.025599 25.100088 13.483306 
16.503792 22.290447 -3.330707 
11.110183 18.860691 15.045240 
-20.757357 -2.751730 11.008911 
-13.589499 29.168705 10.541693 
-5.772898 36.492050 7.398821 
-10.935608 25.075897 11.380333 
-11.884425 16.475941 1.556359 
-0.480881 26.950174 4.489873 
-10.656378 25.670313 9.111700 
17.661858 0.787321 12.402502 
18.799257 11.322000 6.357220 
7.452298 34.920525 10.241162 
26.647842 -1.005111 9.629013 
13.902780 14.456185 -0.146957 
-2.763421 27.085968 -0.238830 
-14.745235 7.407688 3.401761 
-5.131768 23.828251 4.315612 
-9.649689 27.356627 8.705690 
-22.049608 10.093821 -0.327488 
9.267091 32.141479 9.130441 
-14.293687 26.669426 4.642309 
-19.315418 -3.276914 2.620136 
1.029516 24.350233 2.845319 
11.442103 20.453651 -1.260940 
17.398186 9.512014 4.927696 
-16.197273 19.030552 6.239701 
-15.427377 8.139276 7.073225 
-9.515398 25.719204 0.911160 
-20.480379 -3.265685 -0.138000 
-12.524837 21.258051 -2.100478 
27.250628 -0.822904 11.918676 
-17.051521 -1.153144 -4.574866 
-16.820911 13.913915 1.762674 
30.132547 -6.751353 -2.419193 
-19.067778 1.177261 4.390606 
-24.730780 -7.059481 14.911810 
-12.069733 17.028257 6.606656 
18.644339 -2.715659 1.780036 
18.896177 3.175177 -2.057927 
-24.808712 -3.372131 8.272676 
24.644335 6.349664 2.403184 
-16.003925 3.722337 12.991662 
12.202074 18.215696 12.372165 
-21.672215 0.269140 10.476367 
2.169779 31.758253 12.698607 
-27.112700 -1.582151 6.878543 
4.275756 25.520727 13.838757 
-17.429228 7.648935 7.041928 
-29.073528 -8.911252 6.167006 
25.681007 -2.356120 7.990181 
16.614729 14.256973 5.090436 
20.440050 -9.686607 -4.601058 
30.301849 -9.478306 -0.283921 
-24.579184 6.826803 -1.369600 
-0.445806 30.806999 11.922462 
12.647066 17.228697 12.405389 
20.516520 -3.551839 4.828977 
-22.640060 12.759455 7.982945 
12.168752 18.811205 11.648493 
-0.928544 35.644722 12.616382 
-5.719134 30.789404 9.513545 
-19.207573 13.650203 7.834304 
-16.751184 27.404707 13.151571 
-5.663809 30.374798 10.530608 
-11.744298 24.353477 6.841270 
19.009821 -3.116858 7.042790 
26.870380 -13.940123 0.945317 
16.592583 5.622894 10.613887 
-14.843801 19.322092 11.214789 
18.690269 -2.536458 10.479866 
24.262352 -1.718147 5.446385 
-28.402834 -11.406240 5.474788 
7.085600 35.421417 9.547043 
23.169744 -3.670326 1.732871 
-16.656170 18.100683 5.110198 
25.337959 6.164495 10.339483 
-27.850243 -10.212081 10.182054 
16.702919 7.686701 3.759499 
14.494615 11.670763 5.048365 
-20.904196 -11.375320 -4.227040 
23.929892 8.817729 -3.873433 
-29.064791 -9.204352 12.136973 
12.389983 20.252329 4.008920 
-25.214474 -8.363755 9.629528 
20.005024 7.751788 3.198908 
-7.525082 32.798599 8.182076 
-1.184548 25.300688 4.414828 
-19.849480 -6.351951 2.515074 
18.045010 18.238878 5.129405 
-20.088203 7.723026 6.784955 
17.537157 5.523498 5.121822 
-7.777890 23.143929 12.244076 
-25.826702 -10.879634 5.997506 
18.518791 -2.488105 9.574198 
30.224628 -6.681299 -1.407959 
17.587780 27.261217 8.078337 
9.741143 31.491526 9.335104 
-22.489939 12.911031 8.877247 
21.815964 -4.335194 13.366669 
18.338934 16.707771 -2.047151 
-18.628542 24.080191 14.611561 
25.706848 -11.122542 0.424721 
1.527500 34.247074 6.379156 
5.174417 27.085638 11.029715 
29.524258 -8.617214 1.601042 
-27.027483 5.117897 13.009809 
15.866100 4.422622 -0.712423 
19.488213 14.053384 2.284283 
1.049822 32.406090 7.684652 
-22.403133 11.188845 11.300122 
-18.072491 13.842203 6.008543 
-21.813248 16.365177 11.370560 
12.041870 26.604830 4.412339 
-12.353621 13.217385 0.585329 
-16.040026 27.569181 14.825476 
4.878719 37.554665 5.108884 
29.925667 -9.231919 -4.688960 
-12.586843 26.328251 12.339157 
18.400457 7.782223 5.989143 
-27.378786 -6.456706 14.789370 
15.267277 9.061204 12.203643 
-29.378563 -4.671102 -1.262137 
-21.654263 -6.447319 10.207659 
18.265968 4.174980 11.683680 
2.140657 36.838326 8.045890 
13.870271 16.954332 5.897064 
4.566101 28.272848 4.508519 
8.455459 29.517912 6.467876 
-16.811876 11.730985 5.338077 
-16.282200 1.075539 5.125768 
9.466313 26.271772 5.781225 
-7.007920 23.667053 12.493511 
17.098440 3.515310 -1.249692 
-13.020294 25.615700 12.676847 
16.143528 5.935963 3.555115 
-17.153919 8.783541 5.007384 
-12.521933 32.291679 5.645219 
-25.671175 7.016172 16.179802 
-26.583317 -6.332348 14.909848 
-14.320489 6.713304 -4.840718 
-20.206722 20.149786 9.821266 
-23.015688 7.671656 7.821565 
0.511182 27.053745 12.330960 
17.196146 12.632925 -0.337073 
-19.606295 -4.738943 5.259354 
13.312027 23.001896 -2.123799 
-10.062680 24.187986 10.433916 
-20.805428 10.632614 12.870180 
22.207096 -6.616142 -0.557010 
-12.782333 30.817421 8.397101 
-14.289531 16.066616 9.936143 
-5.312341 24.471569 -1.441000 
3.485523 32.052532 10.247186 
-21.864412 -2.614787 10.922450 
3.973166 33.031521 7.637038 
8.459156 34.936405 4.246893 
21.978662 5.647035 -1.499429 
14.257670 24.680584 0.507428 
2.782513 27.333755 5.782551 
-26.436274 -12.769194 3.409563 
9.275005 34.876560 5.159036 
-29.675482 -3.752044 8.211795 
0.175973 29.849655 -0.282973 
14.648824 24.832441 4.152899 
4.798065 31.585663 7.904743 
-17.190283 23.684444 6.404833 
-22.422270 10.542588 -4.896791 
13.340332 21.297543 -1.033920 
18.623371 -6.578792 -0.080244 
2.837503 27.473104 -0.735438 
7.419304 27.198530 1.239287 
25.397978 -6.515152 -0.347141 
26.351587 -11.863976 5.172238 
-16.573528 5.442278 11.160466 
5.672456 26.982656 1.182653 
19.056915 25.268829 10.663111 
-22.165678 0.074242 6.198032 
19.858601 2.249363 13.168814 
1.981156 30.525028 4.376324 
-19.067232 -9.403164 -1.944046 
-10.254024 24.886454 10.205573 
13.610537 20.344667 9.886871 
-25.297731 -12.910937 8.588545 
-24.008387 6.130383 3.517989 
-21.674704 11.543137 2.698839 
13.504363 18.514938 -1.927095 
16.616600 -0.388443 -2.788463 
0.423446 33.605843 7.828578 
17.907316 27.064011 9.772066 
-20.392776 6.381606 11.990973 
11.119998 14.475766 -4.186039 
1.040816 23.556658 1.750648 
5.900413 36.454742 4.594698 
8.707977 29.226263 9.485511 
23.849979 -4.006478 11.252863 
-17.149181 17.695364 13.054859 
19.863884 -3.376388 11.007535 
-23.923611 -3.295067 6.971457 
-18.125807 4.209916 -1.431117 
7.746229 30.770615 8.632647 
21.594440 19.342781 16.353868 
-25.529938 -0.392323 5.029279 
