-25.396454 -18.386398 10.689006 
-13.225977 12.083935 -1.402269 
-20.098248 -17.660000 -6.400850 
17.065878 11.719604 0.043880 
19.162609 -6.588262 2.143733 
-18.974247 18.821171 0.936207 
-12.360751 22.212847 4.445827 
-30.355003 -0.085223 12.252790 
-7.083916 30.798555 5.741718 
-24.317389 -15.704321 9.095242 
12.886150 23.461721 10.727392 
1.188682 27.905544 5.465827 
-18.886106 15.232602 -3.186168 
-25.897367 -15.119893 6.430651 
-28.467854 -6.824494 7.762227 
-0.441470 28.535290 8.424811 
9.189014 27.226646 -7.944971 
13.217530 25.404202 5.990150 
-18.346827 20.815773 4.853285 
-3.158088 25.082232 7.783088 
17.648489 24.472416 -4.762100 
-21.873947 -11.671590 3.341569 
3.596909 21.952545 13.507921 
-28.637598 -11.543274 11.575888 
-20.116201 -16.588333 12.380645 
-18.843277 -16.103210 -2.278034 
-6.224434 23.315685 -2.292866 
-7.568701 27.855356 4.197988 
-8.018981 28.186504 -0.754434 
-13.396560 25.985008 -1.775168 
11.398154 29.664848 12.159809 
-30.408789 -15.277741 -0.114007 
-3.564065 28.085670 -3.130241 
18.294710 11.056847 6.577028 
-23.220776 8.491206 6.504879 
-20.544775 -2.739913 2.883875 
-23.807814 16.798948 9.856318 
-10.241124 27.033615 -6.456486 
26.359749 -16.120924 12.704433 
-20.085270 18.356791 9.595720 
-21.148401 1.568035 4.181030 
-22.745073 -14.230017 3.722196 
-21.063589 -2.476658 10.868317 
-22.917749 -14.619976 11.667594 
-19.687160 5.959840 2.180167 
18.293182 22.998985 1.027752 
-15.271649 3.298902 -4.982268 
-13.023598 19.318676 -2.841005 
-22.892361 6.263060 -0.606230 
-1.506224 28.755816 -1.616183 
22.961729 21.067244 10.826736 
15.290112 9.802399 -3.530556 
-15.535701 13.079708 8.530019 
-22.104118 6.336685 4.229243 
28.146559 -13.930950 7.105868 
-6.033498 28.474152 11.611376 
22.568266 -17.723850 9.972016 
-28.121328 -4.848927 10.398806 
-12.531856 23.825174 9.599293 
-30.882629 -11.993768 -5.368709 
-28.445402 0.819927 9.406133 
-22.782368 -1.965466 4.281339 
-6.735460 24.104237 -2.750818 
20.502325 -0.566145 3.291100 
-21.488369 8.468610 4.996377 
18.217007 12.771193 -3.896751 
-23.858517 9.900791 -4.917098 
-17.878424 -1.547184 -4.012549 
-18.551838 5.795025 5.732329 
-19.094696 0.511757 1.773881 
-14.851498 4.849456 -7.889433 
5.747488 21.037363 14.810472 
-4.038914 29.029518 0.194991 
3.145606 20.229916 -8.850032 
27.895811 -1.577199 2.054055 
-24.784517 11.885229 10.962664 
19.551392 5.960440 -3.812935 
25.244595 -9.834561 1.867994 
-28.954401 -18.596827 -6.372780 
-12.416343 12.675642 -2.916037 
4.423753 25.498377 7.782670 
15.435437 27.488272 10.897115 
-23.885859 8.771820 -7.052233 
16.026962 13.979641 10.946356 
-19.554493 -16.529955 3.852721 
32.015011 -15.051660 -2.530858 
-30.375124 -1.049726 13.449318 
25.800737 -8.948650 7.710522 
9.218772 24.240883 -3.246913 
33.077690 -10.002196 14.273750 
-28.291546 6.642250 8.495956 
-20.250534 18.956198 -4.771201 
2.532673 27.022120 4.664715 
-0.616699 28.939783 3.978977 
-23.174473 7.765977 -2.798944 
-8.587897 16.508324 -8.646542 
-20.041693 10.221032 5.400769 
30.620773 -17.686434 -1.403833 
22.597391 17.171988 -0.071187 
-2.990584 29.319691 3.021713 
-30.935354 -14.417686 9.760798 
19.150688 -13.716368 -2.557579 
25.729815 -14.560776 6.366631 
14.926815 22.414495 5.940582 
-30.706421 -15.287174 8.452351 
-16.265779 17.303127 8.035940 
18.269592 20.885544 10.910204 
19.402811 12.625566 -0.347894 
-25.333830 0.439258 10.339829 
-13.948222 15.196990 -0.721880 
-22.226013 5.248435 -0.874859 
-29.785183 -4.819826 8.160333 
7.846765 28.001751 4.400928 
-22.742319 -8.032162 10.157708 
1.934102 31.013363 13.330606 
15.544673 24.668304 8.621068 
-22.890560 9.453040 3.763072 
-20.739107 -16.904167 7.812055 
-13.725116 24.512632 3.946094 
-18.791912 -7.947080 13.191560 
-21.728954 3.472379 1.516151 
-31.436890 -8.527314 12.246488 
-16.450838 10.915971 5.809304 
-30.146811 0.816598 12.043844 
-24.177326 -15.260630 11.924484 
0.900233 30.850323 3.985519 
0.907200 24.624096 8.861039 
-30.754484 -15.280042 9.289970 
30.841454 2.115801 7.758337 
-13.955763 20.406454 4.321548 
-17.557985 -8.439933 -0.830357 
17.263000 24.716167 8.109807 
29.553596 -5.441720 -2.599123 
-18.313135 -4.421162 12.685802 
8.799574 25.289984 -1.331289 
-22.195330 14.004855 -2.023662 
-30.867037 -13.666490 -2.146343 
30.294901 -14.427539 1.232006 
7.743896 18.498030 -6.995587 
26.309187 -14.515629 -1.291150 
24.382534 -8.981002 8.951468 
17.545937 24.299456 -5.667947 
-14.024385 21.431005 11.251072 
5.792449 31.878632 8.844804 
18.389627 -6.803897 -5.387952 
16.101547 23.352858 7.182751 
-14.111858 21.017975 5.814023 
27.339754 -12.449311 -1.267311 
-21.382088 7.481027 9.920696 
-18.577108 19.473793 -8.884547 
-20.973610 10.497871 -3.129767 
-22.456940 -9.300860 7.634195 
13.940531 19.126167 -0.238245 
-8.229330 29.036263 14.099461 
18.656193 -11.316388 -2.252849 
-28.834698 -13.567845 -0.307180 
27.617958 1.999030 4.060356 
-19.920570 -15.709156 8.651662 
7.837882 27.848082 5.314060 
-11.796269 29.012369 5.510682 
-27.116657 -12.584920 -1.797247 
-21.573069 16.451216 -5.026524 
21.693193 3.229192 2.852107 
25.253519 11.181554 1.907077 
-19.891596 -4.032038 2.842982 
23.157307 -5.983574 11.500242 
-2.640450 26.544373 11.512267 
17.029974 19.074623 1.729477 
-22.200157 10.354171 2.051221 
7.228035 23.440714 1.442823 
-22.749088 -6.808682 1.446493 
4.881361 31.854063 8.703382 
-23.368261 8.098968 -0.881094 
17.742315 24.676033 -2.186094 
-24.549648 -4.883813 11.151535 
-15.028974 5.112306 -3.426995 
12.433002 18.592291 0.239221 
-11.255576 19.961540 -0.644604 
-22.164246 5.062162 10.634126 
-21.666216 5.727909 3.660532 
-7.984313 23.380951 -2.396369 
-21.265097 15.179534 0.047206 
17.835833 12.125517 -1.894990 
32.182999 -1.407846 13.335752 
-29.994074 -13.372451 2.304405 
5.205780 29.333162 -1.507342 
6.281384 22.250919 11.396373 
-22.389778 -17.876831 10.649833 
22.503857 -16.885817 8.107475 
-22.644543 -2.982946 4.368818 
-15.449342 9.167646 13.428122 
-25.635088 -11.923911 -2.580712 
27.402420 -5.719768 3.878190 
-3.944931 31.732618 9.876440 
-21.508963 7.097507 -3.650403 
29.430573 -14.361900 4.978097 
25.309530 3.238819 7.659013 
-4.958170 28.213684 6.022622 
16.889122 3.241598 -2.757001 
-24.502583 -18.946865 8.640174 
18.512320 23.857950 -3.569073 
22.971725 8.744413 10.758299 
-22.747114 -3.840754 4.285086 
-19.268831 11.323607 2.180250 
-20.647211 21.830870 11.489677 
-19.289354 5.185065 2.775403 
13.898271 18.530947 9.936119 
-18.870075 -7.312677 0.741640 
4.792950 26.689728 8.090240 
-19.244978 20.379705 -4.196939 
-13.168503 27.823002 8.320345 
8.875950 18.787477 -3.746805 
24.415709 -20.429842 -1.424460 
-10.528168 21.417389 9.228901 
-4.624455 29.014040 12.285756 
-31.151724 -12.944078 10.646044 
-20.826830 4.143109 -0.678215 
-17.516159 11.922508 -1.239469 
-20.742903 15.082157 8.477621 
-25.392580 -5.722619 -2.529023 
6.420940 19.009291 -8.755345 
-15.529007 24.834551 8.378397 
-23.740410 -19.482065 -3.810843 
19.915697 -2.320435 -4.071933 
12.385433 18.641521 -1.662081 
-27.512400 -14.692269 5.830368 
-0.700323 26.948133 3.769776 
11.383621 29.653776 9.694776 
24.537134 -14.373446 4.551343 
-29.292164 -8.671598 0.626545 
-22.198315 19.304575 14.844351 
19.084923 12.523335 -3.078028 
-19.414528 19.826042 -1.488670 
17.187868 13.293297 9.675109 
10.366220 23.959034 9.071851 
27.788895 2.977868 -4.997545 
24.132664 -19.289133 8.815791 
20.276438 -3.298009 8.970463 
-21.798510 -4.254237 11.068492 
-19.364395 12.018790 12.055985 
17.828060 17.781025 8.097043 
22.479237 22.548775 12.568074 
-17.831612 2.198466 -0.679222 
8.074843 31.837229 6.644054 
10.725994 27.245937 5.959309 
27.781418 -10.560066 -0.974075 
-16.788277 18.248762 11.345321 
-5.695068 20.966805 -1.328081 
7.209847 23.333761 -0.473543 
-13.368515 18.339857 -1.558375 
-26.444368 -5.153947 -0.239405 
28.063084 -20.130957 12.038767 
-21.741899 5.971754 -0.355997 
28.667536 1.288796 8.007808 
22.817081 3.755269 10.692565 
24.211527 -6.172938 1.132407 
-20.952919 17.074667 -6.301312 
20.153997 -4.060544 0.343281 
27.282278 -2.566260 4.130652 
5.745550 27.673096 2.760066 
14.445671 21.584547 7.759446 
-20.607479 -10.297788 9.721021 
-15.949169 0.628722 -7.610756 
-26.987326 4.646319 3.043127 
-26.903076 11.165114 12.176228 
18.650467 -9.928744 -0.991637 
23.478361 9.857051 2.611567 
-0.963624 27.084282 6.796354 
-18.566366 21.248333 4.170822 
3.826475 27.505255 11.459953 
-18.913824 -13.518080 9.852821 
-6.653001 30.729473 8.139053 
20.840551 -7.303095 2.852318 
24.221712 5.475950 -0.984625 
21.769011 -4.980072 -3.730765 
22.319035 -4.236319 3.738863 
25.905428 -0.113937 10.876583 
-25.197229 -17.902794 6.483631 
27.124081 13.706554 10.343152 
-30.270004 -8.221022 -5.363395 
-15.277307 8.200819 -0.404813 
25.183176 10.793130 -8.130888 
-27.227663 -1.155227 -0.739722 
28.053013 -7.358651 4.001668 
15.861259 22.364550 -3.477271 
-20.863874 0.747764 7.290780 
-20.081003 15.210350 11.400805 
-20.237795 15.272655 4.712140 
-15.057411 4.121984 -5.175227 
22.635139 -1.992637 9.107775 
16.429792 24.545214 9.234715 
32.159851 -0.311642 9.568821 
31.266905 3.545443 13.168971 
-19.507366 17.736076 8.343003 
-19.914742 13.306534 -0.974051 
-24.811245 -12.678082 12.036660 
-23.007090 9.266623 4.688017 
-11.091414 22.907965 8.795637 
-25.268175 0.229819 7.313625 
22.745064 -17.232361 4.213963 
-16.592184 15.127649 -0.393015 
-17.769857 1.915035 12.005632 
8.345368 24.046932 -1.075416 
-6.098679 21.951542 -0.019586 
-19.539942 -15.705483 3.681449 
14.454683 27.748604 3.631352 
-23.299944 17.510729 14.819139 
23.272253 15.673127 7.119322 
3.104527 26.640425 -3.338311 
-23.704773 -8.381896 9.717683 
-29.991854 -17.195965 -4.286498 
16.046206 5.853826 -4.514317 
-16.483421 -1.876686 -7.444875 
18.783398 -11.452002 -3.507238 
19.412159 -1.020290 -3.979296 
-21.795687 13.329045 11.913451 
-29.489206 1.997763 8.681609 
31.379398 -10.131172 6.592458 
27.148811 4.249043 2.489238 
-31.236429 -7.435855 11.179466 
22.965733 1.954923 6.293529 
-10.307809 17.698267 -1.128877 
-17.859837 19.494190 6.502039 
-3.255266 30.190483 14.452511 
19.908800 8.374966 3.004833 
-19.092220 -1.316902 4.958992 
-24.112123 8.991638 -4.253505 
15.387684 15.056707 10.637876 
-29.494825 -8.712934 9.673327 
23.181042 -4.843885 11.615718 
24.897673 -19.032043 10.566409 
-2.684042 29.986967 12.550528 
-24.008919 8.866516 -6.022198 
28.195662 -14.053833 10.022701 
-28.673388 -11.687800 4.922967 
17.617754 7.030329 2.858505 
-15.524167 9.060682 0.047813 
24.503677 12.367320 -8.239098 
22.920393 -10.300574 9.115730 
8.718971 21.875771 -0.371553 
-12.715623 26.884993 11.705884 
21.105968 -15.949587 -0.068857 
-20.842428 -10.520129 7.490486 
-29.372322 -4.886457 5.367985 
15.040283 19.416842 2.232527 
-22.057550 -19.283491 11.956415 
21.093836 9.595337 -4.160174 
-20.575674 9.407026 9.523898 
22.806013 11.167583 3.921240 
8.200418 22.544395 -2.431382 
-24.880472 4.748300 7.754974 
8.494665 28.540998 -3.250767 
29.824871 8.627804 9.076742 
-23.872665 -0.008377 3.623522 
-3.337988 31.453461 11.835667 
-24.363766 6.786253 -8.056601 
29.642515 -9.356332 10.846343 
8.839331 29.507597 14.934083 
3.206093 28.204296 -7.962230 
24.232731 -0.324072 4.717650 
32.140045 -15.147346 -4.326654 
25.189117 -9.140381 10.867418 
-19.050453 2.230567 -0.363651 
23.885113 -19.429848 3.022742 
-22.609739 -8.724689 5.259303 
18.737911 22.665081 -7.491759 
-23.099680 9.563593 7.939191 
-19.760191 -16.211973 1.221327 
22.515068 6.003077 8.715730 
-19.009478 4.786989 7.954715 
-20.186876 -7.702843 0.749628 
-23.385511 16.620380 8.803188 
30.810486 -16.244619 1.265432 
-29.175392 -12.923249 3.159141 
22.408369 2.353150 7.630085 
20.449156 22.260216 11.276614 
16.052679 13.854229 -2.226071 
-25.745726 14.043619 12.463024 
12.164292 27.152224 -3.777149 
23.886532 -5.961164 -3.119394 
-7.999953 28.031546 -1.619076 
20.864542 18.476421 -1.008443 
18.726433 12.433949 4.074182 
22.904520 20.859230 4.711385 
18.272352 17.234472 6.191930 
-22.952396 18.584175 13.861464 
20.816332 8.720582 9.587715 
22.522104 9.669214 11.192698 
19.574375 22.263142 -5.923581 
-20.504843 7.979979 -0.768041 
19.515223 4.780034 11.210895 
4.997647 22.312267 11.796692 
7.001857 29.136677 12.714590 
-14.550751 11.000875 14.700038 
25.863157 -15.397547 6.290547 
23.595865 -1.235497 -4.026334 
19.234758 -10.360943 -6.735931 
31.035433 -1.251456 6.148539 
-17.400806 14.721029 6.263291 
7.860868 24.559811 -3.319592 
25.663231 -7.878850 0.121407 
-22.677418 2.594853 9.235336 
22.162447 -5.473306 11.384310 
-26.444065 6.277429 8.053729 
-8.501851 25.048334 4.838081 
12.203101 26.788836 -6.203398 
-7.508162 27.009325 9.116873 
28.971178 -0.957163 -4.550525 
-29.836393 1.598992 13.153191 
-18.606562 -6.872421 12.299311 
-26.531042 -13.778003 9.666057 
17.862219 18.041513 1.556368 
-19.430977 7.069781 3.717381 
17.153679 22.148125 -0.749324 
6.997612 23.030140 -2.497947 
-25.383297 12.919975 6.182157 
-18.999010 -2.568797 -4.888192 
1.202017 21.115562 -5.508200 
23.465954 -13.372853 12.137896 
-30.009125 -13.212394 6.394250 
24.556026 -6.912929 4.775281 
31.750940 -2.588160 10.074866 
21.362160 16.145300 -1.383343 
-21.737606 -3.358161 11.077661 
17.351480 18.850908 7.844668 
-2.427666 32.065907 8.946663 
-21.785618 10.059499 11.441050 
13.049221 29.081564 6.174618 
26.960051 11.015070 4.312565 
-26.704458 0.218956 -1.812628 
-27.944761 4.494686 8.669195 
23.034121 11.245172 11.470889 
-22.455194 19.589798 13.026843 
31.859159 -16.107975 11.686563 
-20.265631 1.268461 7.622231 
-4.517311 26.286095 -0.842908 
-10.752728 20.849461 -0.291805 
-30.599230 -0.724488 9.447518 
22.610920 -16.181528 6.984036 
21.676342 1.495191 3.161004 
20.824087 -4.460878 6.398153 
15.624980 13.003764 0.192388 
-20.662266 -13.481773 10.641668 
15.379678 27.917906 12.446278 
26.854805 -18.960144 8.263812 
-27.390650 -6.769290 3.672135 
-23.555771 -15.978147 -2.315586 
-27.754145 -0.667135 10.228960 
4.919231 21.969738 12.706915 
-6.118242 29.635216 11.166036 
-21.378239 -10.874693 5.709663 
-5.998571 26.859188 10.806994 
-26.719465 4.998233 2.242656 
-1.269685 29.182789 1.708337 
-20.666779 10.834166 5.123817 
4.452670 30.063721 12.252764 
-24.104982 11.207911 7.822694 
-20.411720 17.633930 1.203069 
18.005480 15.749393 -0.169892 
-16.071323 24.176855 5.399566 
5.795538 31.924599 2.736913 
-18.925758 -6.689360 14.437365 
31.007900 -18.660364 13.104650 
-24.386177 8.001306 -3.921160 
-18.655375 -4.281144 14.473827 
17.722492 8.184771 -0.209347 
-15.180478 19.059559 7.379402 
17.501837 7.739652 2.191243 
-22.791771 10.280787 2.730643 
7.385280 22.209349 0.406640 
-17.256433 7.036167 9.584626 
-16.872736 11.486121 3.851270 
16.866777 23.951576 4.304235 
-1.740298 30.407112 10.916543 
22.788403 -16.302439 -0.977709 
18.728922 15.080458 -4.098087 
6.510176 22.658346 10.554407 
7.170001 26.041935 8.299112 
-30.154505 -1.117252 14.547411 
-25.461351 -1.045454 8.049294 
20.948938 23.733852 13.842315 
-24.373880 2.350798 -2.954309 
18.826216 -3.845835 -3.043761 
9.769247 27.614376 -2.177420 
-10.618739 19.832966 -2.277133 
19.881224 -6.996597 3.082698 
-23.064238 -1.264855 -4.411700 
-15.131636 9.775244 14.682441 
-18.916697 22.500078 12.902399 
-22.605507 10.774150 7.733811 
5.465005 26.455713 0.673031 
-22.884171 0.295796 4.151355 
-25.912893 2.802862 -3.216172 
-21.122332 21.504286 8.419845 
23.438643 15.797693 -6.201340 
27.523085 3.900150 -5.059900 
20.397394 13.570730 -3.783365 
17.604517 22.405523 5.365212 
-20.625990 3.434770 1.119438 
-16.077501 8.563300 1.197547 
-30.516184 -9.403211 -5.370324 
22.959318 8.282254 7.435074 
23.165913 0.669253 9.031307 
20.646393 5.248483 7.891382 
29.518976 0.698355 9.236410 
-29.080133 -16.057138 5.051537 
-17.769587 22.197905 -1.668162 
30.174538 -17.516996 0.474670 
24.357111 8.331160 5.056424 
17.350410 0.328604 -7.460011 
6.848458 31.981840 6.925893 
20.036139 20.510246 11.544191 
31.628796 -4.507418 9.358687 
-20.694590 0.571747 5.582629 
-24.969366 -6.216391 1.387615 
13.207581 25.021448 9.028194 
28.772608 5.955081 8.050211 
24.597706 -20.024891 8.986849 
-23.075178 -9.966609 5.406985 
-21.985703 7.185938 -0.706628 
-20.061783 3.721973 9.289139 
22.073355 21.561516 4.453736 
-17.739138 3.394809 10.510104 
10.187465 27.594679 -0.938178 
-17.020546 14.604657 7.742265 
32.118389 -10.334445 9.895693 
31.321772 -4.051178 7.324435 
-10.693073 17.106276 13.559162 
-2.572877 23.434551 -0.441342 
-17.875616 14.675438 5.589319 
-19.973364 23.488501 8.603709 
-25.196802 14.422769 7.312713 
19.332291 12.875538 -3.831241 
6.221879 28.905741 -3.209477 
19.100965 4.554827 14.527976 
-24.082550 8.939172 -5.089240 
-11.023862 28.891359 10.540587 
30.612427 -9.800982 -5.023486 
31.892859 -12.159245 6.901930 
1.665072 22.780560 -0.863069 
6.155385 24.438288 0.221216 
20.517208 -16.069128 3.638632 
-13.968548 26.841787 7.513309 
-19.809593 3.631222 1.454151 
32.010612 -15.259205 7.224884 
33.133770 -13.499493 14.219826 
15.816483 19.551586 0.129179 
-20.059546 -6.439644 0.595078 
20.496044 10.863795 2.288492 
-19.545845 -15.136396 0.270771 
-19.626244 -17.484041 -2.981644 
25.864466 -19.936583 0.660344 
24.037685 -2.482085 11.554582 
22.558550 -9.825644 -1.890215 
21.195801 -6.097367 3.916362 
-6.648506 18.460695 -6.880956 
22.593475 5.008016 -3.266400 
21.612755 22.488903 7.179114 
-16.408768 20.564877 9.588840 
24.138117 0.908823 9.455625 
22.808058 16.169676 -2.817613 
19.688450 7.025684 3.512537 
-21.459698 -4.672304 2.786332 
-28.835257 -0.427492 4.906227 
-11.696631 19.990505 1.713836 
28.274803 9.131559 6.541522 
-0.511756 25.480696 9.617694 
17.672544 12.134437 8.093347 
28.223341 0.783800 -7.447880 
-17.646502 -9.360662 -0.732587 
19.459198 16.385450 6.461538 
-28.522062 -4.982508 -1.797696 
33.151321 -8.882548 12.178295 
-21.699194 16.555561 -4.096298 
25.596148 -16.525532 12.579940 
-29.228058 -6.852686 -1.428505 
27.029917 4.501078 7.883610 
10.160674 25.026087 9.658540 
28.323151 -1.755092 1.202742 
-27.559717 1.784091 7.021676 
19.012846 -5.188277 -1.673183 
9.605589 25.793016 7.382415 
-20.776224 22.071131 7.145030 
-14.834465 13.586328 10.036676 
-16.172705 16.092188 0.005725 
2.718091 25.882046 2.534983 
6.756227 26.508450 -0.537462 
-9.354720 27.477156 0.415742 
7.292439 27.495756 0.954533 
-18.084839 -0.990726 13.288370 
-5.652145 24.395416 0.458994 
-9.370677 17.952747 -1.888736 
-23.773783 -6.891234 -0.550744 
-15.569478 18.624935 2.008957 
27.498646 0.827236 -2.157646 
-10.144408 22.032295 -1.172599 
14.919290 28.249022 7.389993 
10.643309 29.957987 12.246042 
18.297428 11.102013 1.478770 
17.211971 20.926218 7.294044 
17.989960 6.406954 3.340713 
17.838503 -3.013009 0.143492 
17.793591 -3.267518 -6.048427 
-22.213863 -10.130088 1.070371 
-3.394611 24.359409 -1.886703 
-21.900854 14.534987 -6.982102 
-27.617449 0.568290 9.807559 
20.548758 -8.438377 12.374459 
24.662134 16.191584 7.219322 
-21.115231 -7.330147 2.642436 
18.231787 21.454163 -0.581125 
-27.208944 -4.693126 10.719152 
-28.877756 4.123703 14.625274 
-4.498943 21.947449 -1.001338 
26.859497 -0.592612 4.033520 
30.410929 -16.169807 2.508612 
-20.179983 0.640748 3.396943 
-14.490861 13.309857 -2.605752 
9.125889 23.958862 -0.582906 
-20.618546 3.109170 3.403203 
5.004197 27.918468 5.489598 
30.395725 -3.077702 10.741719 
10.734058 23.146528 8.386184 
-16.768085 -0.921179 -2.053032 
21.155840 12.614858 3.884320 
-24.544182 12.807879 3.698401 
20.074194 -8.809863 1.949057 
-18.108316 3.976710 0.467927 
16.546131 3.926707 -7.704403 
-21.691553 -7.065724 1.391963 
-17.728306 16.244007 -3.343113 
8.565557 17.966406 -6.818871 
-19.151871 15.006048 4.973510 
-24.845625 -11.147505 1.416187 
-16.831066 -2.677792 2.053788 
6.326743 22.757568 -0.849832 
23.653097 -12.742218 -2.056168 
20.530550 20.810278 -3.020397 
-19.840656 11.414407 -1.442466 
23.676397 15.822350 5.632565 
-19.181944 20.431541 -2.972077 
19.367748 -3.569609 -3.840188 
7.163894 21.747177 12.014624 
17.250721 21.943466 7.111103 
25.146358 -12.087683 12.262117 
29.371481 -9.293482 0.314779 
-30.412584 -17.381247 13.245696 
12.926082 26.744781 -4.564035 
20.684210 20.871016 -4.256577 
23.236032 12.146879 11.461727 
-16.577789 12.215574 -3.052887 
-13.880733 25.407660 8.874315 
-18.100582 4.413470 3.113425 
-0.014092 20.880505 -6.962018 
25.469385 -17.640867 0.576771 
20.150217 -16.185221 2.381814 
20.091179 -13.015961 3.166077 
-19.377333 -6.874580 8.420490 
25.200569 -3.633102 4.926930 
17.957392 8.069547 14.584523 
23.707235 13.278758 -2.582050 
9.455327 27.958281 -1.317993 
29.975861 -10.058220 1.316238 
-21.364761 11.680922 -0.946661 
29.257700 -9.956289 3.436738 
-19.577122 -6.673341 9.271004 
-25.659218 12.309875 7.504831 
-18.100750 -1.575050 11.505339 
20.716866 20.813778 -5.630254 
18.741476 -5.300885 -0.637001 
7.891274 22.801987 -0.847683 
-18.220541 -0.337737 -0.806632 
-25.568266 -17.909096 11.330821 
-8.947898 25.019096 11.799897 
-18.455263 2.420515 0.190106 
27.772711 14.372864 10.693375 
-21.867353 4.668055 -0.119828 
-15.183786 18.395653 10.687343 
-30.755278 -10.165295 8.801385 
25.197916 7.253016 3.239695 
-27.579899 -12.166664 11.930378 
-19.853914 19.353079 6.019801 
17.574921 -3.242745 -4.983831 
-26.606325 4.068753 7.301408 
26.647711 -1.952771 4.217546 
18.635960 17.293690 -0.102587 
-4.712495 28.942789 -4.818081 
4.943882 26.917122 5.159989 
-19.552263 -14.712762 3.551291 
-26.961826 -10.622473 1.546795 
-10.583084 26.646978 0.326235 
10.376072 31.283792 5.344011 
-13.224656 24.191963 5.004488 
17.402285 19.160671 4.898317 
6.363592 31.609919 10.419310 
-30.879381 -3.039711 12.545434 
4.607408 29.034824 1.881927 
-24.030081 12.234101 8.757473 
-27.245502 -19.470213 9.703468 
23.431860 20.399372 10.086293 
26.447735 -17.185591 0.052837 
25.953123 -8.832939 9.664096 
-30.595970 -13.530184 0.083583 
16.784346 24.898960 -5.459104 
-18.408333 -14.629082 -2.050507 
-3.689443 32.241585 3.165636 
24.809656 19.198666 12.700531 
-29.307993 4.228679 12.064286 
-21.455162 10.817657 3.779734 
-15.533101 2.313143 -7.722058 
-0.325809 25.182133 8.057551 
26.529850 1.072638 1.905428 
14.768548 20.611797 8.075710 
-19.860701 13.897229 5.109490 
31.794176 -2.730507 7.878314 
-23.830570 2.988673 1.086460 
28.394951 -3.863720 -1.633872 
-21.102142 1.946662 6.882274 
0.889055 31.028681 13.360861 
-29.195549 -2.878367 5.364948 
21.049467 15.967213 -3.601397 
-29.890072 -12.675776 0.709965 
-7.464650 26.296198 -3.194509 
20.427549 -6.196863 -2.589410 
25.397549 6.393781 3.224518 
-23.653446 13.345900 9.365332 
-16.138741 -0.217689 -7.554751 
-26.628521 2.611200 5.474990 
-27.739016 -15.573906 11.938751 
-18.791224 9.931704 5.256009 
12.359360 28.081682 10.065413 
-28.704535 -9.125179 0.161311 
18.646261 25.601627 13.811522 
20.535267 7.341903 -0.887488 
29.594547 -2.669783 3.676451 
-28.298059 7.830644 9.017948 
23.328480 -7.239052 2.994615 
-28.498188 6.696913 6.850046 
12.084829 28.678970 14.914306 
-25.449078 -2.935863 4.829217 
27.037876 -15.113727 7.113939 
24.611706 1.602962 -3.248591 
-21.050615 -5.043084 3.973011 
22.366074 -18.275175 11.711720 
-2.551202 22.764505 10.829169 
-17.237001 9.945834 8.017853 
-17.862278 24.668789 7.767847 
6.426322 26.413208 3.192727 
17.066317 1.530875 -3.311253 
-25.803732 2.640306 -1.471532 
-6.786829 28.027157 9.224094 
-20.480375 7.111212 6.821756 
-25.701124 13.392643 9.023805 
32.989452 -8.850906 11.241394 
-11.810110 22.050003 3.504468 
33.012856 -6.709623 13.146573 
-18.274658 24.211990 5.435184 
-16.147194 19.595224 6.781627 
25.805925 4.718673 -1.740654 
23.041004 -3.910281 11.591734 
-20.139692 4.230235 -1.375199 
-20.897648 17.382011 7.182979 
-17.533260 0.320795 2.454523 
26.151705 -17.349184 1.384721 
-25.348064 1.873885 9.176426 
-13.325403 9.839463 -4.855841 
-2.441985 26.217947 8.388759 
-0.622457 28.596403 1.850557 
28.521990 -4.049705 0.050876 
26.051287 -17.351305 9.528633 
6.537436 30.223856 12.709315 
-20.822147 19.843838 6.047881 
20.868683 5.744708 2.314801 
-19.775778 23.297922 12.095221 
8.764850 29.576828 12.389096 
-22.333900 -8.852813 6.229823 
15.986509 25.624905 -4.185706 
-23.446480 14.838927 3.734024 
20.660557 -4.682170 -3.778469 
27.731110 5.717371 1.609613 
-5.564481 27.670675 6.139244 
31.683285 -10.071715 7.451695 
-19.939075 18.506464 6.822571 
13.159972 28.992643 7.059394 
-26.333105 1.195196 -7.689469 
-4.438020 19.693247 -7.197421 
23.207714 -6.892504 11.330618 
-18.187006 -5.300735 -2.522192 
-28.372892 4.766510 6.178180 
-21.292696 -11.061030 -3.285919 
11.880965 17.353729 14.740517 
-25.500208 -8.027492 4.290622 
-26.035746 -12.201087 5.941607 
24.688005 18.673361 9.577476 
-18.459036 -14.671820 -3.014062 
20.109213 1.739764 -2.076770 
-26.687664 5.134003 7.820945 
11.356010 25.827570 1.194701 
26.931816 -12.132260 6.063969 
28.530151 -9.072581 5.628745 
1.983559 30.214727 14.959812 
-19.837490 16.669813 3.299068 
-18.722574 -1.764381 5.650452 
-20.915911 21.528553 6.470941 
23.285534 -16.823696 7.163526 
6.283912 24.603722 -2.410572 
18.521578 -5.629521 -7.055951 
9.919480 18.897175 14.768510 
21.459225 11.956581 1.216158 
18.492561 19.789488 8.387681 
-18.005035 15.045670 8.633711 
18.184267 18.031025 -0.079413 
-24.390423 7.986485 -4.793614 
7.484135 31.517845 9.986738 
32.598907 -6.945201 10.244147 
-21.095098 -8.702142 2.720005 
-23.545172 -8.468390 1.364685 
16.065594 15.228726 -1.692517 
-11.725656 25.733665 9.908472 
-15.978415 18.699383 8.594984 
22.473478 22.687836 11.461303 
8.696216 31.215134 2.771171 
-27.947386 -1.580862 -3.450132 
9.031740 30.871267 10.546196 
-21.718790 -15.815278 -2.540436 
-18.057747 7.906741 7.972969 
13.376266 23.594385 8.195129 
17.698540 -5.677547 -2.256933 
32.455219 -2.434161 9.387645 
23.751528 18.176754 4.508073 
26.520643 -15.634990 6.758040 
0.902569 31.038872 4.860372 
-14.371458 20.586086 5.000093 
-18.575001 3.910197 -0.461991 
31.044579 -13.513556 11.978470 
-28.008995 -15.291677 3.391278 
14.060517 22.430874 4.821095 
21.724752 -14.014339 4.719344 
10.156665 25.297144 8.133445 
16.176369 19.512157 9.006619 
-28.615349 5.934735 13.512743 
20.789927 -14.906207 -0.717279 
-19.860975 4.612752 9.916678 
-18.512255 -3.163563 14.490710 
-10.306307 15.298791 -5.101969 
30.192799 7.488658 13.336606 
-18.808613 8.659652 -0.407196 
-12.271544 15.068750 -0.941859 
19.725054 -15.010187 -2.640718 
27.926043 -19.572453 -0.994531 
-28.622877 -3.817683 -4.503599 
4.478383 28.062973 -7.953180 
19.602633 16.149889 7.522693 
17.139877 -0.393849 -4.591469 
-2.880491 28.785915 10.417175 
-28.381470 -6.952517 5.816173 
1.804383 29.587931 -2.652560 
-15.065445 20.548820 -0.096042 
5.095563 28.501617 -6.444679 
29.915537 -6.962992 9.634927 
24.125479 -19.246414 7.829876 
30.810810 6.098637 12.564276 
-21.890137 -5.317680 4.027324 
10.751043 30.063559 10.606594 
32.311302 -2.288034 13.426950 
2.394008 24.280092 -2.114381 
-20.561937 -18.029882 0.404812 
-20.079245 5.026129 2.574262 
24.272190 -5.573182 5.614024 
-22.152504 9.854774 10.442976 
-1.665013 26.020109 -0.332148 
-23.978144 -7.215987 7.903596 
-28.065714 -13.430077 -1.018348 
22.212490 -6.317474 4.141823 
-2.106515 25.002256 7.927990 
31.744097 -14.515242 6.794903 
-25.514853 11.505915 7.276159 
27.744814 -0.822109 1.350906 
-9.914625 29.900866 7.195840 
28.018002 -1.305708 -2.145593 
27.983547 -6.271954 3.733565 
30.634033 -14.025031 2.050719 
-22.457804 -7.560560 0.786592 
-3.644787 21.489159 -2.459325 
-19.290205 -17.169436 0.790417 
-15.769341 14.070813 8.604983 
-20.924505 -18.135475 12.170638 
-24.694017 -7.001025 1.868973 
-17.087879 4.787634 12.263942 
22.515285 10.326913 -1.141337 
-17.224638 -8.559695 -2.735120 
18.066044 -6.825699 -2.781514 
-17.580273 -9.794991 -5.262093 
23.967422 3.231140 -1.149804 
-20.145615 13.054303 2.083208 
-6.916333 29.138453 8.992872 
27.563229 13.798515 7.484550 
-25.300232 -2.648675 -0.661557 
17.597540 13.961437 3.629547 
-23.227343 7.571361 -1.865273 
13.266258 27.595518 3.436837 
-18.808273 17.694973 -0.369754 
-20.970789 9.083122 7.794803 
-4.271006 28.713442 10.141325 
20.746979 -16.275135 1.785092 
17.404724 24.067450 -6.677873 
28.553961 -9.227398 -0.243091 
24.038355 8.675495 8.825706 
-13.033069 24.854414 -2.345345 
-9.991067 17.904667 13.390929 
-31.196762 -7.531959 14.450983 
-23.885271 10.004266 -4.073229 
-23.151703 10.277355 -8.285910 
-25.335258 -2.133797 11.088977 
14.899203 25.196955 2.528337 
20.491678 -10.615453 12.335432 
-12.178480 11.549861 -8.328179 
-22.848537 1.749308 7.404549 
31.438152 3.605689 10.909716 
-8.879306 29.179886 5.153955 
25.313189 18.324490 11.445190 
-15.745560 1.471826 -7.666485 
2.679120 26.474277 6.946980 
19.954445 20.423359 -0.966168 
-1.912872 24.806595 9.238324 
26.458103 -9.900013 -1.425519 
29.739393 -17.071667 10.379483 
20.324871 4.787430 2.246067 
-7.962752 17.115782 -8.684815 
-4.529522 24.872662 9.224638 
-19.801376 18.622063 0.321766 
28.729773 1.533397 5.048934 
24.997353 5.269674 4.208228 
-15.746778 9.192394 11.334270 
32.715012 -5.575672 14.342635 
-26.536385 -8.445282 3.866372 
16.974728 2.134407 -7.582557 
20.762760 -5.887439 8.295100 
17.183838 25.598894 6.068930 
-26.551561 1.343413 6.364789 
31.819004 -13.578309 7.246862 
-17.480434 11.805943 2.748941 
-4.878551 28.201086 5.173770 
-15.103419 22.509314 -3.398414 
4.460749 31.275202 11.169415 
-21.405308 21.381819 12.916879 
-14.764961 18.523834 7.833946 
-22.537634 -15.939368 -2.461274 
23.391016 20.664904 14.766523 
-23.313377 -18.292187 2.538645 
-30.956686 -13.929271 -6.693575 
-23.370590 8.374504 -1.929173 
30.248457 6.075722 4.703129 
-8.092286 25.590899 -3.141473 
25.704550 17.507895 13.521053 
-15.669696 24.368179 0.728838 
-22.988016 -5.890165 -3.633354 
16.215284 4.885832 -6.455531 
-4.132671 30.067837 14.385036 
15.427164 24.545406 5.101508 
-28.515501 6.828141 12.667221 
18.954685 -6.202409 2.942048 
-8.099255 27.260183 -7.966882 
-12.224551 28.841930 6.648651 
22.138861 -4.922717 4.214328 
4.665308 28.973915 3.160330 
-24.334455 15.686887 14.793323 
31.089714 6.326899 9.713242 
21.995148 8.854643 -4.363629 
-18.105148 11.057375 2.601943 
-20.773956 13.536289 3.846006 
-14.220881 7.216174 -5.204270 
-27.165823 0.391570 7.153906 
20.434105 15.468312 9.193817 
5.798625 20.479687 -3.466796 
5.665856 26.798742 2.495986 
-21.415136 4.906500 2.756943 
27.371607 -16.800068 2.948281 
19.594414 -5.728654 -2.109655 
-18.446295 -12.191765 -6.760992 
-17.184004 4.059095 13.465559 
-30.458115 -14.107714 7.131632 
25.780954 17.558706 12.400789 
-1.460929 25.953888 7.424387 
-26.654718 -18.508244 0.170135 
22.619682 17.510614 -6.242976 
29.571661 -4.331439 8.478420 
21.311562 -13.736276 7.584537 
-15.492667 17.638222 4.469406 
-28.563549 -3.863239 -3.365826 
-20.673336 18.651049 -1.355772 
-21.994354 1.225789 5.490914 
22.902487 -14.076395 12.030257 
-25.654341 3.488230 -3.862422 
-18.688976 13.620540 -0.380290 
-9.632767 25.195753 -1.387993 
-30.977171 -13.833130 -5.012301 
19.868612 14.131390 6.381060 
-15.472984 21.848824 6.091417 
3.652064 22.822178 11.309157 
-26.241047 -9.100198 1.217521 
28.069239 -15.592208 -0.059419 
-18.909918 -4.516142 3.110612 
13.052277 28.455158 9.720661 
24.332890 -10.362930 8.757701 
-31.145048 -5.344840 11.362463 
-11.164622 28.161005 12.016034 
-20.151209 21.995962 12.409986 
-27.244453 6.917902 3.535341 
12.664553 22.341801 -2.729011 
-26.307585 -7.948508 2.984291 
-22.645639 6.613111 -3.009727 
-0.078366 28.211296 11.573203 
19.743189 14.204513 -4.023634 
-18.720110 -1.679566 7.178507 
10.614374 30.486507 3.552086 
14.564454 26.813913 10.243992 
-11.244211 17.438820 -0.675099 
6.132709 32.108990 5.939606 
15.063225 11.908695 -1.180000 
32.792389 -16.326296 14.177077 
23.778994 8.511816 6.013366 
24.612919 -17.324362 2.540160 
12.768826 16.482983 14.725197 
23.128613 -7.632563 1.361631 
21.165295 15.515589 6.928339 
-30.577604 -15.856717 10.175281 
20.571730 13.070807 -0.659238 
21.570663 20.245468 11.643989 
22.490789 0.306879 9.302791 
-5.807892 27.168074 6.820100 
16.040903 14.685557 1.882294 
-18.834354 -13.478458 1.318901 
3.133335 30.854509 3.517671 
-20.448324 0.349634 6.480380 
19.604990 9.063160 8.719234 
-9.607969 27.764250 -4.630401 
22.798922 21.438261 14.779704 
13.768543 28.580610 13.302891 
27.622992 -13.046071 12.629641 
-10.071288 26.681482 12.569925 
-19.396753 -10.107786 9.550784 
-29.450830 -5.927097 -3.958441 
-9.001476 16.291269 -7.183910 
-8.020023 26.734921 -9.329964 
-17.876104 21.235851 12.836208 
-23.963385 -10.591743 5.153015 
-21.812040 3.496710 0.675502 
-20.946373 -11.601604 3.795646 
-17.072716 5.349764 3.239261 
18.026869 9.014951 0.293907 
-6.701190 27.781561 8.411925 
-21.972488 2.963064 9.982556 
16.475929 4.035790 -4.007629 
21.602629 5.265075 3.694281 
-10.172179 24.440517 3.438655 
-24.582447 13.667765 4.178357 
-22.649242 16.283054 6.851231 
25.910633 -9.720276 5.946244 
20.681692 16.795805 7.886624 
-20.174978 -1.949166 -4.926602 
-1.129569 31.174633 13.142771 
1.791212 30.133757 7.680050 
-2.794451 28.486980 -3.200993 
15.395622 27.980614 11.589994 
15.224614 8.179824 -7.994743 
-13.644771 14.366561 0.570360 
-19.403660 -12.072338 -1.373741 
19.670790 10.462695 2.450208 
21.045664 -7.048822 6.542554 
15.802530 14.086349 -1.387672 
20.170547 21.583460 -5.667130 
3.719644 25.148863 -2.810672 
25.373692 -19.228207 3.394428 
-26.619009 -6.112103 3.743964 
-19.717350 -2.147968 2.289634 
27.220888 1.388465 -1.440193 
31.364985 1.821411 14.459357 
-11.332901 23.753683 4.189254 
16.743776 25.471872 -2.453147 
18.626141 13.026542 6.687665 
20.412319 19.668303 9.296472 
-12.732156 25.181143 1.087479 
-30.832748 -15.088083 10.377138 
-23.504913 17.667879 13.804539 
22.539328 13.050219 0.661799 
28.478954 -18.280420 2.300656 
-10.346601 14.413972 -8.513021 
26.110741 8.395278 -7.966485 
6.702520 32.226299 3.626629 
22.464226 0.460152 8.268615 
-28.899277 5.055982 13.399072 
25.766037 -3.504722 -3.245260 
-25.854715 3.378156 -4.986826 
-15.467690 22.410395 -0.885682 
8.069263 31.537701 9.405818 
25.088472 -15.607007 5.720112 
-25.483255 -16.937441 11.690489 
-27.108866 -11.032609 11.676922 
-14.402639 13.753241 3.390864 
-30.531782 -1.978043 13.542544 
-19.516708 -6.441077 5.159233 
-28.896288 2.732322 7.782928 
-16.503109 25.593929 11.066515 
-2.972283 27.811571 5.707464 
-22.894783 10.424372 -2.395861 
25.795889 -11.169075 9.158200 
17.053125 13.313792 2.964117 
-21.444057 4.360950 10.470519 
13.742990 18.814159 -2.270307 
-22.845291 18.600266 11.098373 
-7.354207 27.047667 -0.773676 
24.319511 -7.255312 2.575214 
30.989084 -1.421903 10.162489 
23.747831 -0.186699 10.804380 
21.636631 -7.880944 8.221332 
24.333935 4.861481 3.881541 
5.056203 25.872849 7.304873 
6.711781 26.648685 0.285595 
21.188789 4.277800 5.098633 
-16.418779 22.042740 3.908967 
21.177731 4.181771 2.515485 
4.310588 26.241018 -2.995154 
12.107653 28.678064 7.704518 
8.030782 24.183727 2.285720 
-14.873631 17.166300 1.058767 
16.087698 21.143984 -0.585644 
31.532820 2.813794 10.599787 
16.992607 10.385406 13.430301 
-22.887476 3.534016 -0.635015 
-20.230967 9.170483 -0.746023 
-12.880348 25.533932 5.299009 
-31.446480 -9.706082 13.406651 
-23.815573 12.501513 2.450063 
26.792027 0.631509 6.780359 
-30.785152 -15.693409 -4.651629 
31.350750 -1.889402 6.838694 
-20.117874 -6.048322 -4.109850 
19.628910 22.358139 -4.647670 
-21.591354 -5.512916 2.973704 
-8.489632 25.160563 -0.651118 
9.039038 31.979345 4.400524 
-10.897964 23.376978 -1.317962 
7.276103 18.524639 -8.719498 
9.901237 23.048323 8.709783 
17.832598 26.151136 13.906864 
7.440432 22.332632 10.908561 
-18.695183 20.290377 5.422551 
-26.052935 -15.751388 3.257852 
0.454474 31.330925 8.543089 
21.458815 -6.974842 -1.506860 
26.263241 16.749083 12.371634 
-21.689989 2.590154 8.796913 
-17.788769 1.975446 0.334058 
-12.788083 13.924586 -0.595070 
-20.349047 1.968855 -3.082446 
22.609085 16.215471 -8.504531 
-23.890291 9.158110 6.977386 
-23.250397 -2.772221 8.835064 
-26.307755 -7.712132 5.794130 
-8.443744 21.121939 0.273586 
-16.889915 17.651625 0.329364 
-26.474369 -16.108694 11.941964 
11.134257 24.197474 2.427860 
-24.666351 15.933825 13.003589 
-11.639774 20.077509 9.517954 
13.250802 24.501280 4.115174 
-2.214067 29.966852 14.965091 
16.686075 6.200392 -1.108351 
-17.882002 -0.451321 -3.419189 
-20.964100 17.069355 0.637632 
24.697495 6.428841 -2.362949 
19.243765 11.006480 1.863173 
-26.272377 -12.329354 -2.285648 
28.771828 8.171371 5.477927 
27.860889 -8.821844 4.344121 
-22.799179 9.648869 5.975289 
28.697931 10.917741 8.557371 
-20.595909 -16.504089 14.289990 
-17.888102 -9.820735 -6.917771 
-21.798904 -12.756441 8.609475 
-10.927279 14.398010 -5.043991 
-16.891645 12.447922 10.482164 
-15.234918 3.221328 -6.274165 
-15.149606 4.185431 -4.107803 
25.683840 -5.955606 0.945541 
16.134455 17.272575 8.854750 
30.048470 -12.952599 3.777514 
31.297970 -12.204694 -6.564996 
-26.727856 -1.769618 10.783648 
13.720725 26.190008 -5.897321 
3.464812 26.763502 10.708814 
18.504553 7.560399 11.697735 
31.231241 -10.512511 5.855579 
-13.213515 18.974833 0.021668 
-3.776462 26.022953 0.426913 
16.386896 16.728483 1.896242 
21.455090 4.993549 2.354460 
29.559725 -5.529247 -7.019374 
-22.014317 15.662484 -3.784858 
28.171276 13.319646 12.160942 
-19.762335 11.312821 12.004628 
20.782944 -15.983440 4.919599 
-26.061872 0.086522 0.973707 
21.510113 -11.939641 10.337749 
1.910952 31.222393 12.498699 
-7.095796 22.691053 9.629992 
32.431816 -11.964428 8.467270 
-16.403769 7.930975 -1.422056 
3.134332 29.306877 -4.604926 
-17.860380 -10.968783 -5.272094 
-16.899679 18.005413 8.316521 
22.136051 16.710102 7.429435 
-28.250504 -18.736292 9.626334 
19.504702 3.239001 13.336996 
-21.181776 -18.676989 -6.336915 
25.714951 1.580854 6.530099 
-20.763166 -15.851814 -1.493696 
-26.792156 -7.615723 1.190044 
-23.778086 -5.831316 -3.353290 
-28.942127 -8.260653 6.342387 
23.540375 -1.946982 3.903422 
17.054646 0.518913 -4.446774 
29.329182 9.811415 9.630790 
24.812670 -16.077240 12.523886 
9.039417 27.364891 11.729782 
21.144716 21.426889 2.957804 
-25.201954 -0.568774 -3.381428 
-19.732447 -16.576668 2.237395 
23.403652 2.259455 8.903508 
19.218410 10.309791 1.351594 
-19.350084 9.634631 -3.693666 
-30.296564 -11.602588 11.062409 
-21.527607 -7.990552 9.717418 
15.999604 5.794199 -5.512150 
15.724758 26.292858 11.375998 
-17.756645 -4.044086 2.187337 
13.310884 12.208895 -8.272382 
-7.360010 17.946665 -6.858333 
16.195320 27.293240 13.388518 
2.497355 21.278502 -4.093449 
-27.678673 -5.282967 8.412282 
-22.029741 15.651340 -2.971452 
-30.711300 -6.551793 9.470590 
5.635679 19.385845 -8.783673 
-6.756341 28.010256 4.444205 
-18.913612 -13.664976 10.971210 
14.471764 23.824066 5.697975 
22.230539 0.618885 -3.935482 
21.198341 -8.771325 3.178210 
21.822571 -15.115314 -1.355992 
20.993252 23.833807 12.933811 
20.031279 23.468470 9.066622 
21.509697 22.891708 14.804857 
-26.815012 -0.636696 0.099173 
17.527288 12.390229 9.079359 
29.665234 -7.326665 8.955588 
-16.056705 -2.732882 -4.553579 
24.033998 -8.600450 10.299633 
-15.944807 24.214560 -0.151235 
20.713219 21.184309 11.556118 
-29.710613 -17.142153 9.851237 
28.483086 -18.906067 10.092918 
-16.011919 12.475431 2.255815 
-25.377132 12.009768 6.388659 
22.095964 -3.145081 2.124934 
-19.610048 1.916190 -2.570400 
25.870834 5.713526 2.748707 
10.339453 17.433876 -3.645436 
2.590266 26.655632 3.739632 
19.143291 0.566494 2.636668 
27.055574 10.219647 8.301852 
-24.814281 5.153790 -2.928404 
25.469988 13.451026 1.995094 
2.380487 28.647369 -1.738624 
20.890093 -15.042698 10.726116 
-18.031485 18.789036 1.589279 
18.876408 10.276878 8.790726 
-22.201593 14.836673 -3.366895 
0.909589 30.680418 14.169056 
-17.063118 -2.404167 -2.696621 
25.236692 18.203384 10.509401 
-23.283707 -4.497845 4.202899 
27.895416 -17.212061 9.991749 
-11.564528 22.785406 8.080593 
28.314507 0.765420 6.445919 
20.470884 -1.858193 6.683520 
17.022383 -0.632944 -1.449162 
23.095577 -8.998519 1.949726 
-20.276554 -15.504565 7.707661 
-29.183102 -5.841053 5.798018 
23.238226 2.019514 5.065431 
-3.341496 27.589949 -9.368937 
4.551936 27.540089 11.900714 
30.677755 4.626769 7.638228 
21.740578 -16.719973 12.615699 
-16.816444 -6.328015 -4.446894 
-22.108850 -7.384788 2.612281 
-27.819124 -11.899490 4.644174 
21.071541 -4.125245 11.141095 
-3.594196 21.996128 12.284216 
10.548241 31.171009 4.259099 
-28.743280 -5.981104 9.901896 
20.834547 -8.536968 2.385508 
23.961546 -1.259261 4.135222 
21.466614 -17.002399 1.457290 
2.138814 22.357485 -1.397348 
7.168124 30.875780 13.028107 
-4.134505 25.054525 -1.884986 
26.723301 4.837281 -3.174554 
27.467640 8.586179 6.550610 
-15.828375 25.689117 14.101366 
17.011505 -1.020632 -2.801786 
-13.691382 21.905907 7.641275 
3.628268 22.373531 12.338501 
-12.016053 25.964460 5.472699 
24.596268 -17.398411 -0.287952 
-28.350790 -3.924745 10.414503 
-27.251680 3.970566 4.529189 
13.652006 29.024244 9.910047 
4.336357 27.893923 -0.636339 
15.851918 13.104526 -0.764125 
23.153643 15.549646 -1.435506 
-21.613092 9.818609 6.788512 
-18.208836 -11.195644 0.899828 
-24.334551 6.583944 2.338341 
15.709013 13.922829 1.598873 
-22.193644 8.978065 5.191811 
26.178890 8.511320 -7.016123 
-0.930358 24.499458 0.171053 
16.306797 23.843840 -9.040704 
27.514580 -16.437424 12.662625 
23.993294 -0.410402 -3.867964 
-22.329103 -0.185202 10.537591 
-31.277935 -8.641164 14.434094 
-23.802549 2.891868 6.767850 
-28.398922 -3.950701 -7.352561 
16.294428 27.433750 12.171566 
10.053458 25.005213 -3.257800 
23.167944 -10.426499 4.095629 
-1.379251 29.764532 -2.406765 
-2.246837 29.877209 4.748229 
-19.482450 9.587504 9.907717 
-27.851015 4.938604 4.606699 
3.556381 21.569395 14.823403 
29.056145 -9.216984 3.001904 
-16.839252 12.833702 2.544920 
19.912977 9.179736 9.790826 
33.330311 -13.537923 12.025500 
1.168212 20.808704 -7.090889 
13.282821 22.365835 9.574995 
-27.943905 -2.225543 8.398953 
30.379816 4.602378 5.729260 
24.820391 1.869037 -1.079665 
24.207315 -17.491701 9.140901 
-12.609647 11.848823 -3.519413 
17.402025 -0.681695 1.004206 
-27.454151 9.778214 12.072163 
-21.296858 -0.051067 -4.662001 
15.197699 25.920893 -3.716981 
25.411137 2.525759 7.092026 
20.479668 17.045218 -3.371473 
-19.350574 10.196832 4.248542 
-7.417681 29.294693 14.111137 
-14.034695 26.157114 8.434270 
1.830359 28.368828 -0.775970 
-22.657196 5.596523 -0.169894 
-2.612977 29.177776 12.510836 
22.692186 5.617256 9.526392 
24.584375 -20.235268 10.037014 
23.581173 -8.877856 9.178426 
21.969219 11.178566 0.317521 
-19.648811 0.719468 2.474664 
1.268698 26.957270 -0.513939 
-5.907304 18.883009 -7.170154 
-14.632032 23.353176 -1.300201 
-21.606998 20.171539 14.856407 
-22.710266 -11.679772 1.252440 
-10.600643 23.790716 8.652430 
-17.411674 24.829508 8.551611 
-24.856421 13.037650 4.669979 
15.911599 25.795919 -3.322931 
28.009575 -8.437235 6.811536 
24.779467 1.935713 8.873276 
11.415984 26.342220 5.614894 
23.275473 6.683638 4.107704 
18.201281 22.188332 -1.209557 
-14.967570 26.151354 14.092607 
16.339840 9.618030 -1.642115 
31.766050 -9.780730 8.250844 
-23.128765 11.309088 -6.839805 
-21.436855 16.146551 9.064858 
20.672224 4.479072 8.328438 
31.509336 -11.980614 -2.314511 
-29.419064 -7.810089 -0.767645 
29.962944 -18.244875 8.325016 
-16.658005 -2.768135 -7.385793 
-6.492711 27.644756 7.103492 
-15.950510 11.856524 7.993745 
28.591543 -0.059353 -6.291450 
24.336939 13.355820 -6.839614 
-5.871100 18.676842 -8.781274 
22.817295 14.978116 7.085883 
-31.125713 -16.143291 13.415767 
-20.822226 18.329508 -4.055067 
3.937556 29.189564 3.524838 
24.148811 10.417048 0.693683 
13.691987 20.649078 8.609621 
-25.325312 4.321887 -3.872084 
9.436207 22.455364 -0.161396 
32.799335 -13.377991 11.177898 
30.267210 -8.434771 -2.259810 
-17.468796 10.538973 4.618059 
21.586668 19.012566 -7.189972 
1.834220 31.144955 9.468921 
6.500635 26.589752 2.193291 
-0.245335 22.049143 13.521317 
-3.854669 29.281443 12.472730 
8.297551 28.025902 -0.103903 
6.499571 19.346281 -6.266750 
25.321962 6.836533 -0.259926 
15.648291 25.959047 -1.987511 
-17.477337 4.249989 1.062469 
-29.171078 4.150425 9.151320 
-18.595617 19.613983 6.122038 
-9.969695 24.422300 1.883672 
-25.094902 5.183310 -3.910947 
25.452969 7.352300 0.408529 
-29.216036 -18.532856 12.065163 
-19.921295 -11.490549 8.265151 
-20.923492 -18.535833 -4.265378 
31.072523 4.363155 13.284939 
-28.390606 2.213284 6.641658 
19.534357 11.521605 10.039499 
-30.993488 -6.480093 10.254436 
-24.395248 -6.501572 -1.472928 
18.552208 -0.874504 3.801782 
-15.779337 23.129183 -3.213609 
1.959456 27.144035 0.066020 
-23.490086 -15.949644 5.733012 
18.879414 7.603561 -2.831701 
21.358673 -7.284398 -0.453948 
-5.030026 31.880207 3.276540 
-30.887470 -11.939232 -4.044505 
21.986902 4.468181 -0.465872 
10.270168 24.926453 -0.028290 
-3.764745 24.376421 0.124863 
21.112026 -1.111470 9.979160 
-13.900111 26.267462 14.933493 
1.721717 28.632191 1.589056 
-8.140503 27.125069 11.683017 
11.245303 18.579956 13.386011 
-5.758133 27.544012 4.913869 
-14.636889 5.810505 -5.569160 
-14.783601 16.264610 0.699984 
-25.399555 12.056674 9.280210 
-22.794462 17.245871 8.786333 
2.437658 21.021370 -5.102698 
-24.097445 -16.558563 1.615744 
17.921005 22.345968 8.534472 
24.271236 14.061352 2.501525 
3.358306 28.839613 7.550566 
-15.754627 9.800345 0.445985 
13.932171 25.484852 11.735311 
20.506454 9.001542 -4.418199 
-19.108860 23.648457 13.872339 
22.533104 4.392150 -1.623344 
-30.221088 -8.107381 -3.899984 
-21.931829 15.615925 -4.744833 
-24.561424 -15.983995 6.406296 
10.632571 27.231827 -6.738894 
30.510927 2.703183 7.191294 
32.633080 -14.493525 11.382179 
-12.381096 21.092642 -0.854791 
26.894928 5.767001 -4.431518 
23.073376 21.649168 13.346170 
-19.277767 18.692930 8.352942 
-2.871274 30.480780 3.286820 
-8.050932 18.698078 14.804375 
15.748980 19.111233 2.477872 
19.120075 18.725462 8.644888 
-27.498875 -13.680155 6.145796 
-25.297441 -0.682877 3.468722 
-18.902697 4.425842 2.909799 
13.428015 21.762743 -0.481066 
-30.419662 -9.507636 -6.987919 
-16.757668 21.510977 -0.737552 
27.129063 -7.900230 5.446868 
-7.277460 22.911844 1.503123 
20.610382 -13.817167 11.501812 
-30.029192 0.714173 13.251045 
24.957022 -1.121140 4.531140 
30.645088 -17.784264 6.947343 
26.457150 15.669631 14.683033 
-19.667837 21.235468 10.786156 
-19.636053 11.674634 1.281429 
6.433115 23.681429 -2.398506 
19.908985 -12.043364 0.286420 
23.773472 13.917450 -8.345891 
-23.213581 -13.224216 1.798179 
23.819002 1.721710 -3.414373 
26.189222 16.667463 13.492077 
4.122330 27.524345 5.627122 
-9.398960 28.956997 4.374489 
-29.102470 -0.330918 5.943451 
24.978069 -6.966064 3.096800 
-21.724392 -10.801499 3.522947 
-13.675903 25.694546 -4.844357 
-21.613008 -7.641844 1.969279 
18.548988 1.279257 2.413873 
-24.505009 -17.805639 3.839335 
24.550745 6.849621 10.097171 
31.227558 -13.585554 6.419850 
6.764949 25.251905 2.679291 
18.947374 -7.976635 -6.896917 
-27.661228 -18.242355 8.476038 
-1.106020 24.140684 8.869237 
-27.660122 8.663290 8.589311 
24.229753 -7.195962 11.356053 
17.537266 9.951944 10.146397 
27.334408 11.819562 4.845808 
-25.502569 2.351740 5.285825 
3.895301 21.469477 -2.970593 
20.410969 23.088228 8.304747 
11.458138 25.068085 5.130063 
-22.321514 -7.575062 7.995564 
-25.839561 1.491283 -2.437946 
-29.620436 2.468812 13.155969 
17.452761 0.436762 -1.181534 
31.226307 -11.372359 5.522875 
26.772825 -16.373423 6.488905 
-21.456200 1.006957 6.394502 
-16.391998 21.841942 5.303845 
21.769112 14.838944 -1.271773 
-24.714497 2.542482 8.223055 
26.144033 7.413137 6.795343 
-13.919695 17.671202 1.206541 
11.053455 16.320934 -4.617056 
-20.588350 -16.449680 4.570285 
16.415497 11.464003 14.640084 
-22.430620 13.944856 -5.350560 
22.137224 7.784637 -1.382802 
-20.601494 -17.689240 8.208254 
-6.917784 27.888691 -1.202381 
22.208982 21.619036 5.499497 
4.073826 30.137367 14.954094 
30.993183 -14.405919 5.665114 
29.093092 -16.499727 1.186250 
28.748402 -7.008237 7.665006 
10.049434 26.243299 -1.094751 
20.779978 -7.223045 14.343144 
27.190783 -9.380522 1.875751 
-18.613235 9.698844 -0.135721 
-18.988081 4.256318 6.689264 
15.628090 7.023782 -6.438883 
-21.248407 2.559195 6.253309 
-6.683637 28.749218 9.982731 
23.871696 1.599313 6.433695 
