-7.909845 27.201979 18.590075 
13.904003 21.150221 0.089155 
-17.754810 6.769851 2.877677 
-13.358204 13.439392 -5.717046 
-15.207812 14.535337 0.838123 
24.586609 -20.685219 4.438820 
30.014200 -12.989500 16.321934 
20.044104 15.375022 6.166957 
-24.900944 -0.145770 -1.163389 
-24.060358 15.845811 10.429701 
24.429308 -8.867987 -1.586600 
16.431868 10.375834 13.267666 
26.956652 -12.335528 0.312761 
-15.089787 22.694532 -3.055211 
27.821222 -7.483856 -0.596055 
-22.784174 8.528314 7.298347 
-17.117632 14.497023 5.424021 
13.751653 17.298964 1.435265 
6.656255 18.996843 -3.392592 
23.446405 -15.986595 -0.366397 
-8.431562 22.741047 12.687758 
23.054083 1.645129 14.298324 
24.428442 -17.918722 8.271040 
23.572165 13.389856 6.417073 
16.334391 23.446392 7.785759 
21.432068 -9.440160 -0.781721 
20.965750 -11.103392 -3.715333 
20.812361 1.248182 5.837316 
-5.495135 25.151644 4.961013 
-15.454531 10.591639 13.113659 
8.394740 25.748890 6.317520 
-22.626087 8.910517 -1.114677 
-23.042545 9.626513 11.189905 
-17.741163 7.222018 4.088874 
-10.733925 20.230375 1.092594 
-29.004457 1.241540 -1.406708 
-24.161770 7.286249 -0.036359 
-10.916133 25.357990 0.979386 
18.345217 -2.654490 11.942873 
-25.319656 3.824224 15.344786 
-22.605976 -0.567860 1.070590 
-1.895343 24.499643 6.103034 
-25.577076 1.013687 11.172117 
-25.664642 -0.093319 6.211262 
-20.238827 16.265450 6.040611 
-0.290324 27.221506 0.153030 
-20.476385 -0.315576 14.844333 
24.527058 -20.470095 -4.272248 
14.341961 20.259550 14.416074 
11.706977 18.402178 -1.205814 
5.683184 26.838125 -3.205056 
-22.905371 14.198627 4.675820 
10.446966 16.313730 -4.288994 
5.667240 21.424206 -0.975922 
-28.235765 -5.246715 6.949041 
1.670312 27.745901 8.148039 
5.543581 21.835711 11.686427 
31.291559 -16.215525 6.938333 
9.137092 28.819477 10.688644 
-22.247232 0.175719 13.837110 
2.974126 28.109571 7.022711 
21.677408 -2.015898 4.402419 
-2.718299 27.941713 18.338898 
-25.437733 1.786401 12.415847 
14.612600 19.748602 13.694749 
19.111500 3.451311 0.116519 
0.543682 27.265903 -1.802540 
13.984021 16.391428 -0.100200 
-18.123865 9.337131 6.090982 
17.828178 3.105777 -1.591146 
-21.793238 -7.637943 0.071931 
-17.711002 26.580267 12.623256 
21.439764 -16.901506 9.090336 
18.591167 -2.432349 -1.993610 
29.986286 -12.608067 11.961864 
18.065962 19.695904 -2.135578 
24.672987 -2.260675 10.986706 
27.065405 -15.345435 11.402197 
24.830524 12.816373 7.828017 
11.991492 21.811367 5.089055 
17.908497 0.955669 11.639813 
-2.655607 20.374771 -3.203674 
5.094391 25.667873 6.684798 
4.540711 23.173119 11.167149 
-22.124058 11.964396 7.673044 
21.326994 13.687409 7.973807 
7.401539 24.951221 15.138606 
-23.361277 9.016592 3.080494 
-11.620645 16.122284 -3.093417 
14.222247 18.340073 5.933082 
25.172020 1.135374 10.461323 
24.101587 -11.832253 5.234773 
-20.722681 4.950080 -2.204301 
20.119606 1.169421 6.375993 
32.364727 -13.589343 -4.633936 
23.115587 8.057457 -0.327752 
18.154526 14.993044 0.528233 
-20.834040 -7.986500 6.028340 
-27.272774 3.641369 11.251233 
11.843287 27.079863 8.079154 
-18.588184 20.803570 3.534356 
-20.816650 -8.254322 3.664806 
-3.061086 27.753572 2.551219 
-21.576193 14.387074 14.737166 
21.446840 -8.887753 12.036373 
28.710005 -9.054312 0.552401 
-23.645441 13.583046 1.128863 
-25.537451 -8.334894 6.989167 
19.097155 -5.300988 2.006560 
-11.701921 21.267414 11.688560 
6.341970 19.948286 -0.786432 
-19.537739 18.249109 -1.862609 
21.399254 -1.472502 0.972171 
20.126919 -9.920644 1.874111 
-11.116513 22.768927 16.718540 
9.218020 20.091867 12.606225 
-14.508594 21.302940 12.914808 
-1.220727 30.001675 6.088573 
-4.177748 22.067467 1.606960 
21.260254 -7.591583 12.613647 
8.626408 24.200384 -2.109879 
-15.853786 17.983011 0.046534 
-24.110220 10.121058 1.047553 
-25.688406 -9.977404 6.847828 
8.399292 19.245493 -0.358677 
-21.151575 -7.087235 2.384461 
-19.394503 0.841299 -2.239435 
-8.379440 29.620657 9.720206 
-24.760031 11.413889 2.404145 
-25.551991 4.319196 6.873081 
-23.444725 0.064826 8.913079 
31.726725 -18.934687 3.134588 
8.293268 29.992308 9.638288 
-15.140052 26.949186 14.994942 
9.519292 22.912287 1.010522 
-16.330524 20.660795 3.958050 
-11.828154 25.043451 1.821176 
17.070208 2.120017 12.140999 
12.207829 19.769053 -2.345635 
28.650856 -19.061831 4.820871 
22.615774 -9.039838 5.113607 
26.808367 1.707227 10.526756 
-13.487645 17.609077 9.294606 
-2.254349 26.036091 14.144597 
23.315056 1.205984 -1.726815 
28.743368 -15.004332 6.912044 
-17.525639 27.732094 7.778603 
16.813974 20.671019 6.547373 
1.214985 26.043509 9.535069 
-12.995267 19.071777 2.540492 
-9.498263 26.832260 14.849523 
20.846027 -6.509077 -1.887980 
20.449194 14.833183 6.623386 
-21.086903 1.156880 10.608750 
7.067474 26.905781 0.696807 
22.915201 -17.354162 -4.413260 
-17.596916 12.124372 13.699524 
-17.331303 4.746946 -2.741982 
21.234432 -3.387766 10.567598 
21.583960 16.860878 -4.786989 
-4.699199 26.075108 4.888743 
-17.323965 16.685200 8.316895 
-19.019102 20.056273 6.417901 
-11.894898 25.869627 12.818403 
-24.004980 12.845223 -2.633405 
-20.274000 9.830273 9.476323 
21.486998 -1.809434 2.841689 
20.744596 9.436761 0.367922 
28.725166 -4.761064 12.954199 
22.035215 16.646488 -1.455605 
-6.922883 21.558979 1.847931 
29.214546 -18.541004 0.552637 
8.385132 22.621378 11.150884 
26.769455 3.305375 13.623193 
-24.266884 16.148657 8.591313 
-19.851868 1.154253 5.492402 
18.609627 13.597528 0.163937 
-25.017029 11.295729 18.484774 
-22.117939 -10.166426 7.267731 
29.594223 -10.011284 7.916616 
28.919020 -1.311829 -3.738764 
1.020985 26.067059 15.107751 
32.610100 -18.631458 -4.395326 
-13.768291 26.169380 13.651442 
-13.598303 25.558369 18.394857 
-26.834318 8.692791 7.370728 
-10.587828 23.758987 2.944641 
-20.708557 -3.279321 3.864205 
-6.113472 25.884996 1.769348 
-9.049552 21.621084 12.649780 
-18.657539 7.839220 10.594791 
-7.661987 20.986012 -2.373899 
-27.440002 1.759219 2.586165 
28.451050 -2.915365 13.137684 
28.153357 0.223338 11.679637 
-23.930359 14.958616 12.569368 
-5.578229 25.172005 3.114570 
-28.948719 -2.583128 2.751086 
29.322227 -20.544161 6.652904 
-3.670114 21.648176 0.332430 
23.502146 10.455439 11.432647 
-27.435606 2.899851 13.446709 
-20.240362 11.828242 -2.338484 
26.469673 -22.289913 2.770350 
16.904467 10.736889 3.876209 
-16.204271 18.229261 5.401262 
28.695097 0.816347 14.115052 
28.138882 3.403925 15.710488 
-24.832958 11.066231 6.997511 
20.213936 -3.016193 4.449615 
-4.132136 26.978928 11.335252 
20.719120 11.204450 7.497672 
7.083808 25.666157 12.572494 
26.465683 -10.514791 12.916477 
-23.142740 -1.586172 1.995701 
-17.169420 10.592814 8.834224 
-25.651096 10.005177 18.391277 
23.857697 1.892779 14.375929 
17.943321 20.740072 12.606410 
-23.884964 13.685015 2.337823 
18.556900 14.214604 10.609050 
25.057127 -17.492441 11.240391 
-10.178495 17.138182 -3.956536 
-26.494621 8.921411 16.498796 
20.442062 15.282073 8.434813 
-20.340939 14.708465 0.121301 
17.860922 9.628975 5.248111 
-19.502443 13.182978 0.805623 
28.820015 -5.398845 12.334885 
20.604050 1.585436 13.943717 
-16.198566 5.770313 14.930905 
19.891972 -4.610238 6.195374 
-16.581209 22.382648 2.824399 
23.325144 11.223824 15.297750 
18.836054 -3.316314 11.095162 
27.795006 3.388036 10.805614 
-23.430387 13.306771 0.330082 
-20.800800 2.956730 5.609241 
-27.982086 -9.471581 7.750336 
25.352070 -18.980972 6.131141 
24.955446 -1.480581 3.872063 
21.339064 -12.036771 5.146872 
-18.592831 17.460539 11.787953 
23.737381 10.836389 13.666749 
18.600864 -1.581457 0.209127 
-24.797255 1.034925 9.537922 
23.188925 -11.454416 1.127851 
-18.274549 22.901495 16.989134 
22.352421 8.629734 13.000703 
16.193113 4.932724 14.303602 
-13.117804 14.494314 -2.549911 
15.197485 20.752584 14.750084 
21.740829 16.433357 13.842409 
28.873262 -9.645759 2.248196 
21.650230 -10.598739 4.936935 
-6.377193 27.864748 17.730267 
25.420410 -4.618557 0.951966 
17.759226 11.300201 -1.215427 
16.420004 22.339203 -5.201825 
-17.177738 5.498257 -3.919952 
-4.113611 24.899328 13.603253 
-20.735456 17.225540 9.538164 
-21.867901 7.538639 0.461080 
-27.508123 -8.303494 2.953985 
-5.169503 24.481190 -0.863008 
25.208220 0.359512 10.818478 
24.077482 -0.222910 6.832611 
1.770599 27.084579 8.773228 
18.146467 6.368345 -0.591514 
-26.253342 1.452458 17.749983 
-1.837251 24.959110 -1.718739 
-18.141949 17.727182 6.913439 
22.080614 5.782342 6.902620 
-3.805928 26.710382 0.020053 
20.252834 8.467654 1.585305 
19.204895 -6.763844 1.714958 
-30.961008 -7.526687 3.667323 
-18.700697 3.705127 -2.264360 
25.123465 7.446947 14.518634 
21.395052 -2.329845 0.827043 
-10.843485 21.443304 12.119364 
-19.745985 18.049860 6.716288 
-20.617943 -8.896869 5.033509 
-24.627779 15.407680 8.210241 
20.589766 -10.575042 1.994720 
11.321572 17.330576 0.318510 
-27.231323 2.718504 15.609610 
30.221575 -7.926001 14.532810 
24.535656 5.843093 -1.469316 
-21.964762 -3.707635 3.677734 
8.124133 21.227947 11.894604 
30.082926 -5.936788 15.017417 
22.448961 -0.624908 -1.380400 
28.857901 -17.002525 7.014738 
23.334946 -2.343083 13.628410 
26.368273 -17.688982 9.083078 
21.428421 -12.853198 0.109092 
-19.222353 -0.031111 11.253089 
-1.314895 21.750008 14.777637 
-10.512990 25.227415 13.392273 
16.506426 5.036453 -0.848265 
-12.588332 20.946697 13.481936 
23.708073 -9.354761 9.719125 
27.794518 4.660403 9.824155 
-23.839458 14.152786 17.115496 
24.433449 9.026381 11.283495 
29.163900 -9.734023 7.034578 
24.391041 13.509734 4.105249 
-21.928455 8.243020 3.744407 
17.937647 -1.329524 12.035866 
-22.628326 12.250434 -2.101351 
18.882786 4.859279 11.529125 
-18.511833 6.946777 5.505992 
-9.480268 26.763935 13.492191 
18.324448 0.171375 11.867152 
-12.439568 16.058235 14.181009 
-15.359697 10.192210 -5.553849 
11.659251 27.397831 8.840323 
-19.280212 15.805954 6.560454 
29.358315 -2.650735 9.541656 
-22.525866 -11.444429 0.845688 
-18.385574 12.407795 2.451734 
27.429525 0.283584 10.569901 
13.539030 12.839119 -4.003849 
-16.769396 22.877119 16.396000 
-7.040509 25.775518 -5.179182 
29.821808 -11.356735 9.336810 
16.270060 22.026176 -6.256005 
-12.856606 25.156673 -1.436687 
-17.858662 2.143779 16.549469 
17.329847 6.587784 1.183529 
26.392174 -1.695955 11.180694 
29.545378 -4.918931 1.980362 
-20.554895 17.332506 8.729828 
-22.096064 17.481554 8.493230 
-15.644435 9.618990 13.591311 
-9.674344 21.799639 1.494904 
31.346161 -18.991928 2.302166 
-22.670660 3.490807 6.311340 
-31.386990 -3.902377 -0.033531 
-0.223297 22.242037 0.087184 
11.060854 21.304329 -2.796969 
27.903152 -6.819438 2.296898 
-2.480322 21.376453 17.222412 
-10.288997 17.307531 -3.121891 
16.987444 13.649190 5.337397 
23.872923 -5.035728 -1.991207 
-2.378620 27.617643 4.361218 
29.245737 -2.121782 -2.602349 
28.536583 -4.525640 -0.004603 
-20.388901 -5.889310 0.451358 
3.619446 25.734472 14.213659 
-0.005501 21.766850 -0.549806 
19.612217 -11.409909 10.280061 
-25.456684 -11.039103 3.594444 
31.594238 -15.508216 1.946182 
-11.006383 25.318687 11.351116 
23.763872 -11.456175 9.904204 
21.862675 -13.289607 1.279483 
-25.333603 6.690293 -0.273815 
24.151585 -11.330483 5.837544 
-21.804094 -0.949157 6.208783 
-22.791908 -11.166773 1.910505 
22.785852 -16.486654 1.187905 
-29.781027 -0.854680 -0.814500 
-16.647017 22.331905 11.181853 
-21.794426 16.286932 11.930047 
-26.255999 4.817430 4.560122 
-12.766748 24.670906 16.424934 
-19.608747 16.564297 6.718169 
-16.247200 13.524483 -2.149292 
19.108152 -10.355471 12.055686 
23.173531 -19.001528 1.828305 
19.087660 -8.713953 3.703854 
22.277796 -3.038398 -1.495871 
1.504067 20.467571 -3.322171 
-23.116291 -2.881392 2.441205 
-22.424284 -0.171233 7.049047 
19.680185 16.624132 12.984311 
-24.634630 14.872929 8.970691 
18.848034 -1.559900 4.458920 
8.650222 26.335552 0.467559 
-21.139267 16.298204 2.318921 
10.736009 23.340101 -2.129154 
11.662173 23.304033 15.731311 
-1.910605 21.260031 19.096910 
2.580887 25.230360 14.495603 
28.790657 -6.229263 6.003427 
23.042551 -14.812236 0.411747 
-32.208813 -7.483484 -0.517447 
-14.587965 20.594280 6.133636 
24.944187 5.110541 6.136064 
12.725823 21.645905 9.311739 
-3.287035 26.469261 -4.460493 
-1.965692 29.765469 6.012622 
-27.549047 4.283766 15.239023 
18.581388 0.412892 12.794806 
22.161968 7.841784 14.395024 
29.625187 -17.185127 0.446665 
20.671051 8.798150 6.071547 
11.040811 26.861786 10.140057 
-0.944943 26.977722 5.509772 
-16.302511 1.298205 4.305765 
31.920168 -11.044217 1.432654 
-32.001930 -8.928768 -2.500600 
-25.958498 10.904439 8.044308 
20.063351 7.735420 13.399750 
-26.658974 5.586195 3.870999 
30.132807 -11.591765 12.759154 
32.655289 -18.528568 3.936713 
26.814102 -5.606178 13.861268 
-22.193363 9.462957 -1.945240 
15.189393 23.246386 -1.443135 
-4.139475 29.175360 9.081978 
13.329546 21.280270 6.272881 
26.546030 0.580298 2.199837 
-22.708862 11.819703 -0.348061 
22.563574 -16.305105 6.096395 
-13.201694 22.763872 5.803084 
25.718246 7.658402 1.209446 
12.321488 13.435318 18.421127 
-6.877035 26.332872 8.985371 
18.085875 0.737966 -5.252014 
16.557470 6.785909 2.874262 
-27.251556 -9.316803 7.525690 
19.238546 13.638199 -0.712585 
26.065292 -18.227545 -0.351108 
27.842379 -19.059280 0.196035 
-19.366623 -2.732818 -3.775228 
21.636173 -14.251163 -3.425407 
-18.059231 10.471543 -0.279887 
-19.755491 11.948277 -1.608807 
19.214773 -1.480091 3.067768 
24.739470 0.297130 9.671105 
5.771910 22.323355 -1.825312 
15.846946 15.323364 4.493027 
22.453856 14.765465 18.460375 
20.360096 8.360807 11.301733 
17.024721 13.040530 9.046715 
16.958260 22.761541 15.062714 
-12.591882 23.131525 5.401102 
-16.099190 20.457209 3.215702 
-11.401493 25.091988 13.684982 
-20.484722 0.290079 6.947171 
23.803295 -9.470572 -1.445867 
5.582247 26.171228 -5.197418 
30.146069 -10.973168 7.909820 
-22.823839 -3.065700 5.576064 
12.732910 23.604212 13.788931 
32.459316 -12.176069 0.243715 
22.751274 -0.887147 8.267344 
17.882948 18.663010 6.966932 
-8.235325 24.362284 -3.714187 
12.024196 20.789146 14.565060 
25.055002 9.733390 18.065254 
7.334104 28.456177 6.779958 
-26.986309 7.822044 12.660060 
16.825138 7.851467 1.077310 
-26.203381 -10.798251 4.421552 
12.445279 27.483255 8.475509 
9.327856 24.280996 1.210648 
20.521009 7.797809 14.080492 
20.186005 0.553058 13.436521 
7.733730 23.754192 -2.794428 
22.955353 -1.675464 5.217999 
32.730331 -13.375538 -1.198447 
32.001122 -17.057615 2.426715 
24.967674 -15.196346 5.292747 
22.891403 8.842384 12.367319 
26.049601 6.142201 7.106200 
27.795553 -7.548852 11.611959 
-5.505297 26.405779 6.588214 
30.144226 -11.935346 15.496367 
-22.981083 13.459413 14.571634 
14.870549 11.218213 -1.799721 
22.373062 -17.295418 -1.311117 
-19.313669 12.059801 11.656777 
15.903663 21.242283 14.490222 
-8.808434 28.355673 6.059609 
-23.740993 16.744823 7.783605 
21.277353 -1.636229 7.560971 
4.702489 26.478191 10.144197 
4.326492 20.123863 18.973656 
-19.909792 -0.765827 5.911775 
-14.743688 17.661434 10.966541 
29.221487 -16.524311 13.507556 
17.292759 22.354052 17.104023 
-19.644108 9.044866 -2.111325 
25.029755 9.648676 10.287355 
-22.045547 12.207807 6.935505 
23.618078 15.542603 9.714425 
17.189846 -0.274606 15.054570 
-17.673525 24.097448 8.414322 
-20.030231 22.625237 9.030324 
8.441908 29.683447 8.928433 
27.454132 3.286545 -4.351629 
-21.685223 -6.485101 6.779158 
15.345827 16.433195 -2.767347 
9.852925 22.559635 12.420075 
25.081228 -6.095935 13.842411 
-27.389366 0.739203 2.579177 
18.065876 9.451700 3.491733 
-25.798758 -2.215727 3.638651 
12.144388 14.553433 -4.491651 
23.249765 -4.546028 13.828592 
28.153440 -1.808538 0.971665 
-14.063516 20.618265 15.901737 
29.303360 -20.888815 2.342866 
-1.550692 24.070305 5.478990 
26.357180 -17.436089 -0.497395 
24.308960 -17.708246 10.301897 
-21.803705 14.324134 1.539922 
27.574850 -10.728085 1.823885 
-11.075699 21.216061 0.748725 
-18.625607 10.804296 13.516300 
-15.223499 20.436039 4.805976 
26.917910 -10.981895 3.561909 
-24.461336 -2.879934 2.224134 
-15.633950 9.740630 -4.327198 
-29.098690 1.280415 -2.462911 
-21.317181 -0.040203 6.877251 
26.363571 -2.129479 4.515584 
23.365580 -17.652069 10.176358 
-4.660054 27.224878 2.517098 
29.053862 -6.484275 7.208491 
-10.867146 28.760307 10.583697 
-18.623608 2.638683 -2.292737 
-3.906670 27.718340 2.400219 
25.597811 -15.529163 13.055149 
11.313675 26.181864 8.430694 
-23.825224 7.935576 4.538324 
1.908799 24.661238 2.028561 
25.201948 -13.108685 6.292025 
20.170494 -10.066957 10.269660 
26.226501 1.178974 11.216072 
25.541496 9.322673 -1.041773 
-12.124833 21.475056 -0.210971 
-16.473049 11.074546 10.449149 
-2.274574 26.585506 -4.319511 
16.742077 5.214122 -5.458872 
-26.822784 3.445125 -0.448235 
-9.913191 29.157248 10.923008 
19.043459 15.266680 -1.719955 
-24.301191 10.418539 1.965075 
15.364630 23.093264 0.189574 
29.679123 -19.072460 7.616745 
-14.648041 25.273205 4.501766 
-16.692127 15.778231 -3.185932 
22.648623 9.823254 13.189840 
-27.402084 -8.002108 7.651339 
-26.357712 5.985015 0.535328 
20.774584 0.066485 6.145658 
24.532200 12.521117 3.761665 
-0.818194 23.523069 12.955965 
24.266602 11.304911 18.188507 
-23.336657 1.338564 14.674140 
-17.337416 18.197126 6.405166 
23.341127 10.285196 1.689591 
25.756908 -0.441217 1.767893 
-16.783018 16.561478 5.448761 
16.925667 19.741680 6.780136 
-17.272673 23.343941 8.536202 
-23.752052 9.748756 0.348676 
-24.985830 -7.837192 6.361068 
21.129805 -3.472105 13.180204 
27.229340 -3.384151 -0.507085 
-3.630180 28.941751 11.816338 
-18.106836 24.257004 10.749976 
20.600565 7.624734 1.809702 
-17.504976 13.286431 4.236504 
-19.810694 19.805658 4.759124 
-10.592659 24.581804 0.936001 
-16.586662 22.447289 1.322030 
18.781200 21.045006 6.216670 
-20.493250 -0.087495 17.599152 
23.663710 12.334622 6.469893 
4.282668 26.120316 6.397237 
-15.571684 23.522644 -1.980965 
15.582867 22.085199 1.740123 
22.919651 -0.810784 11.095669 
-15.966480 23.215870 -3.674813 
-13.914270 22.496857 6.272824 
20.439995 16.079992 11.075335 
-7.246961 23.966242 3.731059 
-9.014529 22.597837 12.139364 
-10.851993 29.380123 8.252913 
16.642248 1.485981 13.449649 
-14.021173 21.369041 5.056250 
9.814487 18.223856 14.328951 
-0.458600 28.332907 6.200327 
-17.478142 16.346672 9.185678 
31.313482 -18.123051 6.200347 
-29.193485 -7.293301 7.466493 
23.314037 10.592666 0.680592 
-17.016558 14.580608 1.750163 
-13.606206 24.759851 -1.124274 
0.486441 26.749826 15.195282 
-6.864500 22.148741 2.421514 
21.969755 16.456078 15.571724 
19.245649 -14.486342 13.308195 
-11.793447 24.637060 9.490758 
19.456425 9.959528 15.010981 
-3.175107 27.094027 10.530664 
5.790215 26.785126 10.623697 
-14.575835 15.872780 1.444416 
-18.638023 1.729757 13.639658 
31.861528 -13.638437 3.765034 
27.565628 -22.326609 -0.680316 
19.658398 -0.643178 7.285708 
0.977467 26.785013 9.145943 
27.864464 -5.094666 13.767074 
-30.338728 -9.399807 5.460176 
28.717175 -16.308323 9.117941 
27.190802 -11.159369 13.090884 
-5.970232 25.984138 -5.050448 
-18.329586 -0.473163 -0.069166 
-16.003563 15.301855 5.540658 
-14.251744 16.786299 13.137275 
20.553604 12.999850 15.625749 
13.610423 22.834545 13.766305 
-17.512957 1.473205 1.093360 
7.193892 26.206530 6.821298 
16.496326 23.668907 14.449494 
-20.725737 -5.047425 4.334073 
22.034252 14.158631 1.239998 
-18.946964 19.234846 7.813949 
20.475534 -2.359417 9.618753 
12.743678 13.842512 -4.442155 
-1.818802 29.753330 10.612791 
24.893581 5.173957 6.999407 
13.145176 13.066976 -5.816309 
-29.999519 -0.867600 -2.000814 
-20.869743 -4.540175 4.941438 
20.424191 -0.658676 6.953418 
24.882372 -3.447638 6.955268 
18.850449 -3.409110 -2.023562 
7.593539 26.525494 14.731243 
-26.157051 0.504248 5.982699 
26.910076 1.538481 9.462310 
23.910055 11.443147 6.000338 
-24.810398 4.698388 15.513934 
-19.677448 8.087872 -0.452453 
-17.110950 13.291952 -2.103414 
24.494389 11.003665 8.168362 
29.045311 -4.411220 6.997412 
14.759377 13.647886 0.913964 
-15.376391 19.827587 3.140204 
-14.616007 28.789230 7.250014 
23.644188 9.405442 1.878523 
16.434299 2.075971 6.170167 
-27.301331 1.993443 0.123403 
-10.481562 22.461798 16.161036 
-23.891039 4.351098 6.442259 
-6.699158 28.878563 5.969305 
14.631700 10.450377 -5.698481 
-17.694851 27.632664 8.554305 
22.759113 -17.563673 9.427143 
-25.519428 5.156218 12.781719 
19.397017 13.502440 5.875494 
-22.718843 8.637404 4.759423 
17.115265 9.061754 11.973664 
18.921408 21.353481 2.145427 
-22.642582 5.874292 6.551589 
-28.504120 -12.399556 4.361985 
28.530058 -11.534380 5.803798 
-15.154323 27.219814 13.917212 
25.072653 10.891140 -3.268022 
19.209248 -4.583605 -3.104113 
-18.657864 15.968399 -3.296388 
-26.063911 1.857128 6.698875 
12.047310 14.452146 -5.877312 
-5.415021 26.949114 -0.179842 
-21.261288 17.117521 0.429562 
-20.014727 21.804316 6.713257 
9.691825 27.272596 12.614102 
14.785185 10.165693 14.008380 
-32.383553 -7.443934 -3.097687 
-2.593049 23.705364 4.134062 
-23.767134 -8.580492 1.515372 
13.945052 24.223848 6.940531 
13.864556 24.521864 -3.826166 
31.394775 -11.890797 3.752279 
17.554810 14.306441 10.517990 
-9.430099 21.308735 -2.242704 
22.910156 2.723903 14.584041 
-15.491216 28.570103 6.556738 
10.609966 22.134922 -2.745557 
26.371408 -3.776942 7.152480 
15.990470 23.141438 -2.794306 
6.015817 28.939116 9.605437 
-16.466583 4.158671 13.037544 
2.532953 30.314766 9.202580 
21.408564 11.172043 1.584533 
22.503338 -10.679084 9.405030 
24.633821 12.618608 13.172348 
19.791649 3.681995 14.183636 
11.111518 22.767693 15.247678 
7.528087 23.164631 0.555217 
-25.284462 7.112489 0.555127 
-26.803083 2.732499 17.849817 
-14.953376 25.074642 2.729345 
24.080513 14.378612 2.682624 
25.128098 -2.173244 13.792854 
11.308193 26.187138 11.683844 
29.826883 -4.918708 12.878820 
1.327374 30.616522 7.853135 
-3.217866 25.790367 -6.348942 
-4.182934 21.359575 15.821967 
21.591856 13.567706 13.150196 
19.029676 4.674896 4.966977 
9.894960 25.304897 4.079345 
19.402962 -10.262102 11.328228 
-8.907478 21.933905 -3.008754 
11.214058 20.760960 10.604018 
22.223019 -1.781396 12.999678 
16.788645 11.557590 3.579029 
-22.929585 -11.431315 2.979699 
26.734640 -17.172888 11.208611 
-26.078390 8.726196 13.098442 
-21.918768 8.415084 -0.324355 
31.958685 -15.448607 5.560835 
-4.259783 24.180172 13.187996 
-6.647034 22.757914 -2.786991 
-0.748753 21.241009 19.088476 
32.906528 -17.004879 3.596449 
14.686587 11.088840 -2.960040 
16.054594 14.354875 -1.057078 
-13.786359 16.378271 11.712119 
-20.287958 14.828132 0.903673 
6.956457 22.181297 -2.145907 
29.590872 -20.950415 3.722506 
17.965992 12.723671 13.954363 
-4.789181 27.365854 14.494530 
-17.759848 11.421572 6.816838 
-25.377871 9.208340 -1.043731 
7.167705 28.175119 14.650752 
-9.862655 22.946037 1.083123 
19.514090 -5.416775 7.308412 
18.905886 4.914256 0.536662 
-31.706833 -9.684221 -2.182826 
27.570141 4.066913 17.622814 
-2.600670 20.017117 -5.022027 
26.757915 5.383963 3.179425 
23.977833 -14.103328 -0.271143 
18.561703 -7.371452 14.845150 
-28.641636 -13.246453 -2.158330 
29.513773 -3.597332 0.989763 
13.777194 18.865704 5.341547 
-21.834688 -10.169753 -3.464082 
-21.447701 16.965267 -3.358816 
19.172300 2.814399 13.830319 
17.768185 19.525736 13.291205 
27.098518 -5.879006 5.986286 
17.013792 12.636085 6.068984 
-21.013535 -0.328875 13.075184 
-6.575851 25.826523 15.055383 
-23.765520 -3.339573 1.465985 
-10.930279 23.663378 16.289732 
25.587656 -10.267830 12.798413 
-19.705328 17.358963 13.404997 
-4.261928 24.121172 12.310132 
18.991526 -0.220813 7.878901 
23.344374 -15.855484 6.165330 
-8.202394 29.843943 7.561031 
13.560206 27.352232 10.757964 
-13.158154 15.887002 11.742687 
28.593845 -3.211928 2.717324 
-27.700445 4.396238 14.054445 
-16.026508 26.410416 15.280534 
25.784533 -14.286906 2.552172 
17.792707 10.953283 11.493046 
-22.938910 16.138653 15.815962 
-10.798404 17.867184 18.894625 
-16.843035 17.171467 -1.943855 
-1.680996 24.281712 10.368556 
17.079294 3.677719 8.104434 
-11.359466 23.076927 10.909698 
20.701601 17.393061 3.267340 
-16.988129 14.178146 3.383176 
26.141899 -18.813648 12.321144 
23.243860 -6.416744 11.083166 
-4.311589 25.700848 -6.339859 
23.577543 10.523788 4.303625 
-5.336885 29.370697 10.203425 
20.867823 15.155794 11.458483 
19.724857 -6.652039 -2.215415 
18.662436 11.988556 15.180722 
20.778753 18.874186 14.708940 
26.281235 -0.360761 10.584873 
-13.099178 15.914835 -0.335538 
3.069342 19.716715 -6.087959 
25.394081 8.839789 6.914846 
-17.941792 2.025896 -3.374964 
24.906734 12.223524 8.429886 
-27.120968 8.769640 9.134097 
10.879519 23.895554 11.834641 
10.246535 19.975986 2.268464 
-24.181194 12.171848 4.775475 
22.475229 15.732499 10.807110 
-16.957500 23.379265 14.640003 
-0.938265 30.303679 6.832696 
26.306074 1.056100 9.357976 
-19.208874 9.688198 9.632750 
-1.343859 22.288486 12.766356 
6.969252 22.040209 2.824600 
-18.075861 24.464258 11.529871 
-12.878162 23.602037 6.005628 
20.233683 -1.157487 12.537878 
8.182088 26.503937 13.271811 
26.720882 6.750695 16.893175 
29.091423 -20.088524 1.166866 
27.317387 -19.554441 3.642748 
22.557890 -17.374809 -2.669939 
-5.563856 24.614416 1.321718 
-25.761913 0.400590 13.152341 
20.930620 18.146706 2.199312 
-25.854414 0.881406 6.709713 
19.568489 20.433443 14.912233 
30.332302 -16.029396 7.541012 
-9.103417 20.123829 15.893599 
-23.153250 9.254348 -0.406590 
8.351248 19.309034 14.676568 
-27.394142 1.348235 1.698803 
-30.809361 -7.705696 4.627031 
-8.141039 27.376587 5.171810 
25.147896 7.124638 5.652977 
-7.578979 25.765713 -1.244105 
-17.775488 9.963458 0.527022 
-19.162510 4.536495 14.585837 
-19.312630 20.298723 1.645712 
20.134249 -15.594961 8.989487 
-16.843914 11.187137 8.399358 
20.621273 -11.040286 8.791731 
19.026821 21.177654 4.685977 
-21.751440 5.369725 15.401767 
-16.537998 0.754646 3.355978 
13.824287 21.443804 -2.822453 
-23.928246 6.836576 15.601956 
-20.304899 -5.129157 -4.803674 
20.635086 17.926884 4.590118 
-17.818346 23.468014 11.631578 
26.159027 7.181077 0.720625 
-4.007223 19.608547 -6.051587 
-15.368788 22.176140 10.337619 
-16.233576 5.923004 13.747143 
-24.704163 0.821383 -1.444313 
27.883881 3.180789 17.554104 
21.346619 17.604530 15.960617 
-12.478826 25.552284 8.816182 
-17.456015 3.441895 0.858635 
-10.495844 19.124706 16.254915 
17.470156 10.635211 14.510108 
2.410556 23.019634 11.838791 
28.679539 -11.352029 12.878029 
23.319904 4.769544 -1.972111 
25.194292 9.624045 7.065976 
-3.203636 24.286175 -2.775423 
23.738363 8.366275 1.184260 
29.305914 -1.569880 13.197129 
9.480098 27.135309 13.366538 
-8.823649 28.540827 13.314840 
5.031649 24.132385 0.690310 
-16.815275 20.570652 8.085688 
6.452089 26.517288 14.282817 
-27.959999 6.241783 8.846481 
-17.261524 21.251198 8.860352 
18.811750 20.887400 -1.741726 
27.947470 -19.863270 0.573272 
-18.028996 14.348911 5.161153 
-19.414852 7.597787 14.701982 
-5.978540 26.314470 8.270428 
-9.023407 20.354589 -0.883007 
12.301501 20.660557 -2.790421 
-23.800102 4.717825 -1.723135 
20.190882 16.683481 3.604450 
28.772116 -5.720726 -0.004188 
29.952911 -11.366377 11.885700 
6.800100 18.885799 18.865393 
6.842811 26.354492 9.659957 
26.279526 2.153548 5.110316 
19.205519 -7.735837 1.992216 
26.137503 -1.821567 6.319194 
-22.617487 -3.175987 3.367023 
-12.653529 19.752695 -2.150137 
21.533295 -10.308130 8.224548 
26.033426 1.360857 5.160766 
20.507950 -0.581433 1.252281 
7.397203 22.754110 -2.463456 
15.556118 6.640771 16.433977 
0.080823 28.191681 6.770609 
13.968918 19.473942 2.609540 
28.102068 -3.780976 -0.108286 
11.128828 19.933990 -2.309924 
6.184338 18.921057 -4.770198 
29.458363 -4.375719 11.007918 
24.585167 -13.680557 6.010664 
8.520166 26.629978 -2.025947 
15.283049 19.497026 11.762069 
-17.244066 28.068470 7.135992 
21.346327 -11.396107 5.583939 
-3.689522 28.610552 10.665055 
13.907351 24.729336 -2.599011 
-20.606964 18.233356 -3.392283 
-21.461912 -7.652843 1.711684 
17.736170 4.133254 -1.503298 
20.950556 -18.042946 10.738751 
16.971581 11.497194 6.399686 
26.267033 5.698618 4.420341 
18.391233 20.450592 18.913548 
23.179119 -10.059484 5.642568 
25.774338 8.954557 14.166680 
11.947606 25.890965 13.600652 
3.235176 20.514729 19.009706 
26.258488 3.034122 5.104609 
-21.418879 13.459694 0.707677 
-11.462062 18.812525 -0.642599 
-20.785442 12.519887 12.337391 
-9.550198 18.484049 -1.588817 
2.390948 23.664345 10.800993 
19.744635 12.193349 15.534328 
17.216337 22.957684 11.663912 
-21.947742 9.363438 13.642915 
5.782320 23.739462 10.236563 
28.757685 -1.883865 -0.041382 
29.534620 -8.037651 2.644291 
18.363108 -4.791553 17.010311 
13.150558 16.725395 2.105959 
17.600677 15.950791 6.210773 
27.309448 5.081673 6.853684 
23.376429 -1.121787 12.245405 
17.450874 2.901502 -5.352062 
21.285332 -18.344698 13.365388 
20.202650 8.966553 14.400137 
-17.532242 8.789159 3.689491 
-15.316134 14.462974 2.676704 
-15.085245 15.049815 0.166251 
-25.939751 -7.317071 -0.398908 
18.494408 9.382171 14.381111 
27.541903 -10.649228 4.063591 
8.652645 27.723982 15.083868 
18.894424 20.374941 -4.431299 
15.176932 18.020306 -2.779156 
-1.078215 26.841040 7.984828 
-15.669270 26.830406 6.137897 
28.369638 -10.228706 2.749878 
20.130478 13.744058 -1.453351 
20.583435 1.976639 6.123060 
-19.759100 21.697847 14.463118 
-27.590233 -2.230304 3.458073 
29.244858 -5.511870 2.926413 
1.484026 30.307655 9.516683 
27.907501 -10.185633 12.121914 
-21.888889 16.725670 12.563651 
-23.073538 -3.594566 6.358012 
18.473421 -6.543488 15.088762 
16.991049 23.762369 8.304853 
17.288260 22.412792 16.202684 
7.970548 20.244247 13.361989 
-12.410637 27.124361 16.134026 
-3.922382 26.734812 -3.430934 
7.665050 23.618681 3.946918 
-8.801433 23.798397 -3.676551 
-1.736167 26.848888 2.039489 
-22.296114 8.994411 6.282790 
13.312192 19.368641 13.131827 
30.030109 -8.629566 2.954637 
20.528763 19.633417 0.838427 
18.785372 21.487431 2.901338 
22.169472 9.517872 11.816721 
7.786985 26.832565 -1.685005 
18.167929 21.419456 16.983845 
-2.637220 23.110176 11.423660 
-10.183355 28.076973 12.744285 
13.175664 21.748608 -0.535594 
27.493568 -1.828007 13.095787 
6.367134 25.877882 -1.335813 
24.204895 -7.441825 -1.963489 
-0.700491 21.878799 14.026967 
-21.218258 16.795349 -4.943190 
-32.337669 -8.103234 -4.609188 
26.402649 9.084343 9.121791 
-22.957615 -12.711330 5.045112 
-15.831904 14.945539 -2.098695 
30.948971 -18.358253 1.677748 
24.026663 -2.532976 1.614615 
19.138964 13.931294 12.901181 
-15.397291 20.228659 0.794246 
10.731429 25.407471 2.549606 
-18.982330 11.988759 14.155849 
-26.614231 -7.181605 7.281927 
28.132666 -9.833076 4.517626 
20.986908 -8.954394 9.084864 
1.613005 21.699347 -0.370213 
24.624453 3.893203 -1.608647 
8.739574 24.643900 -1.363642 
31.768326 -19.974905 4.870560 
-27.480894 -6.299562 -0.020614 
-29.566004 -12.431702 0.051047 
29.454969 -2.355807 7.839163 
27.168657 -4.220204 11.781042 
-15.477852 15.026407 4.998396 
23.649393 -0.491958 8.293838 
20.076508 5.528238 5.201470 
5.537556 24.116686 1.923239 
-4.975528 19.761194 -3.388949 
-13.993463 20.827311 7.241888 
-23.342649 -0.743941 11.497341 
25.476158 2.580748 -1.199811 
-13.165456 22.022158 10.818587 
-9.325824 20.848701 0.173445 
17.520653 9.826664 14.228496 
-18.655659 16.515486 9.700329 
-15.365279 10.441595 14.794621 
27.331463 -10.191817 6.683894 
-1.953363 29.269840 11.447001 
8.198529 25.605806 7.145260 
29.356237 -2.226463 17.137493 
22.811472 15.703440 -0.753551 
19.656826 7.943636 10.539225 
20.139654 -11.637637 9.185904 
21.301523 -11.100983 3.790853 
26.749388 7.991094 10.449963 
-18.147936 13.690333 0.590441 
-0.659503 24.902657 10.776572 
-21.898918 17.873377 14.783764 
-6.968579 25.152842 14.949114 
-4.107644 29.082199 7.696104 
19.339054 -0.760615 8.369018 
26.875917 6.401020 7.298608 
17.907581 2.732920 13.262059 
8.215598 21.463905 0.807377 
-22.954983 6.190104 7.186368 
-12.904249 22.407404 5.012332 
7.000234 21.469492 -1.530666 
27.024561 -11.029149 5.784357 
26.732153 -8.634895 7.746374 
1.515764 24.002853 13.908500 
-23.777256 -0.124037 17.616186 
-22.148813 11.500518 -2.298600 
28.411911 -2.086207 12.389219 
18.204824 10.104392 11.412795 
-10.278549 26.179903 13.911245 
18.583618 9.732881 8.037848 
18.063189 0.813323 0.112589 
11.288698 26.630220 15.450428 
-0.729196 30.043694 10.144009 
17.033407 24.303631 8.961939 
-22.779490 0.042949 13.156725 
3.921911 20.780155 15.883151 
-22.111673 6.950505 -1.058704 
5.364356 21.319099 12.682277 
18.895227 12.026539 6.419149 
3.128111 19.899681 -4.711954 
31.304195 -12.584626 3.101768 
29.900764 -6.004883 12.955472 
-23.782053 -13.203360 3.155924 
26.288973 7.061306 -4.313717 
19.114479 7.861954 9.483480 
22.706438 -12.472360 4.198852 
-17.436344 12.642785 5.223959 
17.855272 17.787388 6.699094 
16.520519 20.311255 -0.287897 
26.728073 -21.014116 1.648714 
-13.079659 21.339079 16.853298 
11.983596 17.467377 1.098096 
-28.091122 3.506961 -3.090699 
-2.001645 23.087584 -1.338121 
3.363053 25.864014 -6.381486 
-15.354572 11.308788 -1.578535 
29.671391 -20.779928 5.555103 
18.758270 10.994335 6.717762 
11.569696 23.885044 -2.486803 
-13.830109 22.640280 9.201546 
26.635754 4.105233 6.507021 
-23.594059 8.871900 12.186421 
21.315138 16.144377 5.308763 
-0.508630 28.534990 17.006401 
21.155416 -10.290479 0.979923 
21.122293 10.214449 15.338709 
-9.411767 25.067108 14.541567 
-22.769630 9.676650 6.585429 
21.379547 -16.547026 7.939981 
-13.655454 27.755417 11.939662 
26.844109 3.604908 2.416031 
-25.743132 -1.194652 3.844552 
17.067392 13.582346 3.556235 
-0.797622 24.729410 5.127097 
14.651569 24.066343 -3.626766 
22.986906 9.943500 4.322349 
19.331667 20.687464 0.604588 
-6.357225 22.586378 10.930855 
-8.540998 26.848616 15.097457 
6.860200 27.555414 8.952104 
-23.828957 3.182529 -1.889926 
25.965837 -4.075017 -1.313148 
4.425476 24.651085 11.034557 
4.981899 28.176151 8.559808 
6.283184 22.731627 3.301251 
-29.934870 -6.996073 1.103234 
-21.474184 17.064354 10.096464 
3.592389 23.193056 11.386801 
17.117764 18.051331 6.194753 
-4.850645 23.480452 12.902547 
-11.212256 24.244110 1.364188 
-19.292061 8.451473 11.310084 
-9.668766 20.270164 14.933786 
-15.931429 7.652025 15.076604 
23.706446 -20.005720 3.454732 
-13.841544 18.941111 13.585199 
-14.853683 19.682117 -1.955636 
-15.687835 20.696875 -2.297708 
21.240271 13.316393 7.227749 
-21.130207 17.990187 10.611681 
-12.782333 28.786987 10.171368 
8.160012 24.844894 4.860515 
-22.790207 11.609388 6.949643 
-18.697720 -1.781010 -0.479507 
1.705673 22.658916 0.889343 
14.709705 23.822880 5.590240 
27.627014 5.869265 8.202447 
20.330523 3.057737 5.737028 
19.233688 7.303323 12.666832 
-23.644258 12.231691 -5.614240 
-20.809324 -9.483032 6.121188 
-20.001909 -0.877474 -1.597452 
-19.136490 20.538132 2.667799 
-5.324319 26.633726 1.407300 
32.377804 -16.003832 2.820930 
-0.031117 21.987923 13.484189 
2.273765 29.837713 11.121262 
-4.899430 28.186043 17.371744 
-30.679174 -2.831157 0.130419 
19.045973 -9.796050 16.628828 
-8.988793 18.958086 -1.314371 
-20.505825 18.465784 -0.644422 
10.082949 24.710684 6.248560 
5.112844 23.298187 1.144340 
21.051107 9.254249 4.021047 
9.719527 23.487097 4.631574 
-22.927036 -10.626403 7.009133 
29.800873 -11.834863 6.718063 
-24.796158 8.247715 15.440798 
-20.637894 18.046272 12.855889 
21.076912 11.172035 12.828784 
27.671108 0.065189 6.809108 
21.043413 -7.797033 5.102813 
-3.964543 26.968370 6.080024 
9.493256 25.307501 1.922660 
7.936922 28.011917 14.454727 
23.467823 -11.102964 12.739246 
18.560495 4.033506 4.925716 
-24.615416 0.712027 7.631742 
-13.631641 21.192440 4.326130 
16.858982 2.993442 -1.760757 
25.880730 2.824858 6.719122 
10.164758 23.212032 -0.962451 
-4.064703 25.480251 -1.815990 
27.094339 -21.281357 2.471746 
-2.741395 24.012901 10.423533 
-6.532228 21.297831 0.283026 
16.858088 3.155753 11.069517 
8.007165 29.937143 8.288071 
14.525406 20.267857 1.917808 
11.844671 26.902557 11.940624 
24.241560 11.397303 -5.785907 
17.453976 -1.139999 15.966943 
-24.234100 11.146910 -0.073891 
29.740355 -7.212586 1.560496 
27.811674 -1.474211 5.883843 
-4.633557 24.224846 3.112501 
-18.837334 8.133282 9.718161 
29.732641 -13.212094 11.196222 
-14.275969 21.541784 5.830104 
23.187469 -5.939373 -2.116944 
18.917149 10.488244 -1.962921 
-5.963143 20.849802 0.007207 
24.320684 12.675274 -3.669513 
23.418539 7.059586 -1.548687 
20.329639 -8.951339 -2.127630 
5.258327 20.760967 -0.237732 
-21.890779 8.486287 -1.489012 
-20.281221 7.576413 14.993654 
-2.201980 27.224594 11.271858 
9.579650 22.386421 -0.204991 
21.572294 8.208265 6.442820 
-26.194433 8.559055 6.859813 
-12.076474 23.529417 4.942468 
-20.292574 -6.487995 -2.238393 
-1.913246 20.532524 -2.974157 
-17.759329 14.596490 11.743538 
-8.265533 28.139027 16.341278 
5.447081 19.181505 -5.009294 
3.656429 28.117449 17.230684 
18.110224 1.602018 8.928047 
-24.689795 10.163963 -5.511329 
20.067221 10.261930 2.091234 
-19.006788 -0.082952 -5.049289 
5.992246 27.203590 -0.207306 
23.375940 13.139990 -5.864931 
11.873541 24.353111 7.612768 
-14.403220 22.767717 8.541986 
29.433336 -4.449390 0.984282 
14.206388 24.177122 7.886095 
-25.070148 -5.074843 6.787922 
-1.042201 20.425806 -3.714610 
23.105350 8.134141 6.579341 
-2.552277 25.867651 13.165593 
-25.707794 -10.987904 5.504083 
-22.813566 6.978141 6.831928 
-17.124573 2.683681 1.519935 
-19.694080 -2.869790 5.522303 
8.547242 19.609888 0.336029 
17.485125 19.239357 -2.926102 
-13.985751 20.439188 12.219334 
-21.644730 1.526941 14.538433 
-17.362795 3.675499 8.839234 
-24.507528 11.734673 8.064538 
26.262390 -12.265324 6.871717 
-25.833170 8.184298 -4.143573 
21.763880 -13.199755 12.369443 
16.085028 1.133026 4.810440 
-22.600758 15.535573 18.789923 
24.784643 8.355157 6.916734 
13.518918 22.765671 8.664140 
23.838388 -6.985689 13.501081 
1.537305 23.493975 13.245571 
25.315638 7.558571 4.937727 
-2.887729 28.939070 10.008941 
-27.316589 0.616898 3.467467 
26.015400 9.714406 8.475032 
-19.148029 -2.857661 -1.834466 
26.151028 -17.806673 8.348310 
17.025089 9.925365 9.915770 
22.683771 0.841673 13.988109 
-4.140608 28.672678 16.119493 
7.339685 30.370779 8.712637 
20.512474 -14.393451 6.601957 
13.763346 24.841850 -0.775650 
-26.807680 2.746874 9.738579 
3.799161 26.615185 13.880141 
-26.693012 7.349985 17.417112 
-27.384691 -2.976066 6.981575 
-27.409115 4.241479 16.010660 
22.124643 -13.331803 3.362255 
-19.226192 8.289316 6.088106 
23.323067 -17.779484 8.864144 
-0.958692 26.394117 2.533942 
-20.630516 1.300511 5.288837 
-19.844995 7.957368 0.572605 
-22.021051 8.018429 2.124012 
22.195322 12.079399 15.847443 
-11.227471 25.573818 10.475694 
2.862301 30.690420 7.099852 
-28.875221 -5.771194 6.884280 
-17.977640 8.757272 5.343632 
-23.129047 15.303368 13.308742 
-20.407177 20.875595 15.584213 
-19.672445 -2.705801 2.823243 
23.637920 -7.920103 5.584233 
-1.321368 27.105492 -2.483148 
15.508042 22.773020 2.579913 
25.730438 9.990940 7.616617 
21.598366 4.326005 14.669568 
2.121930 20.822603 19.039629 
-25.782133 -9.144803 -0.197984 
22.860098 10.013974 6.039817 
21.756481 -14.793426 -0.241418 
-21.258017 -10.036486 3.896635 
-19.768198 14.376470 14.532443 
22.752621 -18.261225 2.006402 
27.188755 -5.541234 11.526442 
12.575710 22.916025 15.995750 
-17.240210 6.034131 8.059433 
-25.288437 8.848812 6.767058 
-21.944105 19.834948 8.163013 
22.841898 5.900924 12.157537 
-21.268383 9.306367 13.233268 
19.835918 7.012800 6.101727 
29.015762 -11.136317 2.965603 
6.807503 26.835320 -2.683134 
26.882524 -16.737165 12.522469 
29.486319 -16.198540 0.292805 
20.323944 9.414357 -0.383947 
28.767193 -22.566870 2.186418 
17.658195 -2.031978 15.897304 
-7.118211 25.798151 -0.534303 
-20.964041 0.351158 6.300925 
-26.657158 5.984978 14.524190 
-22.719141 9.494561 13.599930 
20.295795 -3.526520 12.829620 
-16.432501 21.635614 -1.769620 
18.734043 -0.302973 9.646475 
26.171959 -13.036912 6.815099 
-15.953854 17.975847 14.389929 
30.155499 -12.599598 5.611585 
21.568810 -13.704693 0.105901 
-3.727869 25.297056 10.927694 
-12.072361 26.267490 18.252241 
29.825432 -3.914476 15.435114 
19.331152 -6.712430 3.679647 
-25.160183 -6.877573 -0.447468 
-1.380915 27.056768 7.246603 
13.586066 18.341309 3.698991 
23.467777 -15.020164 -0.317924 
30.160095 -22.010748 1.131327 
10.651098 25.604683 11.249445 
-20.925833 20.161930 14.851581 
20.772856 1.346892 6.814918 
20.258862 18.273060 5.363831 
10.082333 23.888544 11.672915 
24.946596 -4.524261 6.411980 
-19.469837 7.232793 1.582085 
24.473801 -20.436886 5.306509 
17.277317 3.603133 13.077943 
-2.523837 29.649370 9.367690 
-17.585825 2.145303 14.457399 
26.761534 -20.812111 3.441803 
20.017593 -4.561167 4.231609 
27.559214 -22.545502 1.770823 
-16.961468 22.042484 -4.347419 
-8.613631 26.155691 -2.528296 
-29.947241 -12.254869 -2.011750 
-7.981072 24.959692 5.305390 
13.955022 24.521799 16.115549 
-23.677565 -11.695167 6.136791 
26.064505 8.153890 -3.024385 
-12.039974 27.913101 9.992812 
28.530409 -21.320099 3.462423 
-19.606276 14.448463 2.840822 
-25.617188 3.392819 7.043149 
-11.005200 20.873590 12.893814 
25.956947 6.926194 13.990092 
27.732197 -20.462025 4.205690 
20.875828 -0.368386 10.532318 
25.760586 -1.667848 3.180210 
-24.001684 -12.276237 -3.132594 
28.016821 -16.434151 -0.302896 
-6.809018 21.821419 -2.521296 
24.896910 -2.522041 6.621192 
-22.708872 14.567324 3.160853 
-8.938708 29.801029 6.753407 
-10.397282 19.763214 15.401738 
29.807264 -15.297212 15.285977 
-29.002539 -12.979515 -4.392097 
19.879459 2.971988 -2.353365 
-9.344037 25.553488 -4.636792 
4.279799 28.893543 11.501287 
12.284617 25.572481 1.047738 
-20.475714 14.448762 -1.404437 
-26.661036 8.642996 13.951837 
-16.466169 20.691261 0.043133 
-9.924696 21.909775 -2.329152 
-0.487591 25.247803 5.727169 
-19.149704 6.534029 0.440539 
28.463432 -9.303640 8.957003 
-15.157623 14.532629 1.691953 
-24.610352 2.484515 -1.626721 
-4.948271 19.533403 -4.625696 
-17.204378 9.424199 3.393349 
32.230625 -11.210407 -1.099234 
29.730497 -14.448692 8.652279 
-24.661964 4.281813 6.916704 
24.688854 10.991608 13.582444 
-22.384077 14.976029 -4.642554 
22.574461 0.156137 6.118621 
23.466635 0.327804 13.789793 
-21.763344 16.410439 -1.436921 
22.771362 -6.702346 4.214538 
23.398214 7.341908 14.606856 
4.500403 26.304506 -5.093451 
-16.463570 8.264073 -1.075804 
-2.073753 21.304092 -0.869264 
28.844227 -21.748131 -4.230545 
2.292801 21.233124 15.691560 
22.624527 2.911669 6.571372 
-4.091404 25.715590 13.941477 
-18.762392 8.602176 6.982134 
18.319056 13.046098 -0.332902 
-10.799877 20.513939 13.615214 
27.036236 4.130714 -5.452800 
-16.437559 28.948721 8.562017 
17.353868 6.159290 5.801395 
7.447210 25.090099 5.104541 
-16.814903 10.309625 10.875401 
-24.393497 13.323609 9.976396 
-14.338147 18.893995 1.090677 
14.957996 8.725669 15.775958 
-21.010275 -1.194078 0.848541 
27.880684 -2.263975 5.943206 
13.114066 17.520727 2.260093 
12.552264 15.019400 -1.169820 
11.333209 15.870221 -2.763199 
14.972662 11.796827 -0.487618 
26.209425 -3.363208 5.868311 
-25.880541 7.935749 14.656854 
-6.191072 29.001625 12.073198 
-12.352107 22.027514 -2.918961 
-24.859612 10.332926 -4.510880 
7.306119 23.408304 14.434175 
-16.842989 16.401735 10.651636 
7.671665 19.431690 -0.925002 
-18.811157 10.089910 1.562292 
17.195383 19.594078 -2.157779 
25.232924 -21.717350 1.328096 
26.296026 -11.048615 0.113835 
-25.195364 -9.234101 6.548940 
14.953871 23.911762 4.274360 
24.625490 12.951340 0.219334 
10.739065 25.954424 -1.832796 
-5.611655 24.770466 4.247809 
-27.450094 6.896131 9.757183 
13.314470 27.108284 12.609000 
5.049979 20.267101 -1.373331 
32.305401 -12.085222 1.411917 
1.395723 24.633854 10.065701 
-22.613768 1.587953 6.079717 
-6.830080 24.419411 0.336310 
28.027632 -15.019188 6.569679 
19.750765 14.823433 2.420813 
8.752447 18.341028 16.238728 
-5.119721 26.993704 3.234441 
7.358544 18.737196 -3.139511 
-21.565872 8.418682 5.868461 
9.611597 17.960585 15.222435 
-20.172598 10.352260 1.110241 
27.028694 -18.252489 11.833939 
20.885742 8.894367 13.514414 
17.422939 13.539230 10.606804 
-0.626031 26.885887 12.520893 
28.185709 -10.299062 1.547558 
-28.826357 -9.835186 0.905054 
8.093570 23.992346 14.846991 
-4.585677 26.660872 1.681107 
-13.441335 23.640837 17.926027 
-20.134846 11.799991 6.066859 
30.921272 -7.068638 -1.058059 
19.730318 -13.837581 8.494100 
-12.863205 18.674255 10.290554 
-23.961504 0.731615 13.272883 
-2.081870 23.870029 12.507144 
-16.278509 25.164511 16.829239 
-18.988049 9.145443 7.644927 
23.856728 5.165426 6.548458 
-8.747828 27.260527 8.019073 
23.003599 -18.262239 0.856253 
18.909695 6.308235 1.175964 
15.731296 19.906254 1.484246 
21.512447 9.567805 9.155396 
30.131750 -7.924835 13.572084 
10.126217 26.224319 -0.935307 
-16.907932 10.086859 3.780446 
-25.243185 -7.728538 -0.437922 
3.181105 28.826618 14.776343 
26.395123 7.511551 -1.382286 
-21.655031 9.615788 10.263257 
0.546536 23.029215 12.460082 
-17.509962 15.615806 0.584196 
15.328160 23.633276 15.970800 
4.005673 25.618654 9.074395 
-17.144958 3.046793 15.298830 
-25.286322 9.616498 6.645298 
24.581829 13.646456 12.551242 
-9.036989 25.106956 -2.437396 
4.196453 25.633455 9.905037 
23.151459 -12.090650 3.312270 
16.112825 25.957972 8.582929 
8.563292 19.719793 13.698677 
25.678812 -10.192173 6.806550 
-14.505048 24.545254 -1.040497 
-20.534065 -3.166684 5.303969 
24.052923 -14.282366 13.151894 
-16.594004 19.200291 5.295381 
15.591581 16.169233 5.796202 
17.108101 24.415730 10.609524 
20.795465 -8.058681 -0.890234 
24.998213 -7.091680 -1.865403 
-6.289135 22.293819 -0.770511 
17.040668 2.655330 6.047447 
24.865541 13.589828 11.286698 
3.197227 27.337687 14.753698 
-8.775941 27.075972 18.497753 
20.503916 -16.227850 10.185045 
-13.751029 13.108564 -4.371517 
21.912933 -5.073558 -1.982054 
-1.479318 23.920227 0.448127 
19.564384 1.871369 6.048638 
20.044523 -9.000124 0.942046 
17.540285 3.703374 5.581762 
-29.118361 -9.084742 0.840838 
-14.024786 24.520996 19.415802 
-15.504824 24.578306 2.432302 
27.749004 2.357532 -4.197625 
-1.479969 29.980663 9.862924 
-20.004723 4.186460 14.838073 
-25.843580 -10.870242 1.608729 
21.466930 9.497913 1.851820 
-23.268164 5.602726 12.230402 
9.353229 24.353832 11.468336 
-15.403955 23.297382 7.102688 
23.144588 -5.195695 11.346266 
-22.121639 4.420933 -2.163296 
14.445000 22.978827 -2.854755 
-15.433361 10.325744 17.019712 
18.340263 0.566384 11.080920 
-16.823576 28.445829 11.086016 
-20.998163 11.666765 7.474312 
-26.444548 -2.266878 2.567933 
-5.618261 27.614107 18.514685 
-19.506742 10.512225 7.551754 
-22.363985 -10.446826 1.958770 
-14.779233 27.404179 13.036056 
0.530238 20.533424 -3.358474 
24.280056 12.945666 4.733303 
-2.400832 26.554564 13.490145 
7.513772 25.852423 -1.605493 
-20.342352 -3.733746 1.459664 
19.314123 9.031486 4.390979 
20.170057 -16.520546 9.463490 
-15.895957 17.227959 -0.710552 
-15.443918 14.566410 4.023692 
23.110085 -15.764244 12.421762 
29.355736 -5.248569 0.549659 
-14.896103 16.980131 5.381122 
-26.951347 8.970904 9.869182 
-7.679347 20.489052 0.417640 
19.237022 17.671450 13.646685 
27.656120 -21.470510 3.462343 
9.498779 27.537169 5.410101 
-24.214016 10.700727 5.278091 
15.606123 26.490004 10.787977 
21.018204 -8.646994 6.648987 
-16.274315 24.263901 14.146274 
19.106878 -13.154637 10.124583 
-28.010981 -2.612863 5.336340 
15.654238 21.542944 8.641053 
-5.486108 25.295357 2.308621 
17.827328 16.608070 6.579406 
17.861494 0.734440 -4.253851 
20.415024 10.281985 6.525584 
23.316248 2.614450 6.342454 
-14.425075 24.882225 6.285862 
-20.454319 8.879538 1.846124 
21.817379 -14.268876 3.107806 
-11.167676 29.206627 6.129850 
-18.482141 14.819840 12.609156 
-3.042688 28.046635 4.298074 
18.184219 2.592252 -2.169233 
-22.145470 8.328292 2.905285 
16.688192 22.796982 14.196267 
-14.409329 14.692794 12.370975 
16.369810 11.069185 11.842515 
10.644996 25.617559 3.353862 
-9.482628 27.289145 7.778594 
-29.052292 -7.376635 3.343051 
25.847231 0.783746 9.999430 
-25.798786 -12.887380 -4.410615 
6.587581 24.159468 4.241222 
13.833714 15.385376 1.602587 
19.227562 0.808692 5.886673 
21.569311 -4.326836 0.417929 
-2.912056 29.634619 6.838674 
29.005430 -9.978516 10.227354 
18.638105 21.193701 1.209209 
-31.647642 -8.698139 3.067611 
