-12.281459 25.931667 15.271263 
-15.908036 16.721848 9.468843 
26.201305 5.586089 6.877610 
7.143568 32.451569 5.543287 
-21.319176 -5.118689 8.816216 
-17.929720 16.723696 13.531772 
-17.162785 5.439335 6.554481 
-19.018404 13.129767 7.479631 
-21.884129 -7.043981 10.620006 
23.764210 5.490859 0.336458 
15.123602 12.620925 11.094171 
-20.638264 15.881825 -4.900532 
23.837454 -10.878119 6.258318 
-8.502396 21.713177 2.667830 
22.237143 -9.279339 5.081962 
11.541436 26.897911 3.571504 
28.464895 3.157437 10.635536 
-17.650339 -2.950337 -3.919990 
-13.504562 17.519461 12.250716 
8.587128 23.015549 1.991002 
-13.464299 25.908447 8.323874 
-25.879292 4.416541 10.021862 
20.107494 13.842413 2.485182 
-19.116301 23.977657 8.440413 
-18.354916 16.261642 -2.095398 
1.073175 30.226021 9.755658 
23.679178 -12.771973 8.634677 
-27.610699 3.821376 17.763653 
17.503561 25.381435 16.454330 
21.194185 7.966205 10.369787 
-14.189007 10.313777 12.021069 
2.260076 23.554533 -0.105323 
-24.932688 -4.991303 -0.567447 
0.717812 27.993170 9.904277 
-8.991150 23.079506 2.648207 
-7.530005 25.840761 -2.120731 
-19.603098 4.459421 12.217627 
16.128195 14.825047 12.002095 
22.346994 4.207535 4.708800 
-11.224203 25.343561 -3.856333 
22.116636 4.339244 2.685681 
-12.222528 25.223816 5.610499 
21.610176 7.745097 -1.705252 
-8.535378 27.762827 9.299656 
12.567555 19.838373 11.096427 
18.319321 -0.053819 13.556267 
-17.995699 1.553731 5.576850 
-22.934793 12.019669 0.918720 
22.688238 15.590455 -4.232700 
25.466429 4.626870 8.056704 
21.034630 13.447643 7.510201 
-13.350243 26.115196 13.322922 
-22.760033 -14.335185 8.406003 
18.071098 16.090883 -1.691548 
-21.815111 7.169374 6.652527 
3.807976 27.240629 10.589832 
-15.486260 5.076875 14.277459 
10.379890 25.747259 6.478244 
-24.687519 9.781625 9.546994 
20.590334 -2.298983 -2.256582 
3.330877 33.068031 6.597375 
-14.788267 18.991659 15.514506 
20.714844 5.500648 12.612208 
26.152561 -8.928267 14.666458 
-23.660654 -17.424891 0.707475 
-6.738508 30.997175 7.011236 
-0.032054 23.345667 1.946718 
34.025276 -13.131257 3.752911 
23.267353 16.972647 8.137882 
23.897749 6.971556 13.156245 
-21.309046 16.057335 14.431127 
27.897654 4.925454 -3.624361 
-29.511723 -12.483330 4.734328 
25.588121 -6.773320 10.095502 
-16.287848 22.008202 4.299522 
-29.213722 -15.450378 6.767647 
-17.995398 24.846672 10.054018 
-15.127889 11.138990 10.055845 
11.147552 26.424372 1.321237 
-7.541032 29.671936 12.692456 
16.731983 8.936338 1.699506 
-22.967455 -11.076901 12.918731 
-22.544424 -12.114748 -0.303335 
-0.459260 21.620577 -0.606747 
-0.956658 30.804089 7.972626 
9.588225 30.920794 8.861648 
-29.712294 -0.533650 12.784938 
-8.973012 27.637447 -0.237573 
14.663193 24.688488 -3.591441 
-28.842958 -16.233192 15.582699 
-20.116213 -0.553219 12.029188 
27.472857 -5.892804 8.203382 
-14.987220 24.763145 0.891003 
16.485313 14.718858 5.292999 
31.197020 -13.349279 10.044977 
-19.172165 17.718178 4.282971 
-27.794832 -4.027571 12.244149 
18.757629 24.630407 13.114732 
-27.661467 -0.247753 4.411163 
18.826454 5.720609 4.555774 
10.649201 27.511839 8.706375 
-29.297123 -5.923973 9.580091 
-10.315517 23.829700 -0.418834 
-15.652029 18.065395 -1.522750 
-19.193142 -5.440732 9.065834 
-22.545313 6.438790 6.346187 
-30.608078 -11.200028 14.400489 
-17.208555 0.972545 17.609921 
-26.011734 -9.584711 14.105392 
-15.213062 5.885240 14.097198 
-5.183817 28.607170 9.547218 
28.257944 6.449295 13.021762 
33.125080 -12.677786 11.049037 
-28.289267 -15.782204 13.120051 
19.831600 -6.007943 2.854465 
30.779053 -12.517432 1.658648 
1.942013 32.391239 11.765715 
-23.525383 4.702459 10.561347 
-26.332527 0.164529 -0.711706 
0.117111 29.207760 9.258682 
24.041039 -14.582428 6.722296 
30.213232 2.018373 12.995717 
-10.599607 18.878845 13.558802 
26.524086 -3.389894 5.987553 
9.289158 17.262318 -4.517807 
-28.065113 -11.234632 0.141565 
-12.732510 25.967581 1.088662 
-1.024052 26.540190 11.137177 
25.649599 10.934411 0.143037 
32.862217 -9.969690 12.237815 
27.424002 -9.907069 0.564285 
24.980141 -15.818975 11.278525 
22.477139 8.768643 1.608825 
-13.084287 26.960909 13.664763 
24.678564 5.780679 12.652624 
-1.815561 22.921772 1.664790 
7.770103 30.629700 14.630028 
-22.202450 8.872944 13.132012 
31.019995 -15.180342 14.445943 
-16.937469 9.494335 2.371149 
-16.196743 5.851197 4.380727 
-27.072323 -9.373207 14.255850 
15.738503 20.260607 -1.279150 
4.009917 25.080528 3.657545 
-21.059080 18.261871 17.453129 
19.879301 10.464467 11.640340 
-1.480406 23.308620 15.172356 
22.433094 15.432464 0.802125 
19.679281 19.316042 7.391402 
-13.614396 17.427998 2.713987 
22.726608 -5.429402 4.993816 
2.777950 31.715960 6.337922 
-15.270391 6.764306 1.977912 
-2.616210 24.540277 -1.391026 
-5.455420 30.782104 17.193075 
-10.722256 24.693851 15.084222 
-24.304440 1.728344 12.820391 
12.700527 25.797722 -3.548589 
32.845875 -8.429789 14.720327 
9.031560 24.535461 10.961296 
23.534199 -8.000761 12.496199 
29.245178 -10.571252 8.317124 
29.530165 -5.448481 11.438536 
-27.545324 -16.491194 16.839197 
-26.211744 -4.846603 2.924216 
-26.035265 5.816493 -0.817265 
-4.816105 28.658751 6.146724 
27.657940 6.902152 17.775801 
26.925146 9.586133 12.091456 
26.835447 3.999380 10.321377 
8.731603 30.010271 11.601256 
25.016586 0.547659 13.659640 
11.539629 19.861267 -0.217738 
25.418144 -16.680912 6.426694 
29.947279 -2.826051 10.964075 
18.792728 -2.038841 -2.531623 
17.314085 5.270110 17.725500 
-19.537855 -1.859012 6.041120 
28.328907 -3.213807 6.094773 
-5.418292 24.815983 2.650907 
-1.656188 26.121628 11.748056 
7.840462 25.786005 4.989886 
21.328024 -9.450591 2.074273 
21.004587 0.019209 -2.290038 
14.915869 22.609703 14.269958 
28.612465 5.701235 13.693457 
-15.381151 21.014919 7.381072 
8.673096 28.316475 -0.176247 
-1.739377 24.938732 3.371584 
-20.165806 1.863863 11.635544 
1.445130 25.204185 0.174923 
4.374775 32.535614 12.595826 
-29.428373 -8.073976 7.415164 
-16.109369 18.145350 6.350279 
-16.955193 8.726105 -1.353419 
-23.150394 4.774820 1.583228 
-31.139463 -7.945251 14.884548 
-11.610564 28.328659 15.661329 
9.682033 26.167503 6.665890 
23.240988 -8.456750 9.728847 
-29.070580 0.539601 16.632252 
13.520483 25.843288 14.598999 
-25.823669 -15.478310 13.413023 
-19.645638 15.104247 -1.435877 
1.338161 28.571621 5.801741 
-19.547773 -6.044111 8.520438 
-24.796507 4.488255 4.618344 
-2.674690 25.587021 1.718614 
-22.898136 7.822970 5.112250 
18.410305 17.456736 10.101337 
-24.610395 10.985606 12.815016 
18.809872 2.258082 4.750095 
-20.828377 -5.386230 -1.372901 
23.751432 -15.802421 0.700157 
-14.430312 21.154356 7.251153 
0.446502 28.078646 -3.771151 
30.943571 -8.655833 15.359130 
-24.027308 8.469068 12.830416 
-11.937790 22.783127 6.417969 
1.798155 30.043165 7.653970 
-19.656750 4.652864 0.882465 
33.198559 -9.322151 4.357924 
14.192421 18.340603 11.749807 
-21.098166 17.363829 8.202087 
-23.512598 -3.392389 7.013103 
28.980520 -6.572195 11.054648 
-5.315026 25.461199 4.095060 
31.668905 -5.817594 0.850920 
-14.209277 25.229322 10.087968 
8.713797 30.403580 16.636494 
-5.720735 25.757038 13.058947 
-25.264515 -6.670337 5.950598 
-16.027424 17.312763 14.003272 
18.566067 12.787454 -1.545773 
27.199894 -4.938450 3.611055 
-19.677900 11.420349 -0.146668 
32.845272 -8.590054 15.520223 
27.347282 -13.391918 8.837649 
-17.465940 -4.267991 -0.262528 
12.355247 25.691721 7.430656 
-0.808890 29.244650 0.295630 
26.332006 -16.279705 6.960091 
-23.171478 -11.805962 6.357077 
10.056331 23.032625 -0.751380 
-23.297886 -15.136819 12.353223 
24.410892 -3.962142 6.523467 
0.526693 32.155006 7.737205 
16.312757 10.641989 1.993462 
27.233765 2.876303 5.776237 
19.252510 0.258815 7.262940 
-0.265696 27.385672 12.729945 
25.269886 8.616031 4.095824 
-17.045219 2.795922 3.514550 
31.517588 -11.430159 15.789466 
-14.353330 14.101582 -2.174183 
-12.887688 25.400887 -1.881431 
-17.472652 0.088147 -0.510843 
-20.171967 -11.714617 12.752995 
-20.291819 2.873187 7.330484 
-24.500721 -0.756649 10.647961 
18.601131 22.417347 14.030253 
-28.288826 3.270370 15.253123 
24.248165 -8.536051 10.183569 
10.330567 22.975367 2.878722 
-31.286839 -13.979395 11.876668 
-29.288094 -10.504198 7.575961 
15.096498 18.380972 1.086274 
11.612937 23.165083 12.883200 
-25.758884 -3.183886 13.016782 
-12.553782 26.705721 14.637587 
17.069502 5.344388 15.473460 
-6.600314 32.342819 5.824809 
17.227577 19.688372 2.391820 
2.186448 25.062197 -1.101702 
2.809886 28.958826 -0.887519 
17.431665 20.637634 6.848500 
23.466154 -10.693868 7.790040 
20.365438 23.337032 12.991166 
23.520998 -10.028479 13.306678 
10.534789 28.960104 6.998987 
25.901934 -13.827136 14.706362 
21.288307 2.646884 -1.308331 
-17.675299 7.290287 10.024873 
30.366755 -1.039560 9.505811 
-24.137701 9.299726 -4.626339 
32.498360 -16.090918 5.035968 
-14.758254 6.395118 0.124097 
10.735889 24.518723 -0.573508 
9.677204 19.332098 16.682877 
17.605188 20.830050 1.749351 
27.402121 8.782434 12.848016 
25.704742 -8.941327 7.197625 
10.514023 25.025757 2.586023 
-31.478218 -7.766739 8.201109 
25.475668 9.679508 0.223846 
16.682188 18.522095 10.394804 
18.202999 -0.543321 12.091970 
26.696413 7.641852 -3.777412 
-18.898476 -5.828967 2.315717 
-8.571890 27.737967 3.818731 
29.350597 -14.106431 15.527589 
-21.973171 -15.536877 5.594822 
-19.244576 21.070454 17.412376 
26.216526 -10.591533 6.912991 
-7.740383 29.814100 7.633410 
-28.808939 -14.390595 9.787486 
-15.935708 10.882805 12.180966 
-0.648805 27.031313 2.312287 
-16.117538 23.445114 0.670721 
-10.414948 23.386456 5.428458 
30.652733 -1.718524 -1.182916 
-23.192511 -8.537636 8.012154 
12.047900 26.563931 5.509583 
-7.628551 29.592903 17.765209 
31.144402 -5.055063 -3.079620 
-4.430199 28.482834 3.838238 
-21.564865 12.903247 1.955693 
-2.764030 29.241100 9.641562 
14.588507 27.755203 7.903921 
32.037392 -9.489405 6.177521 
-23.223690 -15.826405 1.189365 
-29.387281 -0.496773 16.530514 
22.882935 -1.717566 1.634073 
22.729189 -14.449644 1.553668 
7.034437 30.677227 7.941912 
13.002455 21.852879 10.027349 
-2.452028 24.814051 12.244934 
-24.362400 12.204545 15.542723 
-11.645490 24.975952 -0.259738 
-31.817780 -13.382521 11.444244 
-15.816441 2.734059 -0.555784 
-18.562700 -1.782072 7.101263 
-9.368164 21.731266 1.949907 
27.413801 0.780323 4.819502 
-11.530432 15.821643 1.016569 
-27.117229 -2.963229 4.508299 
25.649677 -2.102720 -1.762757 
0.288977 26.622751 10.891583 
17.778683 11.775566 1.215844 
26.410463 -6.487299 9.813126 
19.250273 5.322988 5.590971 
24.576342 -15.608373 1.610701 
-3.765258 30.700640 13.882504 
22.722044 0.942925 -2.175483 
-18.673008 2.730987 9.223455 
1.286064 29.829718 13.860322 
15.238788 26.796022 9.487020 
-21.910238 -12.469431 5.277255 
29.396479 -1.787675 3.505364 
-7.411095 24.925579 13.202777 
26.957870 4.611155 6.846269 
28.664530 -13.523785 15.577294 
-25.249376 -12.154540 2.957327 
27.826340 5.279141 -0.469526 
3.349669 28.949991 6.619100 
-19.933979 19.519873 18.460213 
-25.249166 -0.025847 -1.233927 
-22.051474 15.498034 6.237526 
23.136732 -4.075254 5.545647 
-10.159351 21.719299 3.709530 
-15.581610 13.137349 -1.698186 
-30.444307 -4.800791 15.175888 
25.491467 7.611042 3.457573 
-28.868670 -11.808876 0.529374 
-22.367712 -6.381168 1.377638 
28.902571 -9.548971 8.630239 
-22.189991 -14.919437 6.521800 
24.034277 12.315356 8.545570 
-23.754438 12.665172 18.157146 
17.972443 -1.199385 2.624275 
-16.164637 16.999210 10.221556 
1.646659 22.845047 1.404262 
-30.816126 -7.087499 -3.913016 
-20.527067 4.932372 0.899460 
6.348520 26.213484 13.735208 
-13.168065 25.207472 4.792336 
-3.403636 21.071461 -0.932052 
-20.686626 17.141037 1.455826 
30.932762 -2.791884 -0.847472 
-19.404215 -2.181547 -2.140002 
24.803547 14.870339 13.556775 
26.276470 -7.947894 6.057235 
-30.071798 -4.875814 17.373596 
-12.985130 23.940853 7.959315 
-4.591568 31.590290 6.598964 
-16.603279 -1.754660 -0.254931 
-19.707468 4.360867 7.289311 
8.323092 24.126524 1.434417 
13.565943 16.232698 12.970287 
-17.277107 0.035145 5.319025 
-26.551483 -6.323673 9.051536 
-17.083818 10.788324 1.646789 
-18.892061 11.973768 4.207791 
-28.904219 -17.271112 3.617574 
-17.040998 -2.016497 12.638973 
1.849623 26.825081 0.010885 
24.393936 -6.624269 0.851003 
-22.037010 10.398335 7.223964 
-23.870073 13.457603 13.969850 
-29.115793 -1.219387 8.049482 
23.675503 -13.681215 9.720919 
12.684759 23.181316 6.464465 
-24.678667 -1.725919 7.212813 
27.518305 -1.745712 13.851372 
24.926168 -2.258327 6.205793 
19.006458 16.166597 8.119850 
4.190525 27.755474 -4.074615 
17.386665 25.917053 13.538460 
-26.322966 -11.145076 7.868189 
18.756422 8.876707 8.296298 
11.230137 15.434035 -4.397717 
-20.082756 -9.600457 2.093047 
-17.351820 -2.218375 14.750620 
22.249975 -12.402637 10.983481 
19.634417 18.659275 12.290346 
-21.564554 7.935251 -1.317602 
14.843439 26.393026 11.967850 
-19.918497 21.885475 12.499120 
25.096153 8.883670 -0.480172 
5.278666 31.917154 16.006588 
12.283985 23.863956 0.242471 
-17.617380 -3.066207 5.141269 
-22.725594 15.521844 8.873981 
-18.352949 -5.202906 5.438634 
-31.239344 -12.478539 5.426015 
-3.538673 27.895287 0.609501 
30.360094 -1.775686 10.321948 
22.003836 4.957280 12.535073 
26.716772 10.098728 15.559450 
14.306080 13.647057 13.284158 
4.150088 31.029482 18.127279 
-13.872938 14.550922 9.862041 
-16.460739 6.720711 6.369473 
18.812771 -0.055635 8.467327 
20.165983 3.992304 11.580710 
24.456623 11.367175 8.127261 
-29.081955 -0.947659 9.277407 
13.885572 25.285397 2.707142 
8.740625 25.078951 12.759286 
-28.691097 1.097382 11.520890 
11.962790 18.355469 2.326503 
21.460365 19.893059 18.381298 
0.069489 26.848030 6.137709 
-23.378593 -8.023757 8.656457 
23.459871 -13.450202 1.488563 
19.260031 10.456849 0.877862 
25.244698 7.137762 10.735774 
-4.205796 33.106358 6.208554 
10.121490 27.597555 1.131756 
14.153423 28.040527 10.356631 
-18.403612 18.846668 14.029395 
-18.584730 24.486593 7.142057 
14.212164 19.436283 4.318276 
-27.717743 -2.855709 12.797415 
28.512264 -12.640689 7.335673 
-15.065098 16.619057 5.433745 
-6.233661 27.670605 1.327093 
9.605266 31.562641 8.349731 
-22.218504 8.389031 1.804801 
-9.476931 19.245110 1.493034 
-19.438457 2.669439 10.021607 
4.637687 23.825089 2.774622 
-26.389599 -6.415158 2.742399 
-10.251184 26.974072 9.351434 
-25.125463 -17.404768 12.885225 
-23.075296 6.933078 1.705548 
19.219187 0.728793 8.360824 
21.529476 -6.230964 11.033514 
-19.730524 -5.921968 1.110124 
-11.449099 26.093163 2.660882 
28.544609 -2.915546 4.624909 
-14.569780 15.863028 -2.469269 
-22.020628 -14.349599 11.014970 
29.642704 -1.298742 2.798680 
31.634136 -16.866215 2.956281 
16.235062 8.568182 0.420487 
33.405643 -14.071627 4.639494 
29.217550 -7.463139 8.976835 
4.591169 28.310339 12.551265 
28.927202 -18.146896 4.062794 
18.092127 10.494924 10.986501 
-14.435740 11.754481 10.133086 
11.497274 26.927069 -1.785255 
22.505283 -11.169989 9.236422 
-29.280392 0.710388 12.141723 
-10.948510 20.456192 -1.376908 
-16.133919 21.535540 -5.113454 
-2.392689 32.393990 13.196211 
-20.583879 10.238617 11.659572 
-1.278968 27.835201 -0.806519 
-28.789118 -0.331874 1.558109 
-23.073622 -2.319908 12.977109 
28.209415 -9.505751 0.780741 
32.591038 -7.271679 9.606580 
1.036813 28.635574 13.249050 
-17.368675 8.523987 4.206819 
20.552279 0.006848 12.530369 
26.810690 4.279673 5.919113 
20.327801 11.131114 0.720727 
-22.312183 -1.426950 9.998185 
22.591629 -5.738472 -1.400111 
-23.782064 -17.293381 -0.445123 
15.598109 26.710577 16.554487 
-15.614795 10.860341 10.807593 
7.542024 22.817137 13.489012 
-9.619530 26.470980 15.436104 
2.954542 24.796320 -1.357990 
17.569345 18.623842 5.333366 
17.785217 19.120916 14.441076 
-21.207170 4.205930 0.904927 
17.619127 3.691847 16.262873 
-6.431010 19.453876 -1.035555 
28.297832 -10.421998 9.275524 
-1.656420 33.178738 9.461657 
23.928167 16.416092 11.220027 
9.441515 23.841438 -1.527061 
-15.842766 22.814295 5.415637 
5.105985 25.078335 -0.806073 
19.059420 15.027306 7.832889 
-21.411940 16.937717 12.896835 
-17.781151 24.907061 7.285040 
2.913782 22.736368 0.750682 
-8.461662 26.298668 1.434817 
-16.941244 8.820770 10.353634 
-18.959831 17.300673 5.042059 
-29.844465 -1.566960 15.432643 
19.176737 1.425063 5.464330 
16.125843 24.265976 13.903448 
24.788242 -0.333950 5.769483 
16.713886 11.940910 12.912831 
14.514489 21.940292 10.143911 
-18.674313 18.233099 10.265900 
-22.148449 -8.072010 2.194171 
25.443142 -7.457699 13.627149 
29.745718 -6.822258 8.949883 
-17.599224 10.682714 13.155013 
17.578991 16.030521 13.271240 
-24.046848 0.802389 10.534610 
30.539984 -1.732184 -2.156473 
27.866102 -5.753637 9.370871 
3.120231 27.716316 1.819363 
21.476702 10.539143 7.602810 
22.766693 16.876328 12.903919 
-19.058823 21.387112 7.354754 
2.601054 27.079670 -1.755941 
-4.878868 23.272953 1.062772 
-26.369936 0.817752 6.840834 
-20.496157 -12.367924 -3.495088 
-22.112711 -6.146096 0.472185 
26.646935 6.258375 8.518392 
23.726404 11.295505 3.761796 
-27.090273 -12.741517 14.522748 
-17.287193 -3.071425 11.986825 
-3.957090 26.011641 0.026506 
-22.948023 7.047765 0.423980 
-8.639154 30.666136 11.001328 
-10.205676 28.099489 13.207918 
22.934120 -5.287951 12.947507 
15.008162 9.958454 -2.587324 
-21.281397 9.957120 7.355221 
-28.024963 -14.681269 11.403767 
19.794178 -3.852287 9.194343 
-18.430351 10.776319 13.358394 
-9.462029 27.897692 9.079138 
-29.727730 -9.411928 7.510237 
31.234289 -6.909862 13.673561 
-31.014608 -7.221005 2.648161 
1.516558 32.169613 15.751835 
-15.125824 9.326594 2.192761 
-26.582739 4.201774 9.594945 
-13.947229 14.308251 10.877470 
-26.339701 3.444905 6.379737 
3.956434 25.138111 11.899592 
-17.087824 13.689960 6.145084 
29.835875 -9.381047 1.349473 
-10.193609 24.560949 10.482304 
14.234520 27.473227 16.884468 
23.132807 11.250866 -0.461979 
17.709019 6.349731 9.222306 
-22.855984 14.565992 18.241558 
11.509943 25.677593 7.508181 
-23.328896 11.988968 -0.878377 
-15.609896 12.720965 14.377414 
-19.811466 5.030321 -0.744739 
-17.873577 10.818586 0.303471 
-25.980247 8.012623 11.885633 
22.287560 -13.604971 12.499451 
-20.070478 7.324288 5.630374 
-15.215219 4.267773 -3.014859 
16.545361 17.040058 9.603824 
-17.722158 13.105261 5.787066 
-2.741210 29.190197 7.524491 
8.770454 21.437706 14.327677 
-22.005774 -8.647819 9.340685 
6.446728 24.187286 1.967621 
-26.427704 -9.375937 8.064500 
26.386440 -3.934878 7.347245 
-3.643207 27.055870 -5.199318 
28.997753 -15.116176 12.426476 
-22.854126 -10.605184 6.751333 
0.935761 26.823376 5.267513 
-19.304882 9.678324 12.251942 
-21.915272 16.800039 17.429621 
22.622129 4.533481 1.967586 
23.303064 12.610450 12.383243 
-21.900965 -15.226476 14.114874 
27.970196 -3.267355 13.715049 
-26.519838 -6.776417 1.573459 
28.675381 -9.435010 15.513283 
18.560186 19.091175 1.603453 
-16.321188 -0.011651 2.656394 
-13.272107 27.903557 10.473347 
-16.318714 0.694626 -2.781740 
24.313591 -15.802704 2.647187 
-0.303072 27.290932 10.542042 
30.877394 -10.645411 1.671432 
-12.247305 25.067656 -0.825544 
20.928402 -6.089109 7.901052 
18.784584 13.945842 14.123366 
25.023781 6.758831 0.503453 
32.584034 -7.785214 0.739164 
-29.218800 0.605593 15.735841 
-16.894098 7.175849 4.642757 
-27.727314 1.567013 12.596338 
8.126256 28.939028 6.391085 
-22.358644 4.149452 10.683856 
16.114433 12.698283 7.453392 
31.228661 -8.504427 2.425750 
-18.927427 -8.323117 -1.306457 
15.945573 24.697538 0.615468 
-4.399767 21.880501 0.881709 
17.740450 21.728914 1.724937 
17.307608 3.501838 -1.373207 
-23.836145 -1.407150 7.068942 
-17.223886 4.295891 8.734085 
-19.508568 -9.614778 15.278624 
8.756537 30.492722 7.230729 
-20.526684 -11.412992 2.464830 
9.160865 26.930832 13.373242 
10.773819 19.382420 0.627850 
-4.087285 19.229876 -4.817260 
20.570827 9.323483 4.864890 
25.559584 -0.293969 6.292209 
-23.738482 9.609547 2.172322 
29.757391 -1.742315 2.014705 
16.210821 21.034792 8.279586 
-30.343670 -13.804495 14.226356 
-19.087877 7.205669 2.175892 
-5.203593 26.112246 0.714850 
30.114405 -14.783869 13.187870 
-13.790035 9.110998 -0.550018 
-16.493523 21.912754 -3.947322 
-9.324262 20.474209 -0.412005 
-25.455639 -17.296415 -3.325055 
-22.054016 17.194277 14.066808 
-22.098602 -13.533402 8.275956 
1.304187 28.195259 11.017507 
-17.177259 5.849376 -1.231645 
-15.190701 24.126333 3.277182 
-25.136648 -7.195825 1.117611 
-0.140997 29.096663 2.618097 
30.118729 -4.486478 2.779580 
-19.925837 -5.531255 11.008884 
-19.613281 21.755486 13.617365 
-32.141197 -10.259588 2.190752 
2.828478 28.849461 7.423412 
-27.537848 -17.154858 10.758153 
-16.383808 19.065643 11.800052 
21.879799 10.082449 6.037490 
-11.674489 19.401169 1.442723 
-24.465839 -6.560893 9.519336 
-1.963153 28.408592 9.986110 
-9.988807 28.760473 17.043921 
22.078743 4.747359 -0.383485 
-14.843223 12.667062 -0.039869 
27.320356 -0.299442 1.804010 
-18.934072 10.487061 9.487078 
23.278515 3.485615 11.739024 
1.034492 28.407618 12.273030 
-5.909584 18.609482 -3.398693 
-16.114281 7.808426 8.703478 
24.834673 12.311312 -0.229295 
-22.221867 1.790904 6.513350 
-28.164663 -12.125842 0.212341 
29.634388 -9.833820 8.250759 
-26.595583 -3.850303 -0.137040 
-28.507162 -8.643099 0.819960 
22.620466 16.414772 1.653062 
18.014830 2.288659 13.322435 
28.830288 -1.841741 4.639856 
21.638906 7.151512 5.015461 
20.871601 2.032988 -1.870138 
25.748461 1.751732 13.481676 
26.100178 10.570473 17.946333 
11.225356 29.999302 14.061741 
29.294203 -17.169645 5.254841 
-18.205414 20.167616 -3.788560 
-5.262086 30.324213 13.818029 
17.002214 15.659295 7.418800 
19.862251 14.989083 1.968154 
-32.168827 -11.920500 1.200683 
20.298107 15.534762 11.741781 
-27.396292 -14.176812 9.661403 
-20.974199 17.706699 10.572951 
7.521737 29.745583 18.861917 
-23.404064 -12.829296 13.162952 
0.024424 32.836700 6.240551 
-4.373846 26.575966 2.705344 
-15.953842 17.443975 10.969746 
-20.080683 14.262790 1.469399 
-24.598892 11.605211 14.368819 
16.777815 5.324669 -1.701494 
6.176219 31.376518 16.747316 
-28.110605 -4.788858 8.857960 
2.211235 28.806284 3.832118 
-10.496643 26.127483 4.243491 
9.819671 23.909122 11.293043 
27.850100 -17.338991 4.089893 
12.609674 20.682283 10.767994 
31.983793 -15.595859 6.556994 
-28.231028 -5.826705 9.023584 
14.717043 25.643299 0.295792 
-13.301950 23.897045 12.927903 
19.980280 22.441040 6.181111 
33.585434 -10.930644 4.996907 
28.086721 -3.397846 -0.318854 
31.197304 -10.833440 5.042266 
-19.104256 -3.198380 11.269203 
-15.288025 14.698493 6.523229 
-16.484596 17.350719 12.547155 
-22.823595 14.764239 8.493538 
-8.223023 30.579992 10.148092 
24.412842 -6.584274 5.247464 
21.885172 13.159842 4.313526 
30.034212 -1.075622 6.627491 
26.034401 4.140354 1.830190 
19.937862 -1.676185 6.409353 
-31.713768 -10.288771 12.406377 
18.613850 -0.293378 9.445888 
-19.732882 -11.523839 -1.502022 
-22.999514 14.873381 9.513254 
-27.090988 5.581518 16.402233 
-15.044180 11.384944 9.086417 
18.811832 18.243351 12.830807 
-13.732149 12.796019 1.603549 
-28.870367 0.455978 17.613432 
18.833797 2.960409 3.512660 
-25.246347 9.156525 9.796548 
5.008545 28.200758 15.480563 
-29.935028 -1.587368 14.545668 
-30.242357 -12.591172 7.086191 
7.754614 18.392902 -4.597109 
12.632560 25.722832 5.379131 
-21.214708 -6.622372 4.448202 
-20.161030 15.457191 4.468776 
17.279591 20.509533 0.972754 
-30.614456 -14.970113 11.369376 
-19.986877 5.701929 4.540696 
-18.204212 10.069422 2.283791 
-18.637093 -5.288705 17.328318 
19.503754 7.480634 10.155169 
16.024214 12.024847 9.081250 
28.509943 -10.031957 4.201533 
20.266502 -1.907610 4.284492 
23.423233 -3.468018 1.909681 
-9.950259 23.645586 2.707422 
-24.983509 7.183094 7.092587 
-5.901635 32.773899 8.160701 
14.116314 18.783583 3.593855 
-32.004772 -12.074063 9.981573 
30.413710 -7.460937 6.430348 
-18.934212 18.490088 11.932797 
-19.577415 14.141494 5.427050 
-30.839317 -13.214903 2.141917 
7.403728 26.866989 1.299599 
23.684586 -16.016243 5.448740 
17.042770 23.859859 1.026791 
-1.145422 25.915249 12.759741 
15.352431 15.963197 1.363914 
-17.048645 23.064404 6.824651 
13.018954 21.102602 11.477743 
-26.479664 -9.732008 7.272805 
-16.874590 -0.511042 10.844145 
17.449751 3.377315 -3.705010 
-25.526897 -6.608168 8.397768 
26.800274 5.374749 1.808991 
-8.446531 25.972927 14.842605 
21.739834 14.430179 6.071462 
0.817608 27.703594 5.371233 
8.806953 26.403721 -1.945778 
-0.210931 26.746746 0.575696 
-6.423588 26.047787 1.711731 
-11.554601 23.202940 11.112416 
5.605807 19.843323 -3.448192 
-4.059140 27.813770 6.814945 
-24.455372 -7.205120 9.003439 
-23.066738 -14.462549 6.696487 
17.244547 4.581098 14.232533 
-22.765757 9.529359 6.576352 
8.243523 32.437897 9.701675 
-7.841679 25.104242 5.207154 
20.902708 0.918372 6.105443 
-22.372211 -7.515901 3.053011 
-25.056435 7.370687 -4.544368 
10.720185 23.376007 12.794196 
-14.730067 11.695332 12.159856 
21.313251 19.180971 -0.720003 
-19.026316 3.405494 1.356465 
-24.789373 10.824475 16.779213 
-26.641605 -15.966607 9.538100 
28.918941 -17.175415 6.113788 
-24.007429 -6.632607 7.318075 
-14.978350 17.440140 5.593493 
22.458838 16.659679 0.662106 
-23.429991 -4.280538 6.942510 
16.582523 6.286417 -1.010270 
5.435880 27.735468 1.975541 
22.504761 -7.957896 3.642129 
-20.712036 1.883912 -1.913580 
-21.131046 16.821918 -0.373476 
11.888302 22.985535 11.163688 
-15.031308 25.923578 14.582998 
-7.846782 31.262394 11.231468 
-14.043969 17.073427 0.467754 
-22.789867 -7.947009 9.455497 
25.450132 7.323840 0.958390 
26.657606 6.452022 7.223813 
-24.615110 -0.899177 7.248362 
-13.574205 19.127232 2.786015 
33.319439 -14.301259 -0.737256 
26.994221 1.226249 -0.935579 
-24.397856 4.656834 6.980502 
22.737576 -10.046385 12.565427 
-26.223698 -17.966679 4.701884 
20.267546 1.931745 10.421074 
10.818975 24.220890 3.437517 
22.581509 -7.273233 8.620160 
0.663239 30.832502 9.150393 
-17.351803 9.452930 -1.275312 
-16.363678 8.373861 -0.661852 
-24.198088 5.174888 10.677692 
-20.889500 3.366616 -0.967687 
-25.464792 -1.383551 -1.144876 
17.686275 20.313374 2.704679 
-25.450172 4.840152 9.436362 
12.381907 23.673124 -0.825773 
-12.505388 19.168446 -1.183845 
28.009153 2.279969 5.659257 
-20.843542 13.129983 2.573675 
-9.871732 19.069242 -0.244410 
-16.155844 22.504995 0.622196 
24.126232 11.130448 9.142264 
11.448020 26.852100 2.672265 
16.776884 23.800982 -2.266741 
-18.855566 -7.593943 12.591819 
-16.996862 24.583191 14.491353 
15.954762 23.478966 -1.703172 
-19.519505 16.291683 6.900867 
4.641370 19.904036 -4.719121 
20.727161 3.721841 10.594313 
-13.857842 20.034508 4.661487 
-1.901658 25.421322 -1.895061 
12.664837 25.606838 6.238893 
-11.288098 29.678743 9.242086 
28.451359 3.792881 6.146814 
-31.561796 -13.334256 12.352719 
23.149797 -7.987572 10.819796 
17.971634 21.023840 3.720462 
-24.131889 10.930745 11.526037 
-23.125338 12.434934 10.697464 
-14.989039 6.685210 13.892693 
-31.113073 -11.777376 17.061960 
-17.645439 4.335267 11.352191 
9.025596 25.039480 11.682321 
15.895005 23.789000 -3.747544 
-24.552490 -16.615761 5.623544 
22.559000 9.668790 -1.356830 
23.638470 4.488671 2.119720 
-13.636593 25.257298 12.139078 
-15.316477 23.476055 16.243662 
18.396832 11.200253 7.125219 
-3.486539 29.469023 13.225571 
5.520213 28.827223 5.248900 
-26.349207 -5.629078 11.768896 
-8.047666 24.360006 4.403355 
-6.440803 21.151552 1.222554 
31.462326 -7.221795 3.642024 
25.735870 10.574288 -2.252718 
-31.243057 -14.671736 -0.269889 
-25.936052 3.985308 3.902530 
-12.752155 12.813445 18.138405 
27.913624 -15.363190 7.577153 
23.283968 -10.892586 1.368026 
-27.161537 -16.579077 1.498571 
-27.631172 -10.613667 14.581441 
8.863681 28.649992 12.122782 
8.854453 26.781847 10.641393 
-31.508583 -13.228827 2.796942 
13.413284 27.536343 17.836838 
5.705052 23.560036 2.768764 
8.039807 27.824562 7.615490 
16.603821 11.315673 2.699006 
-18.100382 21.173038 7.830890 
20.448212 -9.403412 15.578352 
30.315502 0.798861 16.479296 
-20.038172 -6.872612 9.088357 
30.561117 -5.733702 9.582926 
-3.955320 22.835220 1.759337 
18.504133 -2.771250 12.832687 
25.025112 14.032759 12.966832 
19.701145 20.207687 14.959567 
-23.626505 -6.998247 2.790596 
28.764416 -0.880320 13.700120 
19.047316 24.955559 10.122540 
32.092556 -6.776224 0.786112 
28.020260 5.076306 -2.476579 
-23.964653 -15.618278 4.036183 
-21.544266 5.352552 1.571622 
19.761398 1.237986 11.364508 
-26.910572 -14.013264 0.162331 
-19.102329 -8.577109 13.799591 
22.019381 -8.923244 3.181463 
-10.508855 14.709281 -1.902236 
25.393585 -2.767050 13.798579 
8.886669 25.243189 1.252379 
22.165548 2.775441 4.728678 
-16.272543 9.350244 0.751438 
11.905242 29.832764 10.393290 
8.102595 30.243954 7.764527 
24.009735 13.354879 -4.101721 
26.035744 3.750660 0.249372 
20.493284 5.069265 3.115515 
-30.871954 -6.840194 14.571339 
31.493378 -6.567033 2.964132 
-16.681293 4.363600 2.611736 
28.321362 -11.319739 9.614509 
-18.774931 -7.551458 13.854856 
-20.796312 14.754113 6.193657 
32.127464 -14.150681 7.732498 
-4.255196 22.497530 15.542687 
-0.386839 33.360023 7.056409 
19.374062 18.392605 10.086222 
-25.216543 9.097180 10.623854 
-24.076515 -15.871545 12.456450 
25.541594 -12.326187 6.513513 
24.390556 -13.904994 13.837287 
-4.196965 19.494589 -3.802459 
3.129011 25.583385 -1.710168 
-1.152390 29.511055 11.462805 
15.158589 10.106991 -1.318466 
25.034348 -7.841166 2.165317 
0.979895 31.763878 9.992972 
12.292942 26.906967 8.005007 
15.979137 26.539127 11.280870 
11.063871 22.378923 2.747233 
-19.857531 21.221046 13.015061 
19.706793 11.251719 13.356228 
-18.189072 -4.362879 0.985871 
-30.939013 -13.438048 8.509179 
-17.965822 18.198109 13.281248 
-21.047871 15.384774 1.414882 
10.137506 23.156240 11.797983 
26.474249 7.812602 1.046690 
5.122692 27.764233 1.200153 
-22.639484 7.545722 6.097435 
-19.100550 19.510826 0.745548 
-22.576559 4.322278 11.478005 
-26.401846 -17.451162 13.128757 
-12.099263 11.237648 -4.541067 
-27.100012 4.177307 8.752131 
-16.411978 16.480249 12.513847 
18.039110 0.699072 -2.324945 
30.201681 -13.156812 9.896916 
-24.438238 -6.750452 5.395579 
27.650295 7.884022 15.603092 
6.049127 20.233610 -1.604187 
20.405317 12.765574 0.274665 
-23.187397 -5.968092 0.410982 
21.794994 -2.325823 4.259191 
24.963282 2.573045 6.164706 
-19.732851 12.526598 10.993216 
-17.816978 13.391318 7.473882 
22.354958 15.290510 14.145143 
-16.148155 15.473153 1.710521 
-18.653133 -5.717711 4.232842 
20.447214 23.304108 9.818535 
-12.931801 25.652916 -0.984652 
-18.652285 -6.429928 0.707409 
-5.711444 32.117882 11.911297 
-24.810925 3.705580 9.914547 
22.435709 -2.072685 -2.363049 
-17.723114 9.206366 11.172448 
-11.343674 25.156466 4.630885 
-18.661835 19.074400 -0.152019 
24.551870 12.989799 -0.815672 
28.200171 -4.245778 0.008387 
-29.797384 -15.195638 16.903366 
26.115423 9.821031 -1.726547 
20.797276 10.705078 11.661187 
21.639500 -12.566780 13.802017 
16.498852 6.112874 -2.813913 
12.858013 15.870914 15.217679 
24.644468 -11.405358 6.722593 
25.390461 -13.724367 10.611895 
18.583292 -1.081674 9.107576 
17.000366 17.820482 3.524508 
18.219101 -0.427243 3.989991 
16.340282 18.206715 9.249703 
-3.872767 29.295179 5.396399 
-12.035111 20.990612 12.193320 
-3.685280 31.701393 6.271877 
23.767349 14.352840 0.053471 
22.005812 7.046424 6.481431 
-26.581808 -12.601130 7.979239 
22.715096 5.426113 4.334531 
-18.554945 -6.613860 11.807099 
26.111469 -7.075217 8.912560 
-23.396902 14.055311 17.137045 
0.462531 21.559864 -0.878930 
-21.481113 10.471066 1.643366 
-21.313000 -15.223140 1.027904 
-28.015882 3.258378 11.171082 
13.709461 23.638565 9.891843 
25.743008 12.131137 16.625196 
6.031679 31.039284 7.553913 
19.313919 -1.408938 12.010509 
27.551035 -17.303213 5.387366 
-22.123556 -10.408628 -0.186336 
-6.233043 28.673306 1.113403 
5.131181 27.320026 14.984800 
15.443312 26.069363 10.067517 
-19.170904 -8.234543 -3.680429 
-22.771954 9.566166 -0.629905 
5.090683 29.173796 15.787540 
-21.512970 -3.945496 -1.776025 
12.840159 27.494555 6.366399 
-5.613615 23.958496 1.891403 
31.268663 -9.776890 15.627707 
-28.906940 -0.450485 8.231990 
28.444162 1.900040 3.682466 
-19.296125 -1.073512 11.596873 
19.023685 0.623600 9.384176 
-19.766504 17.247313 -4.955217 
16.828754 5.185694 -3.804206 
22.060469 -10.537772 3.565797 
27.072081 -3.990048 13.671905 
-16.926846 0.336674 14.231669 
28.665396 0.967746 0.044881 
-31.323389 -13.089248 4.629424 
17.722063 18.765099 1.231625 
27.803772 -7.638793 14.692247 
13.912368 19.365847 -0.909699 
-12.397967 24.615692 11.148521 
25.410048 3.994680 5.499681 
-10.340761 23.495852 10.640255 
32.590248 -15.084992 5.766231 
22.040522 18.709015 12.036382 
31.869177 -12.875978 8.317346 
17.488272 12.056268 0.446644 
29.736057 -1.245460 13.539504 
-3.639622 26.566601 14.583897 
-10.796965 22.131388 4.674648 
-20.697849 -12.887371 14.119155 
-25.789497 -1.549077 7.296014 
12.969479 16.446329 1.364087 
18.243351 16.442764 8.319495 
26.332838 -4.424429 13.601195 
-27.748175 -1.808746 6.413177 
14.048151 18.049068 0.514365 
-25.705093 2.703892 6.511017 
-31.073494 -6.932024 -2.426549 
-10.475368 19.697496 2.827465 
15.927876 25.121647 11.049126 
11.894092 29.729225 13.456878 
4.661042 32.323166 13.907413 
26.611355 -3.022017 13.813034 
-19.771309 10.830224 8.940264 
-10.339218 26.850477 -0.798030 
-26.458551 -4.855140 4.552860 
14.764031 27.385263 10.076089 
18.657984 -1.205982 16.093185 
13.365531 26.669834 6.782342 
6.919766 26.024227 1.181397 
4.654776 32.008038 5.406928 
-19.155596 -3.980139 6.104301 
4.820241 32.784050 9.966952 
-3.975346 25.393097 12.970527 
-17.811529 18.007200 10.018492 
15.247591 11.526568 11.582480 
-23.813873 -9.769645 -0.348831 
28.307018 1.512966 5.748406 
26.140215 3.591421 12.329499 
-7.853588 28.032829 2.446286 
21.600803 18.213352 9.140825 
18.839413 -1.114681 -3.460915 
2.757567 31.470310 12.422098 
-27.025587 0.174981 7.041090 
5.465599 25.632313 1.234028 
-15.828682 4.234133 15.079962 
-21.493870 2.898572 -1.589581 
-11.587294 24.688612 -1.288501 
-26.746168 -4.228383 7.397657 
-1.632707 32.145538 6.052575 
-9.019444 26.331511 -0.539370 
11.565638 27.111961 -0.919687 
12.510668 25.306852 -4.868838 
-19.581013 18.795572 0.959427 
-2.273032 32.727322 5.409367 
-25.983061 5.480628 -4.464453 
28.783445 -5.704263 9.189581 
-2.110121 28.826435 12.093959 
-18.066580 9.060365 6.231027 
3.424022 33.056274 8.630528 
17.915909 0.101549 1.934038 
18.321857 0.786573 13.295644 
27.267578 -14.201021 9.022668 
26.836149 -7.682097 7.904808 
-15.112331 23.310375 -1.841693 
19.629520 8.462894 9.666940 
0.833292 30.600815 7.216002 
23.284538 15.837884 0.699947 
-14.649374 24.219599 -1.807078 
4.695290 31.477905 6.443613 
17.055267 18.187355 -0.375659 
20.511211 19.102560 0.931894 
-13.159654 11.710430 13.593698 
-26.751175 -14.866961 13.908160 
-11.890634 26.772142 8.464122 
20.826777 -7.500345 -3.113739 
22.654202 -9.633160 5.887431 
-27.522865 -14.777205 6.968579 
28.308613 -10.008387 8.055275 
14.732496 15.615401 11.676399 
-18.353155 24.670422 8.076340 
-30.083742 -11.915884 14.513306 
22.038519 2.680643 5.818877 
22.993801 -14.048532 12.673559 
-22.240791 -10.953625 12.315262 
-30.883419 -6.956240 9.909897 
18.386852 19.735308 14.827172 
14.367084 13.123139 0.918688 
18.930704 9.095719 9.088541 
-30.220579 -7.968447 4.632032 
18.410168 0.120530 10.372558 
22.090172 15.360859 5.372828 
21.928501 -6.548420 10.027137 
-31.103565 -6.668610 -0.002495 
-3.268197 24.170757 -0.828448 
-22.048605 -16.571045 2.871312 
10.980491 21.063499 -0.100825 
17.053221 5.517095 12.866464 
18.336237 6.454682 11.914291 
4.958166 25.794399 13.330075 
24.938097 4.374225 9.100337 
-26.271523 -13.404326 7.975411 
7.407616 26.405411 5.469111 
26.458460 -6.528903 13.558615 
20.973627 -3.922828 5.249573 
-3.018215 24.820307 3.080333 
21.393026 12.379648 7.919909 
10.782092 21.355806 0.833499 
21.849773 11.322083 5.306607 
-18.642075 13.400270 6.360977 
-22.462793 -2.279103 5.254667 
-30.390650 -6.634995 7.891383 
-17.164341 -2.989438 -1.656618 
-27.385120 -0.519986 6.685942 
16.717371 22.577698 12.576487 
-21.640434 1.690984 9.740876 
27.575371 -6.525777 3.541935 
-19.381157 4.024268 2.565553 
-1.023275 21.929462 0.294754 
-4.828473 25.167770 2.167351 
-13.383614 18.684643 -0.506247 
17.943071 25.153616 12.963779 
6.715700 32.400532 11.122176 
-16.145672 15.293015 -2.662915 
22.721840 -2.196473 4.033198 
18.371014 7.406255 11.199811 
-24.948179 -7.488345 8.295161 
-30.509794 -5.761213 13.446651 
26.901636 9.027276 7.843728 
-18.005823 13.812126 2.015352 
3.315056 28.979240 5.738483 
-24.591375 5.982088 12.145456 
25.589634 12.203561 12.222111 
-25.024494 6.213921 11.292153 
-8.050342 17.558882 -1.882476 
21.413471 7.817581 6.136314 
18.061821 -0.984429 -0.843947 
-22.011209 9.498535 1.460330 
31.006058 -3.729393 12.073320 
-9.457376 19.033705 15.304826 
-16.482872 6.559098 -0.432010 
-16.679853 19.237057 2.603639 
29.534349 -4.062479 10.014212 
23.267323 -9.984396 8.254046 
1.465563 25.006569 1.892418 
13.675310 18.722095 -0.456225 
-28.218050 -0.664858 6.477858 
-2.613462 27.729118 -4.147871 
-18.556339 17.060902 13.103924 
2.710321 25.463848 3.947310 
-6.861603 24.565922 11.597325 
4.844749 29.550995 13.414004 
-16.133808 23.959364 15.721813 
17.703667 13.665350 -1.840665 
-17.389000 8.589323 11.596887 
-13.765385 24.015102 7.688474 
2.886822 23.897509 2.612805 
5.336285 30.592714 8.245405 
23.045235 15.735339 13.940176 
-18.596016 18.120903 9.336507 
11.916406 21.173182 4.252982 
-17.450710 -1.690576 -0.378418 
-24.908972 -11.474425 6.150917 
23.289671 2.631453 12.887609 
18.276752 18.156116 13.751415 
-18.866434 19.246832 1.684107 
-9.863146 28.399118 17.901836 
-22.274933 13.111107 -4.787578 
29.910494 -15.568801 2.362050 
-20.025578 10.109335 6.750132 
10.742679 26.013676 9.754667 
19.105385 8.041615 5.355982 
-17.163439 -1.362007 14.583510 
0.104188 31.100061 12.066113 
19.844530 4.585428 4.482268 
-19.296703 11.402591 7.987632 
17.421885 21.756908 6.442337 
-22.988417 -3.899797 -1.543376 
23.512224 17.465960 14.110420 
28.284887 4.014029 -3.573246 
21.814623 4.199190 7.041478 
-29.439280 -1.655223 17.518681 
7.782818 26.667578 -0.259882 
17.075470 22.107626 7.438516 
16.188131 24.166553 4.577327 
-23.976536 10.320762 0.643479 
-12.172759 19.034266 2.994321 
24.491274 13.685281 8.788361 
-2.835929 32.181469 15.505048 
2.927812 25.548283 1.913524 
-20.078600 20.963585 8.977823 
-18.864994 18.319435 3.820289 
25.868856 -17.799454 4.688899 
23.706694 -6.992346 6.289680 
-16.559834 1.907221 14.315820 
28.373045 0.710919 6.067649 
-29.936295 -1.720176 13.074061 
20.847879 3.525119 1.230889 
-7.354188 22.385324 -0.587250 
25.012001 10.589588 6.285808 
11.118873 29.285702 16.658001 
-26.209314 -6.489893 6.148607 
-25.200441 7.993905 7.274629 
30.061035 -17.800451 6.093638 
-22.504787 -6.429931 6.349486 
-17.949305 13.555274 -1.403427 
6.981139 28.864750 2.804636 
-23.021311 -8.470551 0.606258 
15.971147 24.583132 3.187446 
20.129021 20.317257 0.006740 
-2.759574 26.684246 1.588652 
32.636337 -7.613029 16.425037 
10.207325 29.296242 17.634853 
-16.809179 7.847561 4.186397 
-24.612688 9.640704 10.460753 
0.076765 26.503380 1.691373 
-8.944555 24.175434 -1.381961 
-28.979733 -0.188188 0.673373 
-28.076939 1.996425 -2.387935 
-23.978685 -4.468884 12.673192 
27.756798 -5.096373 0.046160 
21.147741 -11.422483 13.633291 
24.166433 10.429636 6.553562 
20.633709 -5.526399 10.505682 
23.732645 -5.595489 -1.325011 
-23.822855 -6.963567 4.022915 
-25.439920 5.895166 1.054361 
23.577829 14.212196 0.856304 
18.954615 8.115663 11.428215 
16.318546 26.664215 14.355772 
-20.039455 -10.399472 10.766177 
-3.361183 19.968410 -3.491589 
-28.945976 -1.691339 1.946943 
-19.610966 18.126350 -4.008964 
-7.606849 16.816055 -4.750428 
4.553030 28.316593 0.989966 
-14.518602 13.772038 13.592059 
-17.364769 -2.033769 -3.961214 
-13.932167 23.819733 -1.956198 
-26.448109 -11.342077 -0.352271 
-25.078375 -16.807398 16.819094 
-21.623249 5.580952 0.666780 
-24.287750 -8.909212 2.830584 
-18.327997 -5.328704 15.741018 
26.923855 -7.660695 4.043418 
27.930807 -15.269988 5.884878 
25.809719 -4.278477 2.679822 
-20.957169 -12.411845 1.748253 
-1.719983 28.345654 -0.344641 
23.712000 -9.372480 6.372491 
-28.794376 -6.247949 11.933399 
-11.814929 20.896137 13.367167 
-2.012479 29.108776 3.884286 
-6.115144 22.792723 2.504633 
-5.561166 26.591734 14.221083 
-12.686177 19.183075 2.101482 
-17.868387 2.263392 4.937918 
28.981556 -5.928816 13.892466 
27.364464 -15.728498 7.095387 
-29.511900 -8.984700 1.271057 
5.636622 25.684383 2.149834 
23.072531 -14.835932 15.691016 
-4.519728 21.761868 16.910444 
1.479195 30.724634 13.420392 
18.380259 -1.035206 0.626886 
19.485378 0.300783 -1.434759 
-23.026575 -6.766994 3.870880 
-8.624596 24.932426 -1.846152 
-18.798563 -3.886260 8.255787 
21.714729 -5.412928 4.520923 
13.328244 23.637756 9.121721 
-21.013586 -8.906668 2.608893 
-22.640148 11.347336 8.220323 
-18.944923 16.674864 14.155354 
-6.448449 26.037031 -1.808255 
8.881903 30.702009 15.609902 
26.689651 9.152744 17.880455 
24.365669 -8.841479 1.387771 
24.770489 -16.987429 1.306364 
-21.766813 4.885409 2.638796 
-27.373711 2.778432 1.630512 
-24.509651 -6.857053 2.381093 
-1.110207 29.033421 3.930364 
-26.958532 -2.225317 6.681306 
23.237881 3.549263 -0.739357 
11.423299 19.946356 12.764428 
-25.515423 -17.034317 4.864673 
-15.746318 19.673861 2.521196 
28.522497 -15.799623 1.928632 
-18.950890 17.241806 8.243422 
-27.688751 -2.642770 0.255100 
-17.972839 11.825999 3.699198 
12.687706 28.880636 6.366346 
30.189020 -9.247104 15.559533 
-24.776144 10.983761 13.629949 
-29.408440 -15.293008 13.153523 
-13.743051 13.301130 4.530395 
-25.625216 -17.348911 9.929860 
20.768114 21.434738 7.141133 
-6.331823 28.408976 7.380455 
-21.557787 8.988889 -1.326839 
13.223717 17.901684 0.805208 
23.349657 3.431471 2.752611 
-32.012859 -12.792291 10.501890 
26.489132 2.335886 13.351315 
-8.522556 18.478779 18.386402 
-23.751970 -12.485363 5.999737 
30.305162 -1.961388 11.118937 
-17.817585 11.250108 3.093121 
-19.694740 14.762618 6.492497 
-26.357992 -8.570729 13.829391 
-31.209249 -10.433272 8.459736 
15.884034 8.222009 -1.433812 
24.920101 13.425459 18.078981 
24.613575 4.643294 11.990612 
-28.453915 0.719290 7.309042 
16.348335 17.512356 11.401583 
23.248709 -3.275299 -2.132259 
-18.988865 0.871597 5.403600 
26.504091 9.531227 9.700557 
-7.659902 23.144619 -1.175860 
31.844893 -3.324142 15.179388 
-14.479892 16.097584 4.379612 
-30.011457 -7.048324 12.524947 
21.866636 2.350145 -1.823467 
-24.623035 -5.803503 12.251296 
19.738987 2.233133 0.103001 
7.041824 19.128645 -3.406100 
-18.121964 1.354612 9.825226 
-9.755607 20.211151 2.428413 
4.088306 29.104544 15.693528 
-2.723234 30.679354 16.046730 
-8.974466 27.521080 5.942678 
24.740194 6.145238 6.466760 
25.540325 -14.751432 4.725402 
-21.918713 -8.081455 10.878946 
29.425018 -15.619591 13.087512 
-26.208481 1.415329 11.021907 
-23.564062 -5.679699 6.361508 
23.306936 -3.761184 13.365386 
-25.025255 -16.169823 6.160764 
15.273993 13.842318 10.571132 
4.045472 25.868113 -1.714163 
20.774200 11.950348 4.128988 
-21.584726 -15.009700 -1.281524 
8.965049 26.634680 6.649957 
-17.938824 3.538556 9.230141 
-14.591356 24.903013 2.338524 
9.042445 27.845642 11.012081 
-23.213020 11.788751 -3.602032 
-5.947724 26.839619 10.647300 
-29.789070 -12.730218 12.786247 
-27.942976 -4.481540 11.082943 
-24.991089 -1.463616 13.212325 
14.817886 24.580473 6.042450 
9.170758 21.694477 2.613154 
-12.356902 22.814299 -1.993819 
2.720421 20.772419 -2.600240 
20.351501 -8.345614 17.098892 
-21.351698 4.563414 1.880730 
9.164260 31.933304 10.107410 
22.215837 16.329723 -4.276547 
-16.989456 -1.203079 13.403529 
4.199577 31.423964 17.407173 
-14.337315 12.055860 9.255079 
-22.325657 4.151558 0.038131 
21.322569 -11.508109 15.692778 
32.772003 -11.315919 15.950015 
-22.523508 8.723402 -0.858283 
-23.148508 -6.611507 4.770349 
-10.557448 17.232185 15.988569 
14.261187 26.595819 6.481109 
31.844425 -7.436985 4.460959 
22.534111 -11.165479 12.549974 
-26.521542 7.290202 13.738537 
10.993511 25.876577 2.524947 
20.738762 22.372244 7.531441 
18.243591 2.171778 3.953035 
-1.894048 30.954741 8.178618 
-19.082272 10.220551 -1.327854 
-5.145245 25.963215 13.630051 
16.964792 11.767136 1.959878 
28.845881 2.284165 5.672508 
-21.740578 -15.597437 3.421299 
-26.713608 -14.520984 7.036587 
-22.424799 -9.556938 2.507063 
-6.856918 29.923296 17.785089 
18.425028 21.573711 2.206189 
-16.840359 8.918428 9.541748 
-20.114632 -3.693988 1.408143 
-20.745382 17.768946 -0.336101 
-18.418007 24.571775 10.806538 
-26.393744 7.233425 12.380838 
33.301800 -12.268220 3.870748 
23.455322 9.075420 6.505600 
-22.283400 -16.544703 1.011242 
-9.872381 28.594679 14.135204 
-16.896275 13.430620 14.784035 
6.623475 22.061314 15.454300 
-29.757212 -10.585449 14.491647 
-17.915426 16.218035 7.264077 
25.472246 5.281627 3.191768 
-6.465382 32.565884 9.125842 
19.206875 11.613181 6.915086 
-18.854687 15.502839 12.053863 
-20.931631 4.395289 6.189716 
19.151020 5.404313 12.047354 
0.708618 31.360399 17.847511 
-8.440617 28.160116 13.405377 
-14.038873 26.831728 10.953442 
26.942083 8.067559 6.615489 
-11.440503 27.789993 14.959607 
17.824667 0.093914 2.897057 
7.052777 28.767269 1.094406 
31.274546 -6.205908 9.227546 
18.311361 -3.089185 3.168601 
-24.066217 5.353138 12.029856 
4.248932 24.466507 2.145713 
19.876425 24.183792 8.410210 
18.608721 -4.030787 4.469828 
-18.043962 24.608286 13.400813 
-13.933516 15.149018 -1.681203 
24.272043 15.671943 16.473526 
16.853020 7.898619 11.825155 
4.908407 30.430328 18.899130 
28.087524 -2.408100 5.738436 
-17.612289 4.942832 0.486195 
-28.482975 -6.157536 8.180658 
-21.178547 3.753139 10.197407 
25.098988 7.008362 4.644788 
-18.769659 -0.899785 4.572662 
-6.503119 25.988432 10.823764 
16.932020 18.831793 4.470418 
7.734375 31.711950 14.638054 
-27.808825 0.354354 3.756442 
-5.607818 24.178865 12.475062 
-25.759184 8.950590 13.051728 
-12.251571 28.601942 11.676689 
-2.843734 27.770832 1.471259 
-27.171843 -12.454139 8.627094 
-13.996375 26.422548 11.766729 
-12.118805 15.121065 1.656031 
17.582451 17.567795 10.163117 
24.889421 6.795625 5.934858 
24.057779 2.270166 6.112488 
-28.986015 -5.194452 10.894884 
20.265484 1.261810 -1.996951 
4.093562 28.978975 3.946290 
22.428766 -4.771219 10.266864 
28.779667 -8.472627 15.233225 
0.522907 20.714008 -3.355940 
16.109739 23.470627 11.724225 
-28.440697 -16.456255 4.537652 
-12.443223 11.523463 -1.115247 
10.063919 27.605394 -1.053608 
4.571270 28.713896 2.045954 
-1.208264 27.385578 -1.541887 
-26.008850 3.865179 0.534044 
-14.414843 23.995071 12.017528 
-14.483773 17.385769 -0.226411 
-20.942369 1.050524 -2.067422 
14.353533 20.167967 -1.345158 
-10.500013 25.762403 7.556082 
22.589062 -8.284040 11.664826 
11.566980 26.462976 7.725310 
-26.463875 6.477868 11.852747 
14.103086 23.149361 13.550996 
-27.005589 -1.457021 5.798072 
32.816792 -10.634352 10.856084 
21.741529 -10.144710 2.818032 
22.278271 -10.434898 9.597114 
-19.047478 -4.945198 -0.009513 
19.311735 23.991432 15.963066 
-11.050406 24.038502 11.022049 
5.834001 27.236841 2.558656 
-18.656027 5.788981 -1.357703 
-13.592368 20.580030 5.293426 
15.151941 22.759113 7.898595 
2.800685 32.895069 5.363545 
21.085180 2.613233 9.950856 
-27.259918 -6.222077 4.752838 
-28.437168 -2.256775 6.218417 
27.080292 9.557537 13.225269 
-8.878963 15.992524 -3.531463 
9.706021 25.094250 1.737361 
24.592213 6.949677 -0.512133 
24.543715 -12.332817 14.227269 
18.405762 21.737747 -3.421555 
-25.511208 -10.400847 6.223046 
23.817968 -2.677782 10.700939 
20.874926 13.288709 -0.146056 
-24.838377 7.980889 12.546968 
33.350494 -10.269083 -0.346583 
-25.112268 6.979195 7.946558 
27.765114 0.167657 11.075352 
16.488718 24.242432 7.519890 
30.859859 -0.199200 12.703017 
15.485959 10.096585 17.949360 
27.033812 -15.510321 14.582976 
-5.913281 27.490341 10.105215 
-21.489462 8.688040 6.732273 
-18.460756 11.306616 0.817209 
-28.518435 2.970143 12.365233 
13.829322 24.619644 -4.814816 
18.352270 18.589115 10.343801 
-16.874165 7.542275 -1.461824 
-10.096604 23.727045 4.640062 
-25.997293 -15.725398 0.674823 
