10.334143 27.331190 -2.032068 
-29.415512 -19.963463 3.160043 
19.199411 2.918519 -4.492974 
-29.235458 -3.160845 6.232177 
-25.616426 -24.307785 2.033276 
-22.830553 -9.863414 -4.648887 
-12.733735 12.272442 -1.292611 
-13.022886 24.833082 -4.475521 
-22.328276 -16.524269 11.465322 
-18.327847 14.193422 9.007452 
23.318224 15.140090 1.234791 
19.802284 -2.669794 10.411648 
20.247620 4.428049 7.506948 
-18.687178 9.369348 4.880649 
-24.197401 2.062589 3.719484 
-29.389507 -16.771530 -1.242623 
-29.282745 -9.587914 1.532716 
-30.358456 -8.482312 -5.015920 
17.158836 8.942905 11.717478 
-23.257458 6.922079 1.322510 
1.198285 26.262661 -3.023865 
-18.063158 -3.006853 10.497032 
11.705024 27.617966 3.911255 
-15.518735 7.051254 2.694423 
22.403677 -18.149904 14.237720 
3.262619 29.495598 -4.566472 
-16.319347 8.748483 3.953934 
14.792742 5.589007 0.654434 
20.937912 4.778054 -4.125621 
-12.887100 17.550560 -3.862820 
-17.807951 9.672794 -4.914008 
-23.577499 -22.308565 9.479792 
-11.320190 21.217100 1.139340 
16.111055 9.655215 3.378158 
-21.383823 -15.341825 4.389361 
-24.216366 -9.432824 4.074310 
-23.134272 -4.343351 -4.484660 
22.818373 11.592265 -8.804163 
-3.410034 27.001762 1.076971 
15.493380 24.621342 3.671876 
-13.894146 23.492649 -10.649179 
-20.006189 -5.629966 -4.875440 
-24.534960 -4.763361 -3.420707 
14.788684 24.283827 5.178959 
-17.344067 -0.674924 -5.235642 
15.621605 18.583899 6.955721 
-21.501928 -17.804558 0.963018 
17.894440 23.393415 -6.314977 
17.112404 24.590952 6.728396 
19.372654 19.609640 -3.288002 
-10.635243 16.123508 12.457417 
27.952213 -12.779350 10.791379 
3.150412 20.311029 -8.668358 
12.394948 9.188623 -0.275461 
-5.477669 20.355692 12.395880 
12.275074 28.471119 -4.249877 
-17.348066 14.700080 -4.928541 
9.693144 32.200939 7.123867 
-13.131947 19.613781 8.336933 
-4.724270 20.770674 -1.567963 
-21.055115 -17.170149 1.627172 
-19.450066 10.488530 0.467226 
5.686704 28.678524 15.516398 
-13.972534 20.415131 9.786544 
-19.427252 -12.829911 10.943215 
-20.894199 21.257259 5.584058 
-10.053348 22.231098 0.614254 
-23.718815 -25.192511 -1.962522 
-10.780590 23.144743 -6.387636 
-25.399658 -2.233799 2.297961 
25.937490 8.466382 7.347079 
-17.508175 17.704979 10.367117 
30.066286 2.757511 5.133056 
-19.751070 -2.854477 -5.388483 
-23.942446 -21.195026 7.674956 
-0.592511 29.368898 10.846849 
-17.034538 21.253162 -7.578709 
-23.826042 -18.820528 -0.429823 
5.916856 21.075573 13.909700 
-27.003578 -17.543499 4.347287 
19.285683 11.874131 -1.512057 
-18.734440 -7.329891 -0.699232 
19.776278 -3.321277 13.658963 
13.951275 28.445156 3.230134 
-5.791583 24.063383 11.211802 
17.864429 -3.176927 -4.091844 
-29.509563 -19.419827 5.714015 
-10.701722 19.058525 -2.637437 
-16.752768 20.026911 1.308344 
26.837353 14.039112 1.299249 
-20.624268 -19.067564 -4.154214 
-29.526827 -12.451017 3.582121 
16.185673 26.374712 -4.426366 
-28.397635 -24.651455 7.825568 
-19.849890 -5.642299 3.061519 
23.949547 9.591582 -5.882519 
-13.749469 22.730213 3.604506 
25.152592 -8.874808 5.558294 
-19.332687 -10.734164 2.238227 
-19.953308 0.088644 6.351268 
20.648359 10.292943 4.421525 
30.783766 -3.536433 4.194874 
-11.060313 23.600021 4.791479 
-3.603144 25.226931 6.667866 
-13.862130 28.406027 5.538216 
12.605424 8.051682 -0.099498 
20.629959 9.910277 7.806004 
-27.817923 -14.446058 -3.292331 
21.306072 -6.642324 7.883450 
27.413738 13.859624 6.910765 
-10.293080 21.096346 -6.075469 
5.134276 24.751312 -2.799689 
-24.776140 -18.600876 0.119019 
13.143374 22.740328 9.569098 
17.311375 3.773893 2.988472 
20.402792 17.673626 3.683560 
17.980246 18.123144 4.754892 
-29.161337 -9.977775 -2.170919 
29.289856 0.341810 -7.568664 
-22.127890 -21.340364 -0.292250 
-13.258678 10.817177 15.736006 
30.994492 4.055624 12.189270 
16.985331 12.701283 -3.331512 
23.833414 -6.457214 12.283790 
-34.083099 -26.385040 12.808496 
4.051793 23.925087 8.873635 
-24.606993 -4.528626 13.511201 
-12.326606 8.793013 -1.122023 
14.832595 21.837246 9.228806 
-8.248938 24.242760 3.419705 
-16.326565 -4.696744 -0.779459 
29.354200 -2.843174 -4.552243 
-31.536930 -10.824562 -4.098761 
-25.588610 -8.367523 3.885495 
-32.180542 -14.866974 -1.123799 
1.420149 21.523443 13.966294 
6.502042 33.646851 5.868883 
-15.579499 18.222797 4.744594 
-31.478949 -21.551979 5.330020 
23.790718 13.877632 7.718962 
20.326906 2.771115 -1.767346 
18.175323 12.912753 4.483892 
-10.603347 25.465252 4.375004 
30.943296 -12.962794 11.283415 
20.879221 22.080606 0.028237 
-24.394302 -12.001876 12.339609 
14.950648 6.442893 2.199193 
-30.997305 -22.515457 -1.166908 
15.968936 2.024384 0.398394 
27.678625 0.224203 -0.437450 
22.835871 15.464803 11.924306 
-16.138119 20.076237 2.370338 
18.913980 21.090101 -2.179857 
-3.229259 19.982878 -4.282029 
-27.402803 -1.524038 -8.404582 
-17.278803 11.318460 -2.296416 
-12.715586 20.854641 9.827496 
-20.993397 -10.021719 6.602992 
-20.087543 -0.637940 -5.308870 
-19.437338 4.171224 -2.265210 
2.096570 32.495148 9.050936 
18.664402 -1.019294 -4.528322 
19.951084 21.051174 8.016662 
22.886072 -2.585780 2.329026 
6.314574 30.047043 2.841843 
-21.335506 -14.403202 -4.205734 
-20.675093 -17.009481 -2.174329 
-28.703583 -27.178265 1.169421 
-30.082846 -7.504182 10.500442 
18.536201 8.340811 -1.173155 
20.795408 -2.241841 -4.539299 
-22.612467 8.470811 -9.312292 
-21.643860 15.399344 2.175129 
10.115766 29.427298 6.522589 
-24.352699 1.024311 9.693488 
-19.377380 18.313194 -4.415926 
23.923481 -4.457262 -0.529218 
10.911739 28.244808 14.863966 
22.826408 9.557992 -2.375092 
-18.579319 23.647659 12.693139 
-11.692738 21.014868 10.100991 
-20.832212 5.436005 10.245933 
-18.888275 7.547313 3.702514 
-3.669908 27.888861 4.828097 
18.164560 10.033242 7.196680 
-12.362294 12.689772 1.208163 
-25.314060 -5.581699 0.068672 
-23.294586 -21.882038 -1.501562 
-27.699261 -19.508419 8.342758 
22.085958 23.651379 12.947227 
-26.356047 0.598356 -2.032762 
26.943243 -15.540380 8.519489 
21.467974 7.371603 1.927601 
3.911496 26.749729 6.740256 
-25.615400 -4.963346 3.115597 
-21.677509 -17.792145 5.483300 
-20.056684 15.802309 7.190821 
-21.703907 12.133568 2.903743 
-25.115789 5.805564 2.426561 
25.340418 1.176863 4.263232 
7.042401 31.348139 10.854108 
-31.727829 -19.710964 7.531162 
-11.168280 15.974891 11.357511 
-13.245063 13.184252 -4.680291 
8.688520 33.675301 3.318094 
7.858129 28.473021 13.475133 
-28.702089 -21.183588 -1.582792 
20.688320 -9.879066 12.909194 
-17.423731 0.107493 2.207633 
-33.566692 -23.812546 -0.356533 
11.904377 24.469284 7.089813 
-16.152338 -3.501359 -3.536083 
8.783353 25.913683 9.466937 
9.931215 24.158901 6.609167 
-29.815475 -28.109640 10.497799 
-22.146870 -7.659614 -0.207546 
-31.491690 -19.259062 0.455717 
25.895731 -14.681082 6.540616 
1.610688 29.112583 3.747699 
31.154762 -5.488642 6.797231 
11.927277 22.099104 -0.403649 
17.161915 15.086793 3.308468 
-21.030029 -20.694458 11.355357 
23.487320 17.865685 0.806851 
-27.219971 5.919950 11.106102 
29.999590 2.488946 4.119692 
17.176907 13.101461 6.946871 
-27.517120 -28.992514 -1.733512 
4.032177 34.242249 4.257488 
27.850418 3.674541 7.752494 
-11.593442 20.096991 -5.836079 
-5.418278 26.000355 -1.075976 
7.626108 32.437531 2.740000 
20.656981 -5.078780 11.818000 
15.674601 3.186482 -2.533207 
10.019689 30.998268 6.647595 
21.374870 20.100359 9.586287 
2.238345 28.316095 -1.271579 
23.762894 7.356009 -1.281627 
14.059215 12.732540 1.469085 
19.399786 17.157337 -3.778672 
-19.477999 -5.394548 -1.956793 
24.209541 -1.432867 13.458438 
17.626511 10.369221 8.013126 
-12.859923 5.175006 -2.534756 
14.544007 10.851918 1.751546 
38.659042 -18.698992 10.537956 
-19.105516 -6.351979 12.212843 
7.600547 27.033489 13.459079 
-1.333501 29.148823 -1.518110 
-0.771368 20.852610 15.778790 
-12.507344 19.841877 -5.632056 
-13.033669 19.245886 -2.391510 
18.475559 15.207206 -3.098231 
19.822773 10.020794 -1.508967 
-27.981543 -16.616583 -2.631130 
-13.423849 19.028847 2.522309 
-24.615101 -1.479018 3.841780 
-29.219215 -5.772228 9.742895 
9.157013 23.888235 7.353017 
-29.203396 -1.285134 11.616107 
-23.474972 -26.988712 -4.379513 
-19.507847 -9.929689 1.607889 
36.229961 -11.533227 3.267444 
-7.768661 25.364639 -2.597484 
23.015020 -8.443617 7.332583 
27.892708 14.011910 13.668937 
-28.971741 -1.255218 10.591187 
-18.372227 -6.655205 6.911351 
15.508965 28.885944 2.094683 
22.521517 6.881187 -3.066767 
21.029646 16.253803 -7.796410 
-15.603994 14.920842 4.390021 
6.479889 22.564428 9.976970 
22.279633 23.248028 4.030583 
-28.757282 -5.961670 -2.623272 
-28.427107 -3.711738 12.741143 
20.983835 -4.485133 -1.782553 
-19.723656 -10.440531 15.262192 
-21.705164 -3.517867 2.215823 
0.475096 20.593662 -7.382003 
-11.750843 28.510914 7.296885 
-17.603838 20.417950 -7.476913 
-15.326563 16.047352 8.941261 
-4.007199 24.984158 -0.273945 
-3.301184 19.082819 -10.019743 
-16.566507 6.987328 -5.773588 
-1.300644 25.992325 3.574986 
-12.429515 6.360699 -4.188025 
12.493976 17.594082 -1.462972 
-21.078730 4.642685 -1.840325 
-0.342623 29.008965 0.982672 
19.715073 -1.643176 9.566809 
-19.220749 23.147316 2.761315 
-27.200342 -6.222953 12.908950 
19.558231 13.599936 -0.259310 
16.696800 27.951757 2.599075 
-9.510068 23.476688 -5.529943 
-18.655317 -0.499993 1.802461 
-34.921452 -24.759874 9.486429 
-14.692404 24.316126 0.262035 
-17.500196 10.040238 6.360413 
27.082066 -16.180048 4.958939 
2.587739 21.522470 14.054775 
8.972696 19.480385 -4.568584 
17.121857 1.182122 3.264371 
-0.746502 25.697016 7.567748 
10.073666 21.318623 9.652402 
-2.805859 32.819584 4.595772 
-26.420471 -12.159019 -0.557084 
10.052152 26.239376 8.471530 
-6.925745 23.332678 7.488032 
-20.215544 10.853497 11.264378 
-21.355455 -13.590220 11.354806 
7.705150 28.242926 3.992976 
-15.164859 23.273018 -5.368631 
21.948746 13.516648 6.927092 
-5.092375 24.738922 -1.448969 
-27.405449 1.470975 3.797065 
-24.217743 0.444443 2.417351 
-24.205658 0.281868 -1.212428 
30.783337 0.128438 10.721416 
5.320529 29.927860 5.245174 
37.182121 -17.627731 5.674458 
-27.119471 -19.363253 -0.960091 
17.133434 16.915401 -1.621134 
24.002981 17.764679 7.443896 
2.879720 28.782038 10.197139 
6.584014 26.710728 6.272286 
-14.295763 19.274530 -1.433251 
-6.432612 24.367691 -1.624680 
16.246597 23.754240 -10.132120 
-18.428440 -5.171109 4.412778 
17.939705 -2.814342 -2.437742 
15.054579 20.136839 8.957229 
-12.247239 9.212997 -2.360072 
-6.488792 31.371668 7.714864 
2.807207 29.657654 -3.264476 
28.879318 -15.639028 4.700511 
-23.615627 -24.924248 9.246241 
-14.963388 25.962154 13.284947 
-13.487353 25.046034 2.979557 
21.285185 11.444089 -0.804900 
25.785576 4.757455 0.537453 
27.043760 -12.009819 6.183097 
-17.709431 -5.938022 11.969327 
-24.387300 2.830960 3.315331 
19.376741 9.542625 3.225673 
-20.261154 11.832744 2.439272 
30.329296 4.707874 10.922165 
4.931858 26.347712 13.369720 
-20.244444 22.697556 6.991464 
21.022495 -6.687857 -5.757763 
-22.005468 18.032629 7.449054 
-23.507166 6.934988 -7.635203 
-13.958829 23.633894 4.692923 
13.165380 27.398611 -6.114245 
-20.456038 5.292758 7.778649 
-22.546677 -17.837061 2.786821 
-20.419966 -17.630629 7.385231 
19.276228 7.555809 9.305499 
-0.792358 22.923927 -1.922373 
-4.129268 30.671694 10.986554 
26.953568 10.019740 4.348557 
-24.625355 16.708445 6.796910 
4.800656 30.359619 -1.765253 
18.623129 13.535616 1.386758 
-11.763176 19.103260 -0.367508 
-20.964729 -3.717571 13.120134 
-25.694738 -8.149055 12.380094 
12.212947 28.965591 0.083299 
-6.712111 21.956127 -3.822104 
23.757189 4.789225 9.717813 
-5.304904 27.028681 0.480968 
-18.353996 22.944906 14.906434 
12.443582 20.885643 -1.405237 
-16.958015 -4.060240 -3.405981 
-7.789034 18.180847 14.316940 
17.940763 0.370907 -4.467692 
-17.765461 12.986368 1.340628 
21.579042 0.809990 8.825180 
-25.988714 10.995538 11.555714 
-6.258471 19.599737 -3.322127 
12.560264 10.864266 1.208864 
-4.575483 28.517918 15.168684 
19.638838 -2.678350 -4.152686 
12.666750 27.998053 11.592464 
-9.105247 25.531681 9.994587 
35.177879 -5.510563 10.185502 
-22.356884 -14.389992 11.788091 
-20.188198 18.787081 1.615652 
25.615776 -1.412523 13.539772 
14.407156 5.264874 -3.948734 
22.463837 11.109241 6.622535 
30.984568 -4.128565 8.188869 
-18.587296 -10.455631 0.126672 
-20.157822 -15.187205 12.425325 
-26.949936 6.741295 10.387970 
22.577703 4.022460 6.551837 
24.044035 8.127064 7.454458 
-11.551046 24.884016 5.748584 
14.178313 28.012712 -5.253320 
-0.318438 27.024906 -1.448440 
-29.358480 -5.469394 7.287863 
-16.878153 17.247896 -5.061851 
30.829386 -4.670276 9.176702 
27.373404 0.258749 3.669992 
-7.133544 27.664865 -3.717520 
-17.640728 9.966513 4.728852 
14.741651 25.691750 -5.097281 
1.680508 26.414829 -0.405183 
21.847364 4.756149 -4.101161 
-30.155235 -8.905578 -7.720055 
-16.540743 2.220802 15.557201 
14.286294 12.424725 2.306944 
-30.740997 -11.882792 12.750221 
15.482610 22.210135 1.441076 
-7.888103 28.166855 9.020295 
15.883708 2.338776 -6.674928 
-23.301645 2.327316 3.211889 
30.615046 -0.112921 11.731483 
5.606520 33.470219 6.516513 
-19.716608 4.241691 2.701143 
-21.657570 -17.708492 -0.119383 
5.589192 26.457521 -4.077050 
10.592631 28.198814 -0.275776 
35.044098 -12.654571 2.006055 
19.801622 19.877201 -0.256968 
-24.029568 0.492446 11.321337 
18.742584 12.576381 7.254220 
13.768649 18.175589 -0.783531 
-1.054998 27.664448 12.426166 
27.155216 2.338387 3.459428 
-30.558613 -19.346170 10.911338 
-22.120455 -12.568443 11.630456 
-25.497549 -27.846462 0.368249 
-15.790490 19.609755 3.214072 
-25.935101 7.054415 6.219740 
-21.045559 15.544940 10.008204 
-19.789413 -0.145944 3.636885 
17.892559 14.182060 1.389622 
24.086077 6.384530 2.035753 
-18.179310 24.271896 9.485226 
-15.145656 16.037207 7.976482 
-22.966616 2.541554 2.382515 
-14.302239 22.625849 5.973071 
0.492787 20.131275 -10.055655 
14.154207 9.174527 -4.029794 
17.724102 6.651023 12.800372 
-2.915100 25.375925 1.490283 
17.033419 24.968964 -5.854478 
22.867174 20.489067 4.385715 
-15.990477 23.065969 -6.942909 
-23.730703 12.011273 1.020769 
36.113293 -10.443219 3.864817 
30.915348 -15.329144 9.482280 
-12.917063 26.743824 -5.247055 
-17.942112 11.853453 0.883052 
-16.201916 23.248049 9.586076 
-18.994465 -4.282171 12.457069 
-10.521121 11.598471 -9.405487 
-21.344706 -7.011966 1.704606 
9.564509 24.964384 6.519082 
1.697774 25.596609 2.085409 
-14.532146 2.151153 -8.538190 
12.082883 11.634473 -5.838306 
-27.921324 -2.740975 -3.291258 
-21.426838 7.959008 9.117449 
-29.724882 -22.819691 2.380511 
-23.086990 -25.070704 3.133091 
-14.433961 23.185677 3.033068 
-30.884401 -25.307791 7.591346 
16.621624 10.132544 4.019764 
19.919239 20.957850 1.099706 
14.276934 26.023977 8.889589 
-15.832354 25.743996 11.926915 
25.998623 -7.090513 10.258220 
-28.763773 0.224583 13.506504 
-23.854916 2.704428 6.481695 
-27.583338 -23.770647 -1.204191 
12.118236 24.098330 1.775647 
-6.222154 23.144464 -1.920013 
-24.710104 1.696748 -3.268268 
23.660862 17.145552 0.045212 
20.646318 1.043172 4.476329 
24.280434 -6.880159 2.574416 
-25.843439 -9.945087 8.519663 
27.134159 3.460619 0.198277 
-20.847460 -17.423513 13.591404 
-11.230202 19.867928 7.642247 
-21.160538 -17.719881 6.694383 
26.441813 -1.113146 8.654140 
1.712746 29.246660 2.869351 
-21.669432 -11.283969 5.838001 
-21.474958 -11.979836 2.070851 
-28.654728 -0.669263 9.699093 
24.775442 -1.947068 -0.917729 
-24.686735 -2.544373 13.478453 
20.459063 -8.545824 13.128817 
27.760946 -2.608788 13.330863 
-18.315248 -4.617378 15.398934 
5.134501 24.926949 12.191796 
-0.153634 23.174915 -1.246672 
-2.391052 29.939173 4.296222 
19.282495 26.284725 3.844630 
-28.781372 -11.128255 10.151416 
18.470015 23.099024 8.104771 
-25.674374 3.423623 -4.209595 
26.370539 4.332459 6.742404 
-16.100622 4.768181 -4.422112 
6.374470 29.437326 -1.635055 
-1.609652 21.129349 -3.257415 
-21.596306 -4.427779 2.108549 
-25.451649 1.719034 -2.792646 
-8.472813 22.988613 -2.596338 
17.270884 22.174526 6.885522 
-11.180202 10.489167 -6.297176 
16.992077 18.074186 -1.669342 
-22.935619 -15.671382 7.148361 
-23.604858 2.072660 1.851478 
15.269845 7.964662 -2.091094 
-22.322504 15.794641 7.870363 
-15.788403 22.663431 7.210100 
-27.684172 -20.689003 -1.556278 
-4.888743 27.151339 5.723674 
-3.984595 26.321257 4.524730 
-22.167067 9.515495 -7.118445 
-25.581163 4.811347 8.262053 
3.397757 29.026398 12.820425 
-28.664089 -10.653548 3.513619 
9.670297 31.365520 4.041788 
-13.814616 25.766401 12.194982 
-26.204844 -29.236824 -3.724000 
-27.929512 -24.483643 3.881674 
15.911665 24.665888 6.788439 
-12.166264 19.738716 6.944754 
17.157885 23.264259 -2.811653 
15.715675 18.889057 2.324858 
-26.015102 -4.948730 13.361069 
-10.016910 26.968437 -4.876650 
24.549877 2.328779 9.619922 
-5.797309 25.976509 3.491852 
16.436985 12.016914 -4.389832 
27.096521 -14.586046 2.805608 
22.807121 11.860837 2.529045 
-15.971318 6.498902 8.865625 
-7.257938 31.503841 7.005558 
17.781044 26.526070 3.577650 
-14.860829 2.839419 -0.500824 
10.997103 29.296535 11.282121 
17.838480 -2.414789 -0.266652 
16.160147 25.149288 -8.524623 
-11.430080 26.710735 -5.707373 
34.606255 -8.933142 2.924786 
17.555485 11.584757 7.241851 
15.170351 25.867580 8.011803 
-21.657934 -10.047663 4.961236 
37.718914 -11.037086 14.144101 
-27.651377 -10.672000 4.201934 
-10.293266 26.871107 10.761494 
-21.077009 -9.109188 -0.996490 
-18.772446 -8.882812 8.562354 
-24.681580 -7.806763 -2.803323 
-17.187313 3.323036 7.531977 
-10.948717 23.363617 11.956263 
21.442776 -10.744270 10.208685 
1.447381 27.908634 7.712018 
-15.325314 -0.361279 2.612621 
-25.787321 -4.040877 13.464849 
-19.483568 5.734909 1.355362 
18.355667 22.153465 0.794349 
-23.798304 -6.227761 13.229207 
-34.502235 -21.766956 -6.519271 
20.130764 -1.110280 2.243306 
22.620480 23.125961 8.268569 
27.293781 -10.513642 1.149416 
-21.282377 1.313053 -4.724737 
20.135836 11.752871 9.009380 
-14.747733 13.939651 2.925879 
2.587425 29.225227 14.761580 
20.775200 25.116489 2.959775 
12.488206 31.666368 3.846029 
-26.271477 -24.764040 8.519749 
-16.034435 8.859164 7.747668 
-9.158538 23.091286 6.782219 
15.548986 9.928910 -4.968922 
-6.730174 23.788019 -4.297794 
-11.866048 8.923630 -9.163698 
26.761101 13.304201 8.215299 
28.475239 6.480237 8.359214 
16.821091 21.935850 -1.303292 
-23.786396 13.661891 9.114909 
-9.165051 21.034376 -1.187842 
20.083536 3.097173 -4.557493 
-16.333124 -3.463759 -2.371711 
12.799853 15.479702 1.791682 
-15.452828 3.014555 -1.377404 
-20.536377 -12.912103 8.367224 
-26.727232 -25.545961 3.043568 
-22.865582 -13.180589 11.979928 
-23.495050 -24.065369 5.750247 
0.878058 27.815136 -3.242874 
-10.247701 19.152340 -3.409418 
37.206188 -20.668625 9.879798 
-8.709857 20.494131 9.459316 
-19.855045 -6.447074 1.853359 
-13.561469 21.619205 -2.574725 
-19.071674 3.514894 9.871315 
17.195116 9.607090 10.257444 
-20.849014 -16.221403 2.090020 
29.283367 9.248149 14.876249 
-10.586952 27.715199 13.368096 
-30.168549 -16.263048 1.345819 
21.320097 10.207750 -0.510629 
18.941771 8.762250 7.413236 
22.693308 -7.635442 5.046359 
-15.522861 13.234846 3.138218 
16.417440 1.918810 -1.490553 
3.891751 29.847710 12.777836 
-0.080532 21.323442 -4.145216 
-5.368042 27.972239 5.202981 
-23.215591 -24.222132 6.833994 
-1.628495 25.397245 12.284435 
-19.784891 18.064756 10.411043 
-27.691240 -9.026950 5.107584 
-20.743723 21.708008 12.622108 
-26.311569 2.449127 -4.353475 
-9.807472 25.658417 -2.010285 
-2.025252 23.784538 -3.021996 
-33.954681 -23.219706 11.914106 
-34.136406 -22.039986 10.135235 
-9.398492 29.345867 4.536829 
23.593439 1.474508 10.510363 
18.007881 8.396045 5.367724 
6.181207 28.272367 -10.762824 
-5.078898 26.852634 -2.445714 
-15.383883 23.900333 -7.411608 
-17.998764 -2.284986 9.063337 
-3.728567 32.359444 6.172679 
19.269882 14.403014 9.710551 
-26.945538 -19.533800 9.061161 
-15.948028 19.693087 0.431551 
-32.356083 -14.048330 6.564844 
21.170948 18.219442 3.051819 
16.323448 26.408888 7.385237 
-24.886091 13.004558 10.973852 
5.454495 25.257725 -1.584439 
-34.280224 -26.009054 9.620715 
-15.229647 22.081051 0.428076 
-16.380812 22.016256 1.343963 
-21.682062 -0.740540 -5.068534 
19.269718 22.118479 8.359305 
-15.410440 14.063120 6.660275 
22.150881 7.787307 7.577422 
-16.400339 6.571158 6.998044 
-34.016922 -18.499529 13.370296 
-24.182812 -22.199720 10.115581 
-6.493474 18.035398 -6.833861 
-23.666754 -9.171124 3.214570 
-28.876102 -13.127406 0.778502 
-8.588239 29.289803 5.968167 
-24.693047 -10.324179 4.651162 
15.393529 27.330845 -4.206387 
30.810944 -0.929237 12.207993 
-25.147903 -6.771146 1.302399 
-13.622228 20.596720 4.606551 
-29.117758 -8.549474 -0.010569 
9.685457 27.864832 4.745259 
-22.049629 5.159809 10.128362 
-21.216778 -21.324316 -6.323917 
-16.145420 15.909994 -5.487599 
-24.636232 16.364420 3.599217 
17.639116 17.236687 4.422219 
12.335197 12.062063 -3.441726 
-31.894222 -10.508451 11.829479 
-20.977200 -3.424806 -5.201219 
-14.763421 4.048778 -3.012861 
-19.635138 21.700226 15.065922 
-2.832502 19.653067 -6.956322 
-30.555902 -6.104458 13.369538 
22.509495 11.489387 11.007153 
-18.016216 7.348837 3.634851 
-25.206186 -5.376306 13.377215 
-26.265688 -8.027070 3.404412 
13.776346 28.476503 10.829066 
17.469477 24.599466 10.036871 
15.052648 5.118892 -8.300284 
-22.557878 7.248638 1.964900 
-2.381916 19.663490 -8.250596 
-30.908953 -19.774395 5.063196 
12.478587 28.268669 -7.421959 
-29.443560 -14.384491 12.969018 
-20.940577 21.355598 8.923113 
28.021465 13.248610 9.623863 
14.667198 16.708292 8.553069 
-3.367707 23.086115 -1.309723 
23.708069 -7.728533 8.469164 
-22.921738 -5.464800 -0.603258 
5.910688 28.321400 14.457574 
-1.133742 23.727745 -3.294814 
27.670296 6.510835 5.359144 
22.544025 4.122318 8.159943 
-20.109209 10.034274 9.857982 
34.984173 -4.423344 11.981676 
-21.898388 0.687646 9.656079 
-19.122055 -9.524613 -0.255191 
-27.209372 -13.015027 9.225403 
-3.185612 23.076965 10.527233 
-27.211073 1.173408 7.490290 
29.843037 -15.336301 4.924839 
0.032026 31.078138 8.337525 
-11.041896 18.251839 -0.942628 
16.486050 5.957444 1.446195 
-19.512438 18.934938 0.868510 
-25.175188 9.427667 7.642171 
-11.685797 10.857448 -3.127312 
12.452362 8.676796 1.622174 
19.673044 20.948242 -3.788772 
25.197395 -9.016791 4.586741 
15.025084 22.523201 8.664163 
-19.357552 -8.550306 4.323557 
4.736626 28.654249 6.310544 
-14.291565 26.699924 12.369396 
-26.111490 -3.148412 -2.303895 
15.905447 26.870972 -5.152410 
-11.365550 24.141294 12.359645 
17.235481 20.969345 10.184382 
23.751045 8.164296 1.066129 
-10.459294 22.825127 -2.681358 
-24.594776 -25.226467 6.363465 
-30.739983 -17.546932 11.360573 
-24.498867 4.353069 -3.193905 
16.708597 3.635132 -0.586564 
-29.515223 -16.811275 3.883555 
31.001661 0.802777 7.204564 
26.927504 18.222725 5.643960 
-23.737394 8.002320 8.312709 
22.909050 19.738234 6.132195 
-26.169783 -24.610115 9.706093 
-20.602034 -10.727289 7.007769 
-26.084311 12.532249 3.083245 
-26.851093 -20.430342 6.277905 
-4.242518 32.497955 5.367832 
-24.125040 3.069108 2.397655 
2.206127 25.067694 -2.922832 
-12.124220 13.132928 -2.264121 
21.457350 14.948959 -7.548522 
22.445730 11.862185 -4.888905 
-24.332636 9.197400 6.648230 
-22.383041 3.997259 9.839504 
12.463487 23.281275 10.149671 
-19.966848 -11.531381 7.737911 
-21.038929 -17.222635 0.458924 
-8.484116 27.170889 -3.048022 
-18.728653 23.575584 9.231970 
-16.337603 -0.486695 -4.451674 
-16.744761 10.171835 -1.604619 
-28.396015 -19.217043 9.004238 
-19.988186 -11.656604 2.430730 
-2.389408 33.001041 3.179427 
3.136540 28.087797 12.815948 
-21.987246 10.509398 10.361321 
29.673473 -4.895191 8.053766 
-27.566845 -14.875054 5.030720 
16.880781 9.910928 -4.895928 
0.029490 24.084515 8.813577 
24.448633 19.334116 7.660115 
25.340948 18.948488 8.294691 
11.283051 30.878969 6.483890 
1.984078 30.034714 4.035369 
-11.483765 14.892694 -2.262410 
26.860952 4.334148 -0.599317 
25.553738 -1.421276 4.052015 
-20.213934 17.272350 8.125283 
-11.254519 22.482422 4.536572 
-15.881859 -1.906570 -8.158955 
6.967448 27.432560 3.750921 
26.627382 -18.179604 5.995490 
-17.006613 3.081894 -1.250475 
12.535510 17.959829 1.154871 
-16.223877 23.535902 2.039285 
-11.584729 16.717537 -1.323337 
-12.183427 13.537118 -3.281283 
29.565138 -3.085478 -5.757440 
27.978901 16.374304 6.634911 
-32.605907 -23.376133 14.069292 
28.019182 15.100854 6.549288 
-28.577316 -5.234681 2.109606 
26.533646 10.418230 5.277555 
25.784185 18.389399 7.577159 
23.900579 18.808708 1.265069 
21.959787 4.988403 8.057951 
-22.581236 8.702968 -6.851484 
-18.368608 -2.188532 3.443906 
13.768168 28.980415 2.523465 
-8.836396 24.413282 9.867702 
-0.614653 25.138660 9.987357 
22.796768 17.047871 1.562666 
-13.592321 18.182758 3.085143 
29.197216 8.306605 9.709289 
4.342206 21.914814 -4.277649 
-10.031669 25.379990 -3.442525 
23.790596 -6.248508 2.190096 
15.624562 2.670808 -4.374017 
30.389761 1.500525 4.715366 
11.345684 25.797010 -3.988023 
29.445545 -0.830461 -3.918327 
5.648651 23.853432 7.831687 
-20.973419 -6.736979 -2.723984 
15.871806 28.800512 8.492782 
24.773235 -6.567034 7.547054 
24.686258 -7.926537 5.531979 
-0.014299 20.780943 -6.037436 
34.235268 -5.313915 8.534158 
-18.277445 -5.123078 -4.255143 
-22.824488 -22.820124 8.737363 
19.401161 22.588331 10.781761 
20.611513 8.232054 -0.844928 
-6.277889 25.241776 12.061796 
-22.838959 13.835909 0.411438 
28.945469 -5.908466 7.480692 
-7.204411 28.597233 3.259023 
22.216084 -15.056424 11.261182 
-14.885574 23.944817 9.950203 
1.059330 28.870123 6.691639 
-25.986574 -11.934560 -4.239789 
-15.310108 -0.824342 -7.163976 
13.567482 29.632614 1.833664 
13.747841 31.453266 3.688849 
-25.287937 -19.354980 10.668057 
19.877045 17.483934 4.549715 
-19.396135 -0.813539 10.463275 
-16.525644 22.249348 -5.408880 
-17.010254 20.769873 0.548252 
12.833998 10.387832 -1.104760 
-0.142102 23.693890 -3.211474 
13.698586 28.426416 -3.104439 
14.671028 6.059710 -8.400729 
-12.036283 11.765616 -1.718853 
-18.590122 19.424770 -3.536011 
3.099893 30.567038 3.676487 
6.809832 27.004036 1.430727 
19.623903 23.627741 10.792758 
17.177736 7.622346 -1.324676 
12.342008 14.584904 -0.971268 
-31.959667 -17.466213 0.880916 
4.406671 24.345039 -4.707840 
-22.103920 -21.267391 2.698757 
27.485306 2.382278 10.828396 
31.676174 -4.777259 7.824028 
-16.465147 15.610772 6.788690 
15.928169 22.492254 -0.953206 
11.897182 22.081059 8.235840 
-28.897854 -1.605702 5.744086 
24.779272 1.909377 4.177342 
28.210249 -18.499550 5.768713 
14.422767 17.434940 8.009855 
-21.916428 -25.402668 -1.041147 
-26.419872 12.996797 6.039552 
-28.847704 -19.114212 -0.554377 
-25.742908 -1.774075 13.310851 
-8.287802 22.786522 -1.655740 
-25.985298 15.068116 4.688533 
25.897749 -9.744524 9.557095 
22.961868 -7.492894 4.111021 
-9.694793 20.467649 8.528136 
-28.816879 -10.292299 11.760650 
-22.570015 13.227692 11.589975 
-21.312527 0.683126 8.688945 
16.278023 30.092194 4.642182 
-13.745982 21.409294 5.545787 
17.591585 17.762627 8.018069 
-14.495768 17.930416 -5.082798 
-11.508574 14.790480 1.694952 
-31.537815 -13.632640 5.107276 
-32.810970 -20.194784 8.691211 
16.617956 -0.474159 -5.820741 
-28.491388 -26.606300 2.114160 
4.965724 34.218899 4.441401 
18.318195 8.890809 6.614884 
-22.795027 6.270619 -3.020632 
-32.237606 -12.340047 6.675167 
-4.501184 23.009949 9.545442 
-18.306700 -10.171882 -5.265261 
2.215134 26.099566 3.406379 
-28.340824 -23.427561 0.194722 
19.072382 5.180073 6.599158 
13.493816 26.414385 -5.042115 
-22.841707 -20.246338 2.150959 
21.771818 -10.462458 9.248556 
-32.382992 -26.981075 -3.532477 
17.837429 20.987396 2.042484 
-6.951191 26.545862 -3.095062 
-20.974226 -17.487753 9.185309 
24.958096 -11.202764 8.340739 
18.605904 9.271510 5.516283 
-16.699492 6.080810 -5.660532 
35.573109 -6.422328 9.471979 
-17.582529 15.491522 6.507634 
21.893654 8.735923 7.084156 
-29.205038 -22.477800 5.726676 
-23.801872 -23.086384 10.086044 
22.475874 8.946722 3.278091 
30.189735 -15.520843 8.841563 
-12.360517 23.692957 12.215219 
-16.237312 11.310612 -1.824238 
-20.657360 -16.500139 0.903879 
-22.041758 -3.364500 -4.981607 
19.660362 4.910179 8.038375 
-18.577387 -6.073214 11.422428 
21.606050 7.505926 3.930761 
26.552061 7.228230 9.612189 
-20.329220 11.539672 7.143222 
1.315010 32.410530 3.454492 
-33.569889 -19.844259 0.356160 
-25.151388 7.171298 3.021194 
-28.378525 -22.429152 3.952700 
-19.105087 8.362544 6.346693 
-30.807787 -24.568605 3.741810 
21.300041 21.889086 8.805614 
16.359652 24.221806 -0.336368 
-21.681108 -1.761973 2.994424 
-23.201599 2.798526 8.785233 
22.186840 20.993694 9.255660 
21.787374 -1.193777 -4.707133 
27.410221 -8.086148 8.676885 
21.401722 -9.320257 9.476186 
18.019642 6.817619 -4.030910 
24.795586 -0.834391 3.989713 
21.667347 16.708853 10.954082 
29.062099 -10.721829 11.303552 
25.736351 -12.905800 3.665141 
-4.336059 26.744028 0.605434 
-24.821648 -11.562293 3.841748 
-14.125570 3.912021 0.947194 
17.029324 14.576143 6.260408 
18.641949 4.637826 -3.948001 
-3.863024 30.859221 2.566556 
-27.703730 -17.844879 -2.276058 
29.274200 0.841955 -5.240510 
-25.228601 -19.041910 3.154996 
23.107716 7.190152 -2.181316 
-21.199642 -23.250643 -2.018026 
-12.286801 18.185198 -0.972831 
24.601435 5.886236 10.029779 
4.588242 23.814461 -2.472981 
36.699482 -11.361370 7.550061 
-30.437643 -18.743069 7.074109 
30.247837 0.742612 11.221884 
13.301826 26.931206 -9.465695 
10.194055 20.281113 -2.403834 
33.395313 -0.606783 13.394416 
9.861570 28.808830 3.664129 
23.305264 10.841532 5.089398 
-11.357505 24.750481 4.694026 
19.466938 13.703610 10.565752 
34.132248 -9.599633 3.331978 
-26.831440 -13.787653 -0.006043 
-17.663155 20.039042 -3.092232 
11.561332 27.591173 -4.272697 
34.308456 -5.526237 7.408545 
-22.179111 16.066837 9.214130 
-24.498047 -0.403377 13.018423 
10.914018 23.124966 -6.219654 
-30.572803 -9.200130 -1.187341 
10.988004 22.139006 -1.048910 
-16.305597 14.919472 -5.370568 
20.939156 11.205169 7.250502 
29.215822 -10.810850 7.002733 
-16.730141 -5.037069 -1.610051 
21.685171 1.680635 7.049789 
22.808071 -14.595196 9.008636 
-24.580856 16.762077 5.298690 
24.333248 19.559931 3.977675 
-23.041208 -12.676920 2.655317 
2.071243 29.056450 -0.277972 
-15.948339 12.676702 2.594424 
-34.269882 -22.861803 -2.512919 
26.209578 12.607884 1.542623 
-31.721718 -21.058622 -0.341193 
-23.065800 7.757553 -7.823439 
-6.242059 27.190708 -9.383101 
-11.867341 25.137730 9.756241 
0.867908 29.599577 7.747499 
-27.526016 -16.684353 12.615914 
-19.873371 -9.227155 5.239684 
-20.509642 -1.418831 -5.332360 
-25.256128 0.363699 -3.356872 
-24.192814 6.525748 9.604321 
-31.504597 -10.945904 -5.128196 
27.333628 3.504128 -0.987253 
0.602709 29.855263 12.881332 
19.376001 6.148953 9.631148 
-17.187872 18.875521 10.685548 
31.009645 0.673533 8.633729 
-15.184624 18.439878 10.036226 
-25.580235 2.361526 5.914298 
-18.500933 22.472513 0.426914 
-5.481904 21.422964 0.055746 
38.503506 -13.045744 10.169717 
-27.394930 -13.302670 12.966399 
-30.187666 -26.168882 1.553332 
-26.488819 -7.242647 -1.208412 
-28.759432 -6.527040 8.224169 
-8.279804 31.288280 4.362809 
-18.331997 16.072378 -4.596750 
-16.118904 16.071678 -2.300516 
-9.489031 20.137791 -5.597930 
-25.443178 -14.696299 3.467061 
12.353736 16.180861 -0.889777 
22.515509 17.144533 6.870897 
23.463053 -10.378113 6.949508 
29.024662 -0.183597 13.196513 
-16.036528 22.946779 -4.312092 
27.318726 15.916385 2.109455 
25.637125 -5.104213 -1.323568 
26.501900 17.643858 8.780507 
2.894979 30.691219 11.636421 
-30.505215 -6.115041 12.474505 
23.285963 4.205058 4.647160 
-25.288380 -16.231718 12.434177 
-18.244444 14.715987 -4.451250 
-34.124756 -19.407774 14.367171 
-26.616295 -12.604861 12.844646 
17.672869 21.524504 0.505761 
9.588924 29.407007 11.512624 
-26.171484 -0.402025 0.677869 
20.463121 -5.734173 -2.050642 
-0.535959 26.480556 11.334783 
-24.394236 -27.506418 11.521681 
-7.163051 21.654682 -2.155062 
26.862574 0.061906 2.314103 
-17.750967 -4.362245 5.072243 
-18.397926 -2.458334 -2.856251 
22.389881 23.643616 7.417188 
-22.158749 -18.845745 5.491130 
19.668200 -2.001068 2.754522 
-17.982365 -1.897394 4.775630 
6.158550 30.679232 11.941384 
-28.832535 -15.338685 12.899687 
28.518158 -4.814318 -5.600423 
-2.896435 28.947910 -6.135386 
18.913368 6.461269 1.263027 
-29.452930 -4.253699 6.093266 
25.016449 -18.102549 8.097140 
16.561306 18.000458 6.192111 
-12.924918 12.044250 13.643821 
-32.575317 -13.683491 -5.504163 
-20.171423 -13.976604 13.633483 
-24.918974 1.350947 8.628233 
-24.779812 -3.352359 -0.921581 
-19.637505 4.543950 1.813237 
-15.057313 19.218126 -2.453951 
-17.671080 -2.781723 8.111146 
-10.250663 21.086248 7.679624 
-20.841955 -15.984676 10.890644 
-3.708521 22.558943 9.847907 
-7.633679 26.656109 7.178244 
-4.827649 26.028486 4.801798 
21.992981 -7.296152 7.920017 
18.175240 7.147934 3.467635 
-11.278732 21.637024 1.972584 
-20.355783 1.961830 7.416193 
-17.236988 0.578500 -2.787172 
-25.950863 -3.683653 -1.544443 
-21.075605 20.629566 14.004766 
35.752914 -10.841108 2.974023 
2.362609 28.430544 -4.810013 
-18.608850 21.536638 10.919932 
-24.829292 9.882996 3.184570 
-3.617907 21.810213 -0.409892 
-33.646732 -22.261957 1.637512 
-31.592220 -10.158989 7.555429 
-24.760042 15.946176 11.694917 
2.347234 26.144295 -5.282170 
-5.981616 23.399660 6.152431 
12.510855 25.304243 -4.323305 
34.229599 -22.992241 11.554549 
-15.928306 22.849731 10.368052 
-32.149509 -16.663143 8.335071 
-22.451361 -12.952896 7.537271 
13.366323 22.118191 1.724926 
-30.248600 -4.966978 12.731289 
27.675617 13.880860 6.000132 
11.762535 28.919762 9.880020 
-16.346615 -1.783294 -4.291579 
-12.079605 26.518454 1.358716 
-6.410460 27.750418 -5.734353 
-17.849634 -0.720541 2.153562 
-11.963367 5.293817 -0.224357 
-19.200127 -11.692486 10.741504 
-4.107156 27.029455 6.178338 
16.685362 26.810547 8.244615 
-25.278631 -8.805366 7.389589 
21.463503 4.093620 6.639696 
-23.107496 -6.188680 -2.417685 
-20.649504 -4.395383 1.700989 
-28.735292 -18.225336 3.202446 
-26.206106 -13.947474 -4.098546 
-28.386942 -13.714337 5.455289 
-32.851048 -14.718065 -7.190556 
19.614574 -1.444191 4.628444 
-25.701134 -24.327057 12.088524 
-26.966923 -3.485126 10.257142 
-12.968155 28.761059 5.117812 
-17.672255 -2.048151 15.458854 
-22.026722 6.700313 7.236939 
8.948942 21.693001 9.970958 
22.745165 19.988260 5.134450 
-34.425392 -23.714127 13.661104 
-18.599274 18.554621 1.366653 
-10.993826 15.269638 -1.555942 
-24.030195 2.608744 1.268497 
-16.161682 2.463367 0.585131 
19.498230 6.914548 10.062240 
14.922754 29.232224 8.495165 
26.297054 5.997446 -5.781449 
21.636358 7.021361 -2.151624 
1.272914 22.630520 11.135263 
1.188023 31.378571 8.796154 
15.525860 23.035566 -5.935101 
12.151700 25.219677 3.795973 
35.602650 -5.648707 11.944758 
20.234465 0.730879 6.065021 
-25.838604 -18.507914 2.526315 
13.904484 13.207077 -0.180031 
22.953606 -4.209280 12.997394 
-18.626802 -7.094355 4.789383 
23.625683 -17.498762 10.104449 
22.674435 19.126825 2.555710 
-31.561398 -9.481030 12.707595 
-4.555286 29.031286 14.141187 
20.900560 -1.436463 12.213105 
-3.432348 26.162027 3.509268 
-16.524588 1.381949 12.563200 
5.892640 27.458055 14.055725 
-20.096441 6.881291 0.671700 
27.393827 6.551915 4.314532 
-30.397451 -13.871451 4.507549 
-20.166384 -15.444363 10.459144 
25.204826 1.658920 11.892569 
-7.068368 20.604876 10.454485 
-21.979477 9.627913 -5.252838 
-14.293911 18.150898 3.880173 
26.372370 10.343604 3.538246 
-18.333755 11.456608 11.056849 
19.847313 4.951528 3.128048 
-3.423071 23.326416 7.900023 
-27.367691 5.069601 10.911372 
18.660725 26.586885 4.661663 
36.771046 -13.783606 6.136034 
-15.338051 22.056389 -10.532353 
-21.277906 20.005781 7.291832 
-19.637295 -14.001440 11.134920 
17.897150 20.834297 3.019060 
-25.072439 -15.911985 3.573944 
-8.224882 23.749132 4.573159 
-21.777290 -23.496738 -6.117961 
-19.080954 7.973258 2.093427 
9.075864 28.162561 11.748138 
-23.869261 0.037626 3.117950 
19.645502 15.028057 5.949474 
14.871001 21.755564 -3.255735 
19.273678 1.473511 10.221684 
-31.276762 -10.033990 8.863182 
-24.526596 2.827672 4.187030 
-15.530385 6.081934 11.031783 
-27.884602 -25.144629 4.619194 
6.827930 22.093803 10.754786 
-2.152910 28.785839 2.580221 
-12.092619 26.241138 2.195347 
-22.693014 13.123480 0.974230 
3.556706 24.833275 11.740869 
-2.874763 23.222721 0.330089 
-22.983503 9.827700 6.476441 
15.448591 26.287066 3.961682 
23.199755 -17.720345 11.351383 
30.935808 -3.377058 11.683193 
15.155002 12.080537 2.950503 
16.633617 25.741352 5.168601 
0.353172 21.055302 15.762929 
-32.091084 -21.919544 3.419877 
18.932194 20.267727 -9.736987 
-3.763182 18.979794 -8.651156 
6.160628 29.170649 5.975295 
17.637712 7.703387 8.421388 
-26.976982 -1.545378 13.106616 
31.416126 -7.288990 10.683675 
-16.895918 6.904617 6.189347 
31.481005 -6.886566 3.704474 
19.274164 13.390528 -1.483307 
-0.809408 25.614397 -4.182847 
-23.761171 15.987963 14.705811 
-31.818241 -11.450302 5.430299 
14.816612 14.787605 11.445261 
-21.537130 -15.789636 2.742080 
-15.851632 22.883602 -8.034970 
0.264735 24.763645 -3.686906 
-15.375527 9.727200 -1.723844 
10.176284 21.749655 -5.405435 
10.509085 27.854919 -1.210733 
26.143791 -1.050902 -0.816198 
-27.841663 -24.582947 8.716124 
22.717791 11.349274 9.264489 
36.198399 -7.123511 7.401507 
-3.980203 23.016670 8.713866 
-17.500832 19.029499 0.126877 
15.350628 26.491003 2.495250 
-0.131036 32.091179 7.180887 
-18.153448 -5.611203 5.373029 
15.131057 4.216641 -6.850053 
-26.574207 -1.667246 -2.437941 
-8.223711 16.931665 -5.719964 
23.705420 10.871043 6.951616 
-18.183836 8.008317 5.511042 
12.527184 28.379322 3.921227 
-1.426687 29.067020 14.744854 
-25.561132 -16.655197 3.827856 
31.992271 -21.847212 9.329786 
13.355890 7.143956 -3.160512 
-12.463901 7.517881 -2.487212 
23.734884 -5.556204 -0.710835 
26.028278 2.489767 10.410953 
-19.742155 22.858196 3.632591 
-25.876207 -7.404725 -1.988331 
25.145821 -12.204223 8.736670 
35.551682 -6.924241 3.922576 
-12.274166 20.930132 2.692083 
-15.825825 -2.682818 -2.089129 
-17.527393 3.416952 8.731487 
-22.841578 -19.444002 5.293747 
12.792050 19.295584 1.050828 
11.914145 12.496399 -4.538087 
-20.638609 -10.553525 2.200943 
2.301406 30.282309 2.468327 
-9.582688 20.214430 -1.355011 
-28.184441 -8.349746 1.711687 
-8.148043 30.813171 2.597791 
-14.894210 9.733418 -3.885326 
-21.076084 10.217880 10.172811 
19.786556 19.158499 0.837800 
-21.228855 11.046606 11.326840 
1.245546 27.470575 -2.167165 
-18.129309 24.466295 4.862350 
12.391841 27.958073 -8.354802 
20.246202 -7.207821 13.349315 
-20.124571 -14.604541 9.839020 
-9.464956 28.188030 2.138483 
15.994967 29.947948 1.847196 
18.923029 18.189457 4.046291 
12.040836 22.122055 -1.996090 
-15.963689 23.983618 16.158106 
11.954612 20.702524 -3.925909 
-16.127396 15.830699 8.272263 
26.201691 18.489687 8.555681 
-11.603333 14.257582 0.421836 
-22.383783 19.317543 10.397145 
-19.539419 11.058987 -1.236704 
26.486755 18.162502 3.294605 
-19.508488 -3.037514 1.950202 
-21.054430 -8.926751 2.114344 
30.581385 -4.396620 11.151958 
34.013828 -14.108093 6.973259 
-1.129511 28.877546 1.845336 
16.525019 28.295191 8.147074 
19.815166 18.023109 7.109125 
35.820358 -9.033145 3.919885 
-26.328182 2.030485 6.332482 
-24.681082 -5.970015 0.611425 
-22.738855 -11.533052 -4.868995 
24.175743 -0.122512 3.416906 
-1.959445 20.369244 -5.320843 
-27.968248 -5.996991 2.090621 
30.309378 -0.325013 12.914385 
29.057911 -6.000371 9.053089 
30.442457 -4.069530 12.363560 
-21.440178 -22.747252 11.150390 
-14.635310 18.850014 3.389934 
-24.036390 -4.099401 -4.153288 
-11.147660 27.022005 11.411966 
-29.261450 -8.317359 5.487542 
12.290251 24.232695 6.177335 
13.224121 27.430822 4.795005 
-20.606470 21.324379 3.616364 
-29.130913 -26.771872 8.083590 
-13.256238 4.150698 -5.854069 
-16.627626 23.619440 8.904143 
11.770026 27.250212 11.869559 
17.384333 8.471930 3.035567 
18.750725 22.178999 -4.936894 
-12.278357 29.229534 3.139288 
18.045473 13.155198 3.393254 
25.016693 -6.094872 2.645457 
-17.407106 -3.247497 5.576283 
19.412874 4.123727 8.870995 
-24.350904 10.362468 6.278867 
-23.601988 -11.331736 -4.767715 
-19.025459 -12.466755 -6.249938 
-27.160187 -23.042763 12.714087 
24.644922 12.030268 11.000756 
14.787921 16.316706 2.138930 
33.163494 -18.294685 5.088864 
-15.944481 -3.391941 -1.402287 
-32.630562 -21.237518 3.811106 
-18.822529 17.063036 -10.098532 
17.704109 22.871954 -8.667709 
26.889523 -0.631181 1.751273 
12.803752 26.926378 12.366916 
-15.945247 12.967032 -4.105801 
-29.651541 -3.986120 15.634030 
25.394613 -9.562033 8.257667 
-22.550545 -17.772999 -1.858224 
-12.806808 25.319555 4.632083 
-25.125261 -2.908546 4.140433 
-25.058168 -28.604734 -5.669068 
39.275497 -16.225281 11.253524 
-21.387648 19.690964 14.897224 
-1.000621 26.352486 5.100023 
-32.418869 -11.749884 12.458317 
15.944975 13.678008 9.334923 
-15.350878 10.742141 -2.418598 
-8.433992 30.397621 3.374223 
6.423265 30.833147 4.903397 
-15.700579 4.577021 14.214193 
19.910179 11.468695 6.606153 
-19.763582 0.228538 -5.194560 
-18.195494 -0.804829 8.047640 
-20.503172 13.473186 -9.771791 
26.103388 -6.609652 12.193426 
-28.003334 -21.713291 5.124166 
0.166095 30.659945 3.379862 
-15.358559 21.664354 -0.373189 
18.626429 -3.784819 1.737573 
-20.320900 -4.303224 12.932097 
17.941368 14.088066 5.727713 
-33.032639 -23.255741 2.322911 
-22.221497 -24.752506 10.031331 
-12.215092 6.312926 -2.067798 
-15.796602 26.541580 6.993264 
-7.077420 18.083267 15.821818 
33.012165 -5.858881 3.162422 
-32.136650 -18.182596 1.618268 
-3.191390 28.187803 1.551210 
20.754671 19.234657 6.421191 
-5.944533 27.433228 4.688531 
27.416729 -5.889212 3.424768 
-12.632969 19.346811 0.856894 
-20.679806 7.717843 -0.744036 
34.231304 -10.911508 11.548488 
-29.166857 -23.067385 1.450663 
3.986758 24.115030 -1.886266 
15.157441 12.797480 -1.359822 
-22.068386 -3.233289 8.834762 
34.180859 -5.423257 4.652120 
35.403641 -6.231241 7.400156 
19.150553 21.580120 -4.240176 
16.523891 4.177864 0.474311 
16.000282 1.167082 -2.920938 
-0.167445 29.260920 -7.563137 
2.572243 26.376574 11.400015 
-19.305876 9.583934 -4.284110 
-12.203018 28.748583 1.543769 
-19.257004 13.462947 -2.013467 
21.392511 24.988005 7.896820 
1.346148 22.018509 12.435775 
-23.363718 -2.931763 3.792230 
-0.682315 29.706179 -5.327134 
18.875879 22.021965 -5.969892 
-13.588753 14.433514 8.509822 
22.509930 2.885086 5.826411 
0.199143 28.229441 5.875543 
-25.893955 11.623683 10.902579 
22.325905 6.798311 3.957124 
-19.147221 -8.114308 15.316553 
-15.113256 27.934479 2.615355 
-10.280581 29.441339 4.188855 
27.447105 12.359896 7.444771 
-22.436571 -8.624483 -0.722135 
-8.459075 21.702156 -1.459691 
-19.919291 -15.727518 -5.220566 
33.656620 -15.269954 2.883537 
-16.022099 3.100921 11.956182 
-24.020845 -27.799793 14.856439 
-18.214050 14.779335 3.461378 
-22.641951 -8.384197 2.059639 
-17.529825 13.912955 2.868191 
-25.915346 -28.814928 -2.118428 
-15.950166 1.436632 -2.271070 
-21.878439 3.372061 -3.733537 
-12.785840 18.592466 1.946629 
15.726523 25.743818 6.946049 
-3.763538 28.732910 -5.427542 
14.899582 14.640388 -0.312674 
34.249702 -14.279907 10.239929 
11.421877 20.453705 9.416381 
-11.862102 13.288875 0.353307 
-20.051298 21.257467 1.370914 
-18.581499 -6.430362 10.577785 
10.966971 28.145891 9.751894 
18.009315 17.605301 6.481046 
-11.553580 26.706497 2.900000 
11.961293 28.007626 -3.504968 
13.160989 17.244757 11.172668 
-27.479883 -6.985694 -0.326768 
-12.295287 27.432020 12.628682 
11.018525 27.828857 -2.534916 
-17.522251 -6.191157 9.416306 
14.086213 28.175720 -4.382308 
-20.654039 -19.068611 -5.260909 
-28.908869 -0.679522 6.099353 
-32.399464 -13.724297 -2.664925 
-14.700203 14.476975 -1.891719 
19.708136 -0.280144 -4.749858 
-19.875896 19.808989 8.921042 
-33.179657 -24.188538 7.779492 
-27.668877 3.286541 15.800525 
-13.774205 8.980422 1.467069 
1.165008 28.173513 -1.480813 
-9.990747 29.454834 3.164621 
-9.098145 15.846684 -5.034257 
22.115273 21.006260 1.766514 
5.110929 31.392530 11.214263 
27.241983 -0.816322 13.470970 
-20.491047 -16.039783 0.127003 
-6.068424 17.400408 -9.902283 
32.686508 0.681830 12.595634 
-29.456600 -2.707212 14.726015 
23.679310 -3.789692 2.841367 
24.699835 -9.693300 5.602804 
18.725895 11.283432 6.031224 
7.556813 31.869524 9.739167 
26.255548 12.705141 7.056248 
-24.149652 -4.707258 3.666543 
22.748457 -7.580420 8.803336 
1.404338 28.128199 8.643683 
-23.388100 -11.798700 12.002054 
-12.252349 26.270479 -7.343111 
-29.119154 -6.971544 -2.057952 
-23.381760 -19.382133 10.010304 
27.332848 -0.625083 -1.053778 
22.783770 -4.720997 8.567953 
20.154902 3.570265 2.843980 
-30.198549 -9.568032 4.079319 
31.663242 -14.463941 2.522515 
-26.912271 -9.594062 9.894817 
20.796091 22.629370 10.754377 
-21.884041 -20.557285 7.593903 
-20.327497 9.270205 -3.726825 
-7.494862 23.240297 -3.947670 
4.362825 27.660011 6.534992 
20.694437 12.521492 -1.412681 
25.176804 18.503611 1.613319 
-23.863960 -20.043344 7.825163 
10.320869 21.555000 -1.851287 
19.765301 -2.950548 3.639968 
-28.340067 -20.843018 5.790993 
29.271410 9.251140 12.552769 
-28.286268 1.280389 11.152877 
-20.255039 -6.440984 -1.141570 
-24.572977 -5.402458 2.102465 
36.236160 -6.902481 12.107924 
21.870962 18.898252 3.207219 
22.458704 6.745916 7.872844 
20.327066 18.107481 -1.333925 
-18.808317 18.875090 -6.591429 
-25.142008 -15.969018 -0.385934 
8.432793 31.605036 9.773973 
30.365088 -7.984978 11.396615 
-3.161242 20.154902 15.804989 
-19.179846 23.906485 6.675865 
-15.260875 12.651102 -3.622439 
-32.949986 -26.909828 10.021620 
10.266815 15.201492 -7.867039 
-25.063875 -24.646915 4.604660 
-32.958660 -21.648811 2.644403 
-14.745768 21.755127 -5.786057 
23.166386 4.034721 5.777143 
16.389158 28.973993 1.984600 
-24.799187 -6.738821 13.079981 
-20.456659 10.580635 6.757506 
-22.727165 17.156769 2.591859 
26.801657 -15.144365 9.349320 
-19.300962 -7.645248 3.056195 
-14.280299 10.226667 11.491121 
-29.611731 -6.483772 10.108477 
-5.102954 26.863121 10.705892 
15.070037 30.475866 1.776338 
-5.993439 26.084145 8.603510 
-24.706202 14.390081 11.040524 
-25.197857 2.774555 -0.590179 
-25.529732 2.561592 4.786348 
-5.856092 32.299328 2.346199 
-0.642649 30.434908 10.179145 
-25.541216 -8.138119 -3.581179 
-27.157858 -21.473476 7.221500 
-12.144263 26.787176 -0.151939 
-29.852821 -22.931772 -0.685893 
-20.204918 1.002731 -4.979407 
8.601357 29.634766 3.963890 
-19.207657 -11.118453 -1.773965 
-28.131241 -8.004307 -1.788415 
-27.338461 -0.005364 -5.023074 
-19.284084 23.644258 7.947376 
-24.985363 -18.726559 -1.167431 
17.026073 21.801668 1.132663 
17.900938 21.488499 10.462813 
-13.000750 14.670221 2.086383 
30.745758 3.333973 9.995636 
-26.340096 -10.152767 11.120532 
-16.905037 2.096035 -3.057704 
31.390949 -9.616379 7.982357 
-24.915134 -10.113287 9.780790 
-24.703182 -8.821112 8.536453 
-24.722267 -1.537511 -1.118295 
-9.942578 14.896315 -3.611032 
-17.157280 24.606228 4.943837 
30.572252 0.388031 5.284334 
-12.499068 28.122442 8.176422 
-31.865969 -16.194494 10.751423 
-13.718244 18.309996 -1.104384 
-14.171550 25.544971 -1.730859 
-25.258017 -20.073286 5.064985 
26.837606 -6.074154 12.390998 
23.006933 17.697699 9.485147 
0.123498 29.241619 9.079757 
-24.487934 2.871352 5.535799 
13.546057 25.749878 12.014072 
-19.572020 -12.698039 8.472562 
17.791838 19.515173 -4.319531 
17.698532 14.814445 -3.484488 
22.601732 22.839859 6.822349 
-30.495180 -9.569977 9.521028 
-33.181297 -15.435637 -5.109946 
18.906807 5.304888 -3.167105 
-28.317188 -8.378111 5.456454 
-9.714035 13.838426 -5.767658 
12.313560 22.559032 9.194585 
-15.408686 20.246519 -1.198917 
-24.772285 -10.503828 3.558392 
-19.192406 -13.418264 -4.825260 
-17.735065 -3.512050 4.567816 
-25.548471 -0.416127 12.993506 
-21.578100 -12.983025 1.992277 
-25.469324 -17.264631 0.161342 
9.885662 31.310656 7.495147 
15.403391 14.562133 9.951761 
-29.156515 -23.246122 -1.954091 
7.697513 32.978096 7.298285 
-19.146528 8.861032 -1.978980 
-19.214167 6.725348 -1.392710 
-32.760300 -24.064278 8.976791 
20.090227 -1.386376 -1.942641 
