-15.375145 6.469043 9.353870 
18.503977 25.924986 13.212595 
-19.384510 18.300745 9.894424 
-15.725902 -1.515109 2.685865 
21.294987 -10.188320 8.783263 
10.740497 26.366024 9.953440 
-24.214914 -16.207571 8.531780 
29.384300 -10.895061 7.920752 
-19.510952 11.773758 7.087065 
-23.234938 -23.649193 2.039508 
5.408229 25.715290 2.434375 
15.536209 20.943775 5.021798 
-15.682744 23.886168 14.674636 
-21.235296 -13.465167 6.587422 
25.480167 -16.487379 8.771790 
-7.896721 27.029722 18.559153 
-10.438361 28.811462 0.696813 
-11.823764 11.611809 16.951124 
28.251812 -14.269428 2.829477 
34.383938 -20.348185 5.141507 
0.681338 23.040960 -0.106855 
12.688539 27.808346 6.396733 
21.930122 -21.531668 -4.151485 
21.527382 -20.371290 1.986786 
15.537088 9.148080 3.898036 
23.411625 -23.517410 13.659626 
11.577458 15.023503 -2.252056 
32.051140 -5.470249 -5.487782 
18.097673 12.282182 3.365048 
-4.341969 29.153894 8.266206 
27.417793 3.391421 9.027725 
-20.133270 6.647592 6.843179 
-28.339693 -19.653858 7.517782 
16.388695 18.693075 10.252582 
-29.102320 -2.793657 15.576945 
-18.314743 10.025208 12.884870 
-8.680226 29.063231 12.750329 
-12.521741 9.454952 18.829926 
23.576294 -15.177125 3.842377 
13.940880 23.053335 11.782883 
-17.581099 -1.290390 6.216063 
-15.739281 24.760693 7.011428 
-23.614750 8.614804 9.021760 
-16.818544 -2.592613 7.922746 
27.075478 -3.129053 5.972638 
14.893024 19.096811 11.444189 
24.707226 11.150692 6.892809 
-16.915464 16.860018 1.873917 
10.817057 24.571465 10.747585 
16.827047 3.996834 14.274923 
-4.402368 25.224789 1.239312 
10.329036 24.371178 2.990443 
8.909704 29.311415 -4.539166 
12.218813 25.878174 -0.021472 
-29.639544 -9.267550 7.156650 
15.497000 21.049604 9.779930 
-20.812906 -24.928986 16.255577 
20.941032 25.570913 6.650836 
-13.224449 26.410475 13.875364 
4.459350 24.984396 15.559790 
-10.464092 24.887533 13.992351 
-29.501352 -15.574063 9.071671 
-19.199640 12.999211 7.178934 
-27.801714 -24.694183 -4.458415 
4.166583 30.581120 4.474670 
21.089909 13.108271 0.262097 
23.664145 10.670684 3.231181 
31.681545 -24.292603 10.777157 
-19.500994 21.006001 -0.322572 
-27.101112 -9.560410 3.920170 
-28.831736 -10.288920 6.721510 
20.881645 -11.790495 2.100267 
-5.477460 26.582638 12.148803 
-4.434674 30.304790 0.056144 
-10.083328 28.636456 -3.849550 
17.466629 -3.200926 -5.867817 
-30.079029 -18.969694 -5.004955 
34.109905 -22.104753 5.795930 
25.911749 11.025715 13.858221 
-19.961576 22.940674 11.018557 
-10.590523 26.945313 16.928694 
-26.698242 3.882206 15.146224 
26.200016 -9.395731 14.016763 
20.660069 -12.768037 5.793430 
16.615894 6.891432 11.873476 
-14.561117 5.278614 3.282984 
-26.175917 -22.174578 2.423791 
16.967932 23.144854 5.649326 
24.917633 15.085178 15.933126 
18.701080 21.227942 13.878211 
-28.440113 -23.774471 4.799378 
21.565155 17.636620 -3.527203 
20.526028 -17.976812 -1.320050 
20.486902 -21.019123 12.422756 
-23.126541 11.031560 9.698809 
18.098402 -2.680689 0.921650 
17.458609 7.302479 7.734117 
19.664145 20.130650 7.807594 
16.924812 22.364450 4.563251 
-16.614513 -2.408454 2.279037 
36.873520 -20.019463 -0.188475 
6.330793 29.805750 1.750116 
6.916502 25.853106 12.520542 
30.266752 -18.090721 14.712141 
-8.366497 30.006044 10.780905 
-24.973902 -12.673736 7.335698 
-30.566004 -22.840866 12.541914 
-10.839694 25.412760 1.292336 
18.027639 0.553643 -0.880759 
19.233564 -4.815015 6.334146 
-18.843258 -16.070131 -1.915579 
-20.867767 -21.845802 -4.634032 
-27.376276 -12.512467 12.699410 
18.645292 22.138319 1.608671 
22.303698 21.721838 9.855146 
26.026306 -2.971977 6.343654 
22.250759 20.606468 9.330192 
-30.902573 -20.546778 12.771480 
0.290802 29.375818 14.038956 
26.569599 -22.028215 7.631360 
30.479015 -16.514189 5.540062 
-26.764450 -25.150076 -4.404669 
28.203100 -22.624510 12.043470 
7.682418 25.560444 2.104258 
21.495144 23.792919 12.377112 
3.803811 29.708466 1.286739 
0.428977 22.000715 -5.756437 
-23.287224 -11.651828 3.839891 
25.093586 14.112553 12.974338 
27.773933 -20.431662 9.515465 
22.105413 -18.094963 11.124043 
2.929399 22.784534 -0.554432 
26.014961 6.374800 -0.080894 
31.282965 -13.284352 10.789356 
-20.345098 -12.505830 10.497857 
-12.280074 19.571779 10.912729 
17.483738 9.670795 6.124656 
5.459597 25.154650 16.115673 
20.008448 8.228520 13.179369 
-15.140754 -0.071760 -5.194544 
-14.117222 3.939112 -4.906598 
-17.472033 -0.937620 12.192840 
21.142319 6.825986 10.692606 
21.565844 -7.742088 4.080085 
-14.672274 5.512041 5.331305 
-28.497942 -24.651590 13.340286 
-13.631520 7.485276 0.969162 
13.309431 27.143145 17.466290 
28.221567 -0.779841 1.807050 
24.697186 15.874175 14.803391 
-19.116421 18.301485 8.394618 
19.473680 -11.648981 13.143612 
-21.105665 16.236099 -2.742881 
-5.390949 21.386189 14.477026 
27.222288 4.576551 -0.022338 
-16.253635 -1.608123 11.409781 
-16.606453 23.645063 16.409006 
16.226978 6.689942 15.093089 
-28.960964 -22.642757 10.146895 
16.828323 24.785324 4.641840 
-25.039335 5.446125 7.510348 
27.500074 3.328621 9.965697 
37.959999 -23.338142 -3.796183 
12.535924 25.798820 8.173374 
-27.951040 -4.851681 -6.260384 
17.857927 -3.393868 10.900310 
16.240431 0.207010 3.406192 
18.128815 -7.118236 0.923141 
14.964491 29.243647 11.356546 
-0.568152 20.531515 19.166538 
-17.498318 9.270738 5.969251 
31.551342 -11.508826 12.380868 
-14.356431 1.167494 -2.639530 
-16.196960 18.962149 14.773289 
-21.253969 -2.932949 9.585364 
29.527393 -0.051113 16.373104 
-4.581306 23.697845 12.944597 
-19.605688 18.207146 18.082790 
3.481410 27.235497 -0.726325 
-29.810989 -17.382769 8.695207 
19.552689 22.606064 6.848446 
9.488336 18.153860 -4.049418 
-13.354587 18.838432 2.405784 
-22.127352 -15.534219 11.929042 
30.626940 -10.335851 3.224039 
20.411200 -20.047709 12.177569 
-26.296366 4.647521 14.817175 
-17.719027 4.014066 -1.651397 
10.895037 27.277061 2.106480 
24.920782 5.223682 7.884045 
18.019871 23.064917 1.523428 
6.848783 25.826078 2.004441 
34.836716 -26.014425 -0.855056 
-26.057901 2.458507 -5.352642 
-28.095068 -15.300900 6.742055 
14.937473 6.566592 -4.824154 
-27.192417 -22.408646 10.835912 
-18.084898 -2.955514 5.618358 
4.638588 21.221331 -8.236674 
18.896854 -1.805874 6.895098 
6.551433 31.626221 4.473876 
-18.603636 -17.452925 14.447910 
19.700342 -6.426354 9.135589 
27.763756 5.124420 13.412554 
1.546186 23.768427 14.411270 
9.531902 20.254932 1.293429 
26.234671 -2.157938 6.029796 
-27.897511 -17.231827 3.349185 
23.626020 11.124120 1.689350 
-18.765657 -0.931314 -1.458373 
-16.843195 -5.853816 -0.084096 
-17.386950 0.674948 12.228231 
-25.812492 3.729123 -4.323750 
20.660700 -22.282024 17.814445 
-31.314131 -19.696068 2.306535 
32.641022 -14.891371 14.756960 
-18.722723 10.815429 1.959282 
21.130190 18.368942 -0.188862 
-12.764002 21.628382 2.529230 
26.172119 -22.674419 7.094938 
29.953850 -6.174139 12.118206 
31.125721 -18.575726 7.493154 
-23.252441 6.228939 -0.041017 
-24.571753 -19.037807 10.612919 
27.817366 -24.179298 7.033781 
-29.305597 -24.511005 8.100042 
-23.659784 -26.497496 1.796184 
-5.874788 25.471806 5.344052 
21.334143 19.726673 8.257953 
5.815735 22.149967 -1.934204 
29.514931 -1.303902 -2.174057 
6.062791 27.613121 0.818008 
-7.795801 23.239321 0.610827 
17.795357 3.651387 6.857485 
26.714985 2.388793 4.106077 
29.838926 -11.592559 6.706233 
-21.412075 -3.135887 5.858459 
17.728918 6.709270 11.726985 
35.296993 -21.899605 3.517290 
22.132025 -26.043688 12.530167 
-20.234835 -7.803459 2.459600 
-11.748273 29.103571 1.644049 
10.920972 22.906176 2.352125 
-17.686205 13.538492 7.255941 
-27.274734 -1.046619 -4.617361 
-1.121866 30.212379 16.457186 
-20.080667 -23.231190 16.365435 
-7.825257 25.727049 16.058140 
9.663376 27.093489 8.375364 
-23.990166 -4.508301 11.032665 
-30.051773 -12.655067 1.765169 
21.269716 -6.821377 1.908012 
22.278555 -3.453157 3.960786 
2.169318 30.715643 0.183158 
29.917528 -2.321468 -2.009735 
6.762102 28.576916 6.756314 
19.519215 24.521681 5.758377 
28.347126 2.013670 -1.188324 
-18.236170 -12.503716 12.804209 
22.486015 -24.138386 10.238901 
5.188295 26.951149 6.561360 
-17.302008 6.158665 -0.031389 
-9.600224 23.697620 1.650913 
-23.307375 -19.750372 6.636671 
-26.076378 -14.391912 11.085481 
-13.618060 9.859157 4.005453 
-4.577244 28.242582 -8.983714 
-21.633987 13.172205 12.381280 
17.554987 -1.477489 15.883698 
-25.314627 5.591047 0.892821 
9.038878 28.098061 11.989728 
-2.980285 32.744282 11.475924 
-2.934330 25.394291 1.338934 
0.129236 30.527273 -2.721952 
0.837264 26.968428 3.890396 
22.271322 -20.255476 1.181244 
26.352289 9.393342 17.477604 
-30.526131 -16.403463 9.225825 
-19.800083 19.958799 12.277710 
-14.590995 22.934490 1.643820 
16.898859 3.112349 0.447885 
8.253365 19.624182 -4.226409 
9.035071 21.528387 1.555280 
7.402533 30.255430 -1.455952 
26.491770 -25.414276 3.821888 
-19.137796 -19.526705 17.930531 
23.065712 4.820795 12.304553 
-8.907524 19.046217 -2.886791 
-10.708317 21.227047 -2.779312 
-8.830657 20.344629 -1.262680 
10.849348 20.121593 14.227255 
-18.169659 -12.642076 -1.372392 
11.225085 20.546467 13.495475 
-15.850900 8.421905 1.358158 
23.232512 -6.497919 6.461440 
14.751537 16.732168 3.331551 
26.630148 -25.948038 10.373851 
21.149326 -5.874317 4.962701 
22.913450 9.534561 5.851616 
-21.875763 -13.413361 0.730391 
-5.555040 18.912409 17.871622 
3.840204 27.867449 11.375475 
15.865711 1.099233 -2.925109 
-5.517394 25.907560 6.278496 
30.493073 -17.722958 2.859802 
-17.332964 24.605049 5.764099 
-11.873583 27.336390 5.570694 
-18.184156 21.901682 6.269416 
-11.761435 27.288393 -2.232944 
13.455992 23.880632 11.373824 
-13.516150 9.689158 12.837962 
-1.037035 25.288742 3.946933 
-27.641037 -19.086395 10.303197 
21.440790 25.146692 7.286528 
12.577945 15.433657 2.511302 
24.889431 -12.684183 6.829271 
20.741518 25.193596 11.577123 
-15.454037 -1.862736 13.497008 
26.896896 -28.198467 14.908080 
10.023658 30.507429 12.024153 
5.025804 24.033789 1.135629 
0.635839 28.755783 10.979842 
31.600128 -17.089766 8.646341 
-21.423634 2.442356 7.032404 
30.156574 -2.354019 -3.760846 
-24.621090 -3.346908 5.089051 
23.888601 2.771961 13.564407 
19.478130 20.786953 15.841138 
-25.430668 -16.136078 14.146852 
15.164750 26.760670 16.525597 
-19.094944 19.613037 17.487087 
-8.326086 19.580103 -3.563814 
2.222616 31.587276 5.533221 
20.137779 6.888204 4.976549 
10.842472 26.184862 5.682742 
-29.713287 -5.847411 18.365404 
-23.338570 -7.364109 9.497198 
21.309902 -14.141638 5.915201 
-23.081642 -26.875923 14.848439 
-13.766526 6.546192 17.289619 
-19.497591 -5.122545 3.778557 
23.540037 3.616373 13.271481 
15.625134 9.096837 15.434978 
16.657316 0.923014 -6.251620 
37.031570 -17.057035 -2.371270 
2.592219 32.112148 8.707887 
31.756058 -17.381567 13.647066 
15.116290 5.095410 -0.960908 
-17.631437 -3.334131 3.868122 
25.224224 -1.941666 0.297362 
-22.861570 11.526501 7.696446 
19.998281 -7.570517 10.494252 
9.833550 29.036287 13.507126 
-31.318516 -16.360491 16.057417 
20.049009 -10.062857 3.719943 
2.647315 29.995916 1.549563 
18.116379 8.224364 -0.844355 
23.162363 -19.175886 2.257753 
15.942511 26.397715 16.220236 
13.802224 26.494827 10.513577 
-17.349564 -9.240347 -1.918778 
-21.095366 8.286895 13.639096 
20.733042 8.729102 13.281670 
24.996595 -24.464724 7.774447 
25.068722 -14.714623 9.491346 
-14.661016 4.304807 5.559711 
1.418644 30.677576 -1.687289 
-21.251364 15.974328 16.668621 
-28.027721 -4.113325 8.510039 
-15.153706 18.697189 8.969754 
31.546631 -7.392061 17.095877 
-18.361202 25.489397 8.459107 
-21.291130 4.393281 -1.296986 
-12.159646 19.344400 12.185688 
-14.926558 1.024390 2.804209 
8.845865 30.589045 2.351716 
10.379343 29.444445 -1.520506 
-23.068962 -6.431279 9.296238 
-21.592672 6.571372 9.863373 
-24.246590 -11.132045 9.878809 
16.342476 21.463646 3.542496 
26.845272 7.920569 17.441053 
21.768837 8.664492 1.105259 
0.419685 30.394243 5.283886 
23.827911 -27.718767 17.642391 
-16.546297 3.718441 5.603425 
-22.246332 -3.042990 6.302789 
13.805071 20.369570 -0.260607 
8.354657 26.755255 15.013317 
4.380341 26.052311 3.432805 
-6.020638 17.960787 19.090441 
21.622343 -11.782030 11.746172 
18.862131 22.184912 0.654771 
17.214075 25.334583 8.278919 
-21.253548 7.335217 13.387342 
-25.503004 0.771674 3.476393 
17.494112 1.224186 11.654861 
15.638722 27.833054 12.897560 
22.494759 -11.727038 12.421872 
20.992788 -0.815470 3.037463 
-1.028386 25.357578 1.266006 
14.135852 11.180646 2.218097 
25.990715 -4.239705 13.287381 
21.686987 -1.096237 -0.875458 
-28.714787 -13.548009 8.764948 
-21.592985 14.500968 0.657120 
-20.165337 -20.621666 2.931880 
14.340104 22.884644 0.968025 
16.302401 28.587034 9.660818 
-18.132538 22.527897 16.230242 
19.071156 22.990252 14.959777 
8.053039 31.683027 4.576439 
-29.382347 -3.793323 16.898258 
-22.718899 -24.798851 7.826233 
2.761846 28.739603 -0.708499 
-5.938444 20.668362 -2.850280 
31.354853 -16.129456 11.076787 
-21.659863 -26.076864 13.721626 
-20.363358 -3.114146 0.979041 
-0.343513 23.061232 0.419861 
-5.855531 23.912376 3.602815 
28.630772 -0.732319 8.831407 
10.859777 27.174395 5.908546 
31.726368 -7.107935 15.052179 
20.516190 -11.830281 5.544922 
22.334503 20.191263 12.744894 
-24.767929 -24.610468 7.014099 
18.934246 -5.542367 8.707362 
15.365904 24.430683 11.166615 
-23.431604 10.474944 7.849852 
32.560986 -12.828213 16.938496 
18.707363 -6.738375 12.650538 
-18.260876 -5.369174 8.521708 
-12.178560 10.636110 -2.854376 
8.811507 28.091152 18.697260 
17.981092 6.899510 3.502148 
-15.401907 -1.835849 11.754124 
-25.158859 -11.545617 0.209515 
-15.563900 27.498075 4.912074 
-22.503374 -16.738207 7.052907 
-30.540834 -9.426462 11.120146 
-24.094118 9.480640 16.734623 
-17.492414 20.120413 19.166510 
30.366316 -5.844863 9.592251 
9.462243 28.500738 -1.406020 
18.213081 21.871677 8.656148 
-6.019149 28.048409 9.374820 
-22.522913 -21.370485 1.241192 
-29.986103 -22.878969 6.239812 
16.917000 24.249819 5.491334 
-0.627131 30.724270 15.636258 
-30.637932 -7.776019 16.188780 
-3.962716 27.278482 3.791502 
-16.367233 -0.616813 7.341270 
15.995882 9.272523 1.915258 
-5.849760 26.335520 15.643310 
24.510265 -19.542723 6.036016 
30.259146 -8.453830 4.861312 
17.042057 -2.797784 4.249560 
-12.099534 29.549229 7.680309 
-15.262840 17.379999 1.730216 
-26.360998 -13.771196 7.382123 
21.075171 22.964624 15.312156 
-30.638906 -19.535168 14.548219 
10.338810 24.142593 2.111295 
28.726011 -7.142828 10.730766 
15.716852 1.084567 2.768244 
19.435055 -13.956533 18.075178 
16.270573 25.535006 6.726078 
18.518408 2.666772 -0.950607 
-22.771315 6.834428 9.070432 
-16.207985 5.329648 11.264645 
15.980078 2.616907 3.651540 
-10.468500 24.867699 17.162476 
12.823691 12.796655 -1.411861 
-27.716944 -25.675684 0.645930 
-19.215425 -3.757670 2.823667 
24.871098 -18.998905 -0.017443 
-9.056766 27.118679 14.396412 
-10.731406 21.059093 1.949690 
16.123541 17.329153 2.449835 
-29.358328 -11.052050 6.385190 
13.119079 23.952679 7.212023 
-23.334414 8.698063 0.154739 
24.418310 15.816929 12.812956 
17.819576 -6.492733 -3.547268 
-16.065506 23.464142 2.857899 
18.993206 9.907269 10.061645 
24.933403 6.127416 2.721038 
-1.832809 27.133186 17.919216 
-17.234043 2.419127 -1.737468 
-9.821085 26.047192 3.915478 
20.238918 5.201760 6.817132 
2.353714 28.586479 6.268521 
19.096966 23.772518 15.927731 
-16.530785 -4.317637 -6.172466 
-25.140518 2.531720 6.065264 
-21.407972 -23.117456 -4.525115 
23.660217 -4.324829 3.506433 
23.871859 -14.433668 4.969398 
19.557882 21.290833 -3.418535 
-14.970668 18.344133 10.902366 
23.503820 -25.657871 4.634907 
-22.769224 -15.042463 10.620887 
31.519941 -21.943180 8.348500 
26.771572 -17.473072 14.614246 
33.128738 -10.998079 1.939989 
16.985775 3.087181 15.291350 
6.069965 27.961802 4.605620 
-30.891954 -18.625299 -0.882935 
-24.820503 3.059261 4.870565 
16.143633 1.265041 3.841328 
-22.411398 -25.042580 6.320809 
-19.011032 14.800366 11.008516 
-27.791199 -8.782129 7.030487 
15.126514 10.185613 18.831814 
21.908016 -3.943242 0.764472 
-12.569222 10.681045 15.227318 
17.306719 -3.152480 5.170945 
-4.107415 29.257044 4.669266 
16.304472 1.249617 4.720523 
15.711261 16.406078 11.322536 
-19.167494 1.834657 12.840445 
19.789618 20.241257 0.591879 
18.677805 -6.645802 16.524744 
33.478188 -9.633922 0.161158 
15.867144 26.955822 12.943719 
-22.102268 13.736757 0.108974 
-25.148592 -0.195470 2.084827 
32.143471 -26.926071 1.529014 
-19.524893 -10.020175 5.489677 
33.073303 -12.100875 2.363951 
17.350279 25.597029 15.885900 
23.009487 4.150984 7.903936 
-5.472751 23.322002 12.895401 
0.889275 27.894035 1.905058 
-20.395920 -20.699034 -4.732438 
30.121382 -14.149654 11.122931 
7.984796 31.447931 6.566578 
-26.747747 -12.475385 6.992487 
-24.023888 8.692048 12.691735 
-16.413021 -4.840154 14.935349 
15.185678 4.903222 -2.537435 
-6.060043 32.677929 9.364876 
-2.954540 31.201181 14.727528 
-30.678061 -9.003730 17.110723 
-1.825498 24.651930 15.811270 
1.740604 29.397110 15.075483 
22.077032 13.778749 3.542230 
32.465843 -10.478440 14.569934 
18.458799 0.184324 2.904386 
26.803755 5.556901 -0.509496 
15.438192 1.461379 -0.452058 
-30.535667 -18.211296 9.178582 
17.075920 26.775076 8.796038 
16.651861 0.128574 6.007216 
-23.565430 -5.352041 2.824924 
23.270832 -20.683451 7.090042 
-12.587047 12.156346 13.943465 
14.464873 27.202700 14.915906 
-25.773046 -1.421549 2.028073 
13.699101 26.065666 9.588558 
22.604382 0.578693 7.610334 
-28.247435 -20.926777 10.542606 
-16.862940 6.311667 0.802781 
15.830812 18.361834 11.775628 
3.497705 29.004198 17.915531 
17.005629 -1.222856 13.072428 
-24.047270 -13.297351 6.806472 
5.650410 25.980875 1.572976 
33.458614 -14.875034 2.539658 
19.164982 -10.813474 16.577139 
-29.416117 -23.274641 -4.606478 
-1.608107 28.720745 11.153565 
32.214287 -22.411203 7.519542 
5.107353 27.071239 3.314920 
-12.641996 29.060310 10.011255 
33.525379 -17.020462 4.375061 
-11.956564 14.879950 13.351863 
-22.537718 12.744279 -2.736683 
25.856661 -21.919447 6.525157 
-13.606811 22.412426 -3.677589 
15.415684 25.740601 10.377081 
-29.388769 -10.186512 12.938347 
-6.332272 30.573143 8.985664 
-26.145781 4.809564 13.793379 
-22.306187 11.945986 8.842331 
20.864803 -18.762497 11.172247 
-26.171854 -22.269142 10.586510 
-20.658066 -24.921728 14.907973 
25.529165 12.204296 17.336012 
21.887136 -22.442272 -0.555493 
25.568626 -15.103934 2.680509 
-10.630789 16.362236 13.945252 
-17.169596 21.813568 7.227560 
15.868256 29.090763 10.829054 
-6.480516 26.958050 -1.003527 
-20.342539 21.588793 10.746410 
2.448201 29.070377 13.058407 
27.271273 -13.394183 1.878466 
6.228263 31.849873 5.459097 
32.991184 -18.365435 17.000902 
17.353573 -0.540250 11.349557 
-18.162361 4.537964 8.363461 
-2.324062 30.838749 15.619545 
-20.995077 -20.528690 1.588668 
-14.127625 28.840044 5.169129 
9.085661 25.133411 9.989941 
10.188140 23.453327 1.365723 
16.256950 21.324154 4.424363 
-15.701693 6.126234 12.089073 
-26.638073 -25.334190 11.970432 
24.912615 -14.632676 1.959093 
-30.231907 -12.637663 0.422062 
19.623169 -16.695341 16.067722 
19.673971 -17.637802 16.027876 
20.799734 -17.718245 1.094495 
-22.143353 -26.092216 17.727919 
24.062387 -18.628479 5.593289 
19.302612 -10.560797 12.941889 
14.950406 26.271549 8.834818 
-10.256164 26.497675 10.236266 
-16.910896 16.162138 2.480193 
-6.178098 28.871042 5.241331 
19.031832 -9.674818 15.033448 
-15.608500 17.493204 10.940474 
-6.764734 23.374836 14.371237 
5.703276 30.713903 5.579270 
-23.692526 -19.122704 14.729877 
25.141296 0.614867 2.572457 
23.733337 -21.462578 7.236726 
-17.136686 -8.287149 -2.894936 
21.946486 -20.846075 3.217936 
-20.589077 -13.623626 4.764172 
21.109747 -18.752487 1.745734 
-17.970045 9.639142 6.666928 
-19.396519 -20.427032 17.902630 
7.602661 25.776489 13.353932 
3.166768 27.932032 6.133527 
-27.270851 -2.848248 0.837603 
27.838877 -12.896142 13.624073 
-22.122942 -11.680982 9.312126 
-18.408974 -12.468792 11.870545 
30.640009 -15.614468 10.110346 
30.436470 -4.145953 13.551075 
-26.499296 2.705827 -1.688879 
11.138977 20.043179 1.647651 
31.357327 -7.527113 18.266796 
-28.563612 -6.138491 12.530872 
14.888816 26.343061 -0.371914 
-20.519472 2.233282 13.122445 
25.251034 -1.031410 3.170033 
4.282040 25.306620 2.347533 
31.003302 -5.278360 16.948669 
-24.581142 0.343092 13.329303 
32.581367 -18.198370 10.496968 
31.505667 -19.974998 8.467095 
28.291275 -24.435558 9.118727 
1.268231 31.159101 6.859415 
-15.238699 11.133912 2.158497 
-7.537831 22.191147 12.958244 
-29.736330 -22.987253 8.695657 
31.172905 -18.430904 14.571837 
-30.159191 -21.323040 -4.792408 
-20.944609 -23.165586 7.553988 
20.899515 -0.671559 -1.003282 
-10.201320 14.383727 17.325827 
-14.785566 10.187449 -0.140928 
19.098383 -0.340166 6.049207 
-13.939445 28.592840 7.001297 
-6.410417 27.560255 11.306358 
22.822897 18.917252 11.467440 
21.265810 -4.218798 1.474539 
16.231583 27.467331 11.995234 
13.600874 21.184202 -0.833409 
28.380976 3.307238 17.198172 
25.720728 -25.553167 2.381718 
-15.018459 19.682190 8.713039 
-30.532364 -7.093905 9.021569 
-21.631584 -25.995047 12.750406 
-22.915562 10.657037 -5.882526 
19.384132 -12.926850 16.733414 
-15.272262 -2.177974 -2.121234 
20.270237 -16.841480 -2.841910 
-20.522730 -21.604118 6.180937 
32.756100 -20.441929 10.679955 
-19.012300 -15.762046 0.594730 
6.915145 27.714468 12.045696 
18.979984 18.127552 11.530054 
-0.929013 26.002415 16.941360 
-23.821802 -10.863342 -0.311623 
17.234772 0.761441 13.224699 
12.125059 19.811136 0.920253 
-20.871206 -7.949727 -0.626824 
25.127768 -18.351675 7.623520 
-16.040977 -1.928953 10.421199 
26.980101 6.428089 11.685285 
-8.530688 23.332977 2.623899 
26.474472 -0.036579 6.003076 
26.401779 7.056798 9.938799 
19.882748 8.898479 6.274436 
9.654664 31.335052 11.836545 
-1.593947 27.979445 15.376569 
24.651466 5.808987 0.505522 
18.482658 17.892145 13.228371 
30.176664 -26.669554 16.370598 
-23.383564 10.152605 6.917643 
-30.888643 -10.264270 17.017559 
4.888472 21.098362 17.843121 
28.783213 -7.488342 7.228138 
-28.236668 -13.129291 4.732635 
-10.996792 23.180399 11.196101 
-14.736638 2.840075 -6.800416 
10.531989 28.732725 14.313238 
25.001699 -13.785028 7.434382 
-20.676353 21.795795 7.714028 
-23.623213 0.747857 -0.616898 
25.615490 -24.136696 8.330676 
23.872055 -12.833063 9.607763 
-21.262463 9.682494 11.768592 
-26.373110 -4.999757 12.083049 
31.945154 -22.957985 5.293296 
11.665121 15.247688 -0.877793 
-25.518913 -24.867514 14.148237 
25.255878 -14.247707 12.664052 
-14.610432 1.941829 -5.068112 
-14.388028 5.831336 11.707578 
23.042717 -13.477168 4.626408 
14.429880 24.072641 15.845303 
-6.164871 28.577606 -7.162203 
-26.968472 -25.273344 8.438632 
-21.728689 -6.308900 7.531583 
-1.367163 26.242067 11.762554 
26.111494 -6.916950 10.046591 
-30.776640 -21.374901 7.399210 
20.767082 3.413882 8.159302 
-31.019833 -19.172987 10.791376 
28.656443 0.778732 -0.630263 
30.397572 -3.308072 -1.866322 
6.226349 30.498444 11.349030 
17.438469 -5.310252 -0.473693 
-24.069841 8.298208 -3.684167 
28.808622 -11.272238 1.934728 
19.788017 -5.345442 12.561273 
-6.782043 23.125856 0.519215 
-16.393990 4.667611 2.007659 
30.599014 -6.357747 8.361916 
20.148882 6.540512 13.050333 
-3.249503 23.789770 14.225805 
1.407163 30.886799 -0.418197 
-24.091017 -14.302676 2.721787 
-2.083903 30.479776 2.544415 
-26.410923 -15.342475 5.659568 
12.117454 20.020611 2.597506 
20.582794 -10.930123 5.917597 
-30.972868 -10.025499 8.933701 
25.597902 6.499099 0.696196 
-5.216072 28.702755 2.958021 
14.845739 12.193207 3.994055 
19.828571 -14.665447 13.712386 
18.807999 -9.940107 -5.240396 
-6.143064 26.601034 14.406482 
27.694799 -27.225735 12.292216 
26.697626 -28.118593 13.880900 
-23.039011 8.030563 11.682158 
24.213284 -11.025556 0.518362 
15.022479 26.948221 5.464912 
26.098600 -18.154659 -0.041624 
22.202612 20.504257 10.236264 
-15.951903 21.331059 13.533065 
1.557580 22.190199 16.398123 
22.657080 3.753021 12.535068 
18.394424 -8.039461 1.664344 
-19.665869 20.304321 13.229403 
-20.283606 -4.519469 2.850391 
21.578781 -4.487449 2.268552 
30.523834 -4.343332 18.366779 
24.491293 -24.991264 6.074337 
25.978477 6.350486 9.447454 
19.576668 -15.750164 16.233309 
10.891620 17.177954 19.053221 
24.492357 -1.861112 11.193552 
11.709370 18.265358 2.431686 
-22.251709 6.401249 5.943962 
16.467920 8.392842 1.941897 
-16.360466 -3.805672 16.708605 
-12.116490 25.571344 14.183394 
-7.051047 21.439251 13.074064 
-26.382853 -10.584304 10.551519 
33.135349 -20.650841 15.918523 
-10.182189 21.379282 0.200302 
-20.987307 5.259385 9.577798 
-29.884195 -22.567404 14.441711 
19.286379 -13.201677 -1.996400 
-18.337242 -5.161803 2.744996 
16.020252 3.711776 -6.512234 
4.137666 30.624641 0.124363 
8.178019 29.928200 -3.026014 
-19.956915 20.782867 6.121382 
-27.656256 -26.093006 15.363869 
-18.391804 1.490714 4.719139 
-20.232529 11.660596 6.554118 
20.063465 4.546863 7.879978 
-3.967030 32.553116 11.743987 
-10.550179 27.619576 6.869645 
6.389248 28.869905 1.652815 
8.273852 22.147137 0.590754 
-25.273602 1.888961 13.113627 
-26.892359 -13.385113 2.874876 
-28.443583 -21.413422 3.764662 
-19.081854 20.928513 0.642196 
-16.150593 25.688641 4.481684 
12.337867 24.750504 6.625449 
-18.172115 -13.559828 14.910342 
-10.949631 15.134419 14.680350 
34.161076 -18.509029 4.509583 
-24.551859 -26.928862 13.996656 
16.519611 -2.057915 -2.950425 
-31.248457 -21.241346 5.430834 
14.459580 8.009126 0.355399 
-22.650122 8.116425 5.988347 
17.666363 25.779377 12.939614 
-18.102665 1.237175 -1.786298 
-16.242092 25.845125 3.590291 
-20.531683 7.488285 6.830126 
32.121841 -9.032613 2.974429 
-19.899414 11.452431 10.830028 
24.171015 -5.605628 1.049860 
33.965187 -8.418234 -5.197475 
29.564545 -23.975866 13.267454 
19.565323 -14.347797 -0.471789 
31.857565 -10.426055 11.700710 
-24.770842 -25.666370 5.969653 
29.235008 -0.106724 18.499962 
22.678156 7.302903 6.532088 
18.830969 1.678827 12.639122 
30.703289 -4.239356 -0.571148 
34.831959 -24.675686 1.344249 
0.003782 27.021490 2.018269 
6.554384 28.379974 0.565372 
-3.577332 22.805510 13.878658 
-23.878124 1.084839 13.405427 
32.664597 -19.921507 12.670034 
23.400009 -11.733711 9.810382 
-28.457932 -5.998112 1.771926 
19.687906 -1.575106 13.470094 
19.718288 26.288092 6.434493 
-20.396759 19.506981 7.500651 
24.258175 -9.873626 0.376751 
21.509686 -3.414600 6.257560 
-2.645850 30.764658 0.263393 
-0.500860 25.660452 3.028869 
18.814140 -7.616420 13.650006 
21.148081 0.469779 -1.129398 
14.133071 14.798238 14.251167 
-11.186515 15.904780 0.773075 
32.605930 -21.674257 7.063845 
-10.710123 16.495113 -0.139775 
24.015728 8.781568 13.217887 
23.887062 12.560901 -4.572458 
25.936045 -13.676301 13.146970 
-5.108549 28.082178 1.276472 
-27.343519 -24.306566 8.323599 
18.073652 -7.591619 -3.444229 
12.908937 13.657870 1.675184 
15.968289 8.719604 2.792614 
28.417517 -28.186516 -3.470267 
25.804007 -17.853884 14.550986 
-29.312910 -13.033303 8.004937 
-18.170462 12.976973 7.861992 
-8.356718 25.584753 16.917759 
-23.787998 -15.765870 2.129882 
-5.257966 27.409651 14.484475 
-18.858437 -6.588856 9.294053 
-19.872051 -18.092154 2.691064 
-13.894782 3.229645 0.893340 
27.289289 4.997859 -3.556440 
24.563702 -10.534730 13.648555 
-19.361034 -11.930477 5.820941 
-30.526470 -18.139774 14.795471 
11.601287 28.241198 2.595015 
-30.721922 -15.914399 0.865943 
22.256060 22.831697 10.615355 
-24.322046 3.931818 4.928524 
9.008488 28.324005 0.578823 
17.495502 24.349327 -3.114085 
24.656834 -15.329461 3.808131 
-7.978568 28.713297 4.680375 
22.701073 -21.488646 7.955460 
32.117485 -24.560699 17.734673 
-3.836197 30.477068 4.909462 
-15.204347 26.773651 7.341022 
26.568169 0.684700 13.666391 
27.777815 4.532195 12.583819 
-20.879976 9.609612 2.757771 
2.057716 31.243143 14.289178 
-9.754825 27.214630 -8.952280 
-29.794624 -12.767434 10.480597 
17.626509 7.716081 6.959180 
-16.675503 26.320930 7.598833 
-18.079420 -12.623549 18.145147 
-26.276459 2.592093 -3.981488 
11.883636 27.316698 7.606494 
-8.928638 29.677244 7.899416 
25.752155 9.878220 9.931849 
14.199933 20.232065 12.500861 
20.213575 -7.938543 3.105983 
-30.126884 -23.779530 12.325750 
-15.994348 -1.832427 17.048004 
-15.565534 26.244663 6.690910 
-4.507849 24.840673 2.080664 
-4.364918 25.608778 2.596727 
-21.984888 6.297813 7.614939 
-18.872969 -15.928544 -0.576480 
17.703012 -1.870077 0.073129 
16.358307 6.641905 18.720299 
19.742174 -8.334054 6.448534 
-20.370378 10.508276 6.360697 
11.020243 29.232859 -0.893936 
-13.910265 4.688857 -0.490797 
-8.441908 27.434896 0.508844 
-24.979746 0.813885 6.244826 
24.795856 15.042471 16.827702 
-16.682413 -3.761185 18.420650 
-19.388710 4.044274 12.075751 
30.117208 -8.357956 13.562599 
-14.087368 22.691168 14.735280 
-15.247108 -0.816062 13.221787 
-3.862428 24.166830 14.970353 
-15.095363 0.080323 2.407835 
3.277735 26.422504 -0.395528 
16.750612 -2.366958 5.395614 
18.713867 27.004272 8.024165 
21.866488 11.063488 9.819786 
23.555891 -21.740713 4.511684 
18.878036 -2.738488 -0.372020 
-24.754808 -9.200253 -0.454268 
20.445906 -6.079678 6.261242 
6.224140 29.583176 -4.880485 
20.072989 4.096943 9.343950 
17.299931 23.927483 0.481261 
0.683567 27.409084 14.110532 
-24.768606 -11.772276 6.955401 
0.135889 30.018482 -4.530416 
30.639294 -4.150652 14.564734 
-24.326321 7.670594 -2.157949 
19.020687 13.126597 0.631991 
0.049771 22.881153 14.906973 
-20.947159 -10.816466 11.480082 
28.654940 -0.806557 9.795590 
-20.029505 -19.546001 11.916413 
25.878695 5.195539 2.666392 
-26.193472 -1.265001 12.805896 
-19.723391 13.220726 1.795440 
-29.854670 -12.802374 8.735282 
-9.707225 21.262049 -0.966224 
21.404392 -21.260279 11.183891 
16.414471 0.043973 -4.551999 
-26.002819 4.433429 7.076128 
10.185245 26.038494 15.757457 
31.816036 -24.645943 15.757056 
-18.970842 20.436420 14.860331 
-29.850523 -24.299057 5.124987 
17.977783 -5.118288 10.669176 
23.198572 -14.698284 2.675782 
27.611956 2.241274 13.089399 
-0.346870 24.623232 13.864206 
-14.607014 22.420778 3.734205 
-18.795015 19.321085 18.264462 
18.518187 4.740783 -0.588023 
-0.545596 28.527111 3.303334 
19.218605 4.248022 -0.795586 
28.971153 -13.844874 3.648638 
27.400639 -21.852852 15.325362 
3.962152 26.348366 11.903994 
-30.799095 -18.064535 13.513602 
1.134072 30.690500 7.849978 
-0.366515 27.224176 5.902918 
15.610370 1.262676 -1.588816 
23.813351 -8.562291 4.110832 
-27.978872 0.090134 17.241735 
-18.520088 -8.872838 4.703741 
-20.480783 -8.582679 11.166897 
15.399322 4.746125 -4.408556 
-29.555759 -22.010286 9.384624 
-8.752604 28.245481 2.163204 
-30.659496 -15.744094 2.241529 
18.817801 -5.487946 9.609492 
19.552401 -11.434807 3.084509 
-23.840708 -9.036890 -0.646143 
23.549881 12.951804 -0.172175 
-13.032850 24.006437 11.768298 
-24.494925 -0.505090 0.059423 
-22.584133 0.652344 -1.053618 
-15.511697 12.445705 -0.864404 
3.366970 24.943392 1.021931 
-22.668053 -2.651190 3.199388 
31.146084 -9.655966 4.890300 
-24.043898 -3.916086 6.318755 
-4.427667 30.524794 15.677802 
-17.933544 16.442291 2.561351 
-23.722950 2.883855 6.665403 
29.686007 -5.419429 10.180758 
-16.889791 15.115799 3.014411 
-12.199604 19.267935 2.868059 
32.794769 -8.674286 0.923144 
18.069088 -4.607974 15.520889 
-22.946997 -26.745464 12.871762 
-30.283007 -15.124619 -2.845307 
2.661636 27.813990 2.063978 
-28.824429 -14.700222 13.351787 
23.046240 -10.550956 9.828088 
24.186016 -9.059334 6.759406 
-19.227167 8.521781 2.051508 
15.809553 2.893970 -4.294542 
-26.872585 -25.456894 6.287259 
-25.945145 -4.943538 6.482625 
-26.976397 -6.634826 12.876587 
16.587669 19.517134 9.804254 
-25.760477 -20.489801 9.528956 
9.557617 27.462492 -1.322011 
21.859358 16.952888 -1.840072 
16.621523 5.868042 12.268053 
26.994524 -4.306995 6.882541 
-19.133591 22.462912 5.642723 
-16.561613 -4.782176 16.540127 
16.250210 26.429468 11.444119 
-21.325144 -22.505711 2.569234 
-8.484056 25.551107 -0.295634 
-27.766054 -13.802937 8.416138 
27.134357 7.209044 12.170544 
17.138844 3.948176 18.635647 
-16.188366 25.137226 -1.168903 
-15.629891 -0.101354 16.829170 
-25.742439 3.536455 6.090482 
30.628431 -13.931870 10.381952 
-26.899824 -2.167885 6.883405 
20.598877 19.828665 7.673590 
-18.904202 3.468372 -1.760142 
-29.671921 -15.602586 13.862253 
-15.527582 26.840061 1.295758 
25.849508 -22.925449 -0.682139 
-27.720993 1.101256 13.093403 
-15.789723 0.033506 9.766409 
-23.360529 -3.428215 9.751364 
17.238777 1.489720 13.969990 
18.758003 24.715998 6.552300 
-0.996554 22.436932 -1.733518 
-17.575808 -9.470848 -4.297340 
-22.434755 -19.965639 6.608473 
31.692724 -12.347024 10.804606 
-5.588460 28.105717 -8.983372 
-10.606395 17.801657 0.632784 
-23.500847 -19.352392 1.155647 
24.932106 -13.169379 13.140504 
0.282757 28.167536 4.198747 
-29.211975 -10.748348 -5.740473 
26.837299 -22.569820 -0.735972 
16.211573 19.905174 11.584674 
-14.748983 19.338583 1.944574 
-29.900526 -10.387454 -2.180792 
22.969511 -8.272214 9.686860 
-15.393468 -1.117010 -4.982422 
18.118206 19.905685 12.079571 
26.740696 -10.210365 0.801637 
-26.337952 2.538611 12.307480 
21.668242 0.020117 6.274561 
19.569496 -14.406938 -1.746394 
-15.745187 -3.187629 -3.046317 
-17.740145 12.271997 -1.533765 
-31.256500 -12.753260 15.706932 
16.276524 6.729593 14.115087 
-23.896219 -1.863900 3.947743 
-2.313853 30.113405 -3.944546 
25.908270 -3.738196 6.794967 
10.006639 21.384357 0.908303 
-5.725190 25.629747 14.975018 
21.215328 -11.694323 9.177677 
22.193457 22.273439 8.431120 
-1.598440 29.095039 -7.251307 
-27.775480 -25.238401 -1.689488 
22.122379 18.719315 10.384733 
16.555113 23.037096 -0.394860 
32.115559 -21.843073 9.341814 
-2.539501 28.403400 -8.973972 
-12.633866 24.286293 19.292835 
28.778666 2.709081 15.155687 
-30.292839 -15.427203 10.888438 
17.453768 -2.463650 15.035231 
23.446182 -2.356967 -0.231007 
-30.424486 -23.208839 15.155665 
21.814037 -11.671897 7.972978 
23.017458 -14.363596 8.770038 
-13.749825 26.744902 -6.102014 
20.694092 19.351608 -0.772104 
26.984180 -5.288156 7.715954 
18.630085 4.811219 9.748742 
-19.280037 10.433120 12.859991 
16.723814 -0.045114 0.486934 
21.456358 -8.708899 9.388598 
14.819040 19.751650 10.862168 
24.989664 9.719250 11.425124 
29.688894 -1.312562 -3.898531 
14.920759 26.546831 -4.356092 
20.033365 5.584785 12.627566 
6.668348 27.938276 15.457360 
25.014088 -14.599014 8.137951 
21.469713 1.658438 6.139960 
-19.921238 11.820424 -1.065336 
28.644323 -13.038737 8.599084 
-19.646097 11.143911 11.613190 
9.191619 29.473713 0.108189 
23.770052 6.280661 1.257699 
8.548643 26.912451 14.098992 
-26.568365 -20.480515 12.276028 
21.911884 23.657867 10.915575 
7.837824 27.904602 14.963934 
16.353615 22.514277 12.368158 
19.186396 7.532895 10.517550 
-26.603195 -14.146667 11.869846 
-13.702716 23.580566 12.842804 
15.548620 18.407812 12.834768 
-17.367649 -8.541734 13.427486 
27.530506 -25.298189 3.357879 
-23.396370 4.800141 11.695888 
30.525702 -28.677673 -3.400533 
23.563726 -13.685112 12.312080 
-7.722178 29.375233 -1.073993 
-23.214651 1.771549 7.356262 
27.702848 -20.320717 15.383160 
9.729559 28.003489 8.262369 
10.368064 29.122084 -3.379055 
-16.758909 17.816826 1.345463 
8.114914 30.165148 -2.044435 
-20.349571 17.219763 -6.335245 
-12.268209 27.766939 -4.861751 
28.273481 0.504051 8.729966 
-9.347226 25.635027 5.388438 
24.899479 -23.969196 3.631882 
-19.312239 12.777831 -1.142006 
-22.250956 -4.159568 5.707571 
-18.696505 11.119364 7.427007 
-19.841537 22.037178 6.057630 
-1.941177 29.910378 16.852922 
-28.455210 -8.166814 6.985549 
-9.701980 20.722460 0.706838 
13.926528 29.768461 9.773763 
-18.341990 -12.783020 -3.917788 
-25.142021 -14.447810 7.498027 
24.620604 14.963172 17.838614 
26.804026 -0.405908 5.085911 
1.924638 25.435686 4.076150 
16.286379 7.766409 5.054871 
26.860739 5.882336 -3.401186 
36.064316 -12.535700 -4.798858 
-26.786007 -25.125677 12.824068 
-26.956976 -1.320843 6.189789 
27.328117 -26.159863 7.060370 
-25.840412 -2.174015 12.709971 
-27.723421 -12.730518 3.216249 
-15.749085 7.620799 5.995003 
-0.124513 25.254776 3.735329 
-20.654957 6.563673 -0.802364 
-19.858055 3.408920 6.086266 
2.869799 22.482944 -1.694071 
-23.110842 10.818363 -4.362761 
22.032608 19.384768 19.113659 
9.657438 28.280174 17.907238 
32.582603 -25.748669 3.412152 
-22.143625 6.154246 9.127841 
3.242068 22.303373 -2.720366 
29.625547 -5.081539 3.398215 
-14.073399 19.811277 14.267385 
9.065131 25.784534 2.778705 
-25.277536 -3.492988 2.742365 
-24.444580 5.975649 1.564213 
27.513077 6.475369 15.892764 
21.901243 -21.372499 2.381619 
28.836815 -15.838651 5.993680 
-12.870303 9.638977 15.392606 
-24.962408 4.847935 0.492500 
-0.139344 26.828243 0.856002 
-21.205856 10.262978 4.311548 
-22.475538 -25.760698 0.952628 
-25.273510 -25.522329 11.582643 
-12.554298 26.574533 -2.043471 
-5.314652 28.909050 5.056322 
-3.306974 27.269558 5.461948 
-16.186527 21.479923 7.860069 
-13.916183 4.131903 -3.192425 
24.612364 -10.957857 6.537268 
-26.759233 -17.311911 11.237159 
20.927074 -18.928909 0.875797 
-25.220552 6.147164 -1.641433 
3.969532 30.904095 5.757327 
-18.714577 0.591142 4.706329 
20.119989 6.962688 3.846989 
26.649443 -16.914051 9.637401 
-23.074198 12.024781 15.679895 
-9.569262 24.843853 -2.068290 
-15.737824 23.522263 17.515423 
23.474583 3.332742 10.281851 
3.923316 23.806131 0.898082 
26.029612 -23.508175 7.423871 
30.394901 -3.205603 14.600480 
18.426458 -4.745436 9.125340 
-15.643663 0.431682 -0.340768 
12.863271 29.805691 9.722412 
21.420811 0.112877 13.893660 
-25.402985 -15.446559 9.056987 
-31.234474 -18.307255 2.305370 
-16.224371 19.001081 8.303072 
-15.657038 -3.011875 12.182600 
-8.812737 27.243155 9.916993 
25.458927 -22.938879 8.462169 
36.099007 -18.370987 0.858015 
23.975731 3.926937 7.536753 
14.647466 29.139156 7.990215 
-14.316728 2.084269 -3.628471 
-19.860615 -20.614717 4.422522 
-10.886831 23.964975 12.702409 
-18.213068 -11.443919 12.125324 
16.136944 8.118833 13.618759 
-19.804173 24.277569 7.584559 
28.012131 2.993474 -4.974241 
19.843618 18.361343 10.637971 
-2.703456 27.918846 18.326042 
15.469498 11.902407 11.482453 
30.750950 -5.004051 13.568045 
32.782558 -20.035559 11.515817 
-26.839603 -26.538177 17.717556 
-26.035315 -5.716279 7.369637 
18.776659 13.768536 2.981574 
19.255699 -12.185606 -5.031330 
22.133596 13.707852 4.438725 
-18.650345 23.865303 12.626718 
-11.552302 29.387482 5.713521 
7.479421 33.348885 11.538247 
-19.683569 20.355425 14.321735 
-19.217707 -2.759243 0.132476 
4.960706 30.209333 5.084374 
20.944143 21.983307 16.089481 
-31.203136 -10.313053 14.974236 
27.218700 -10.583681 14.146881 
-4.293068 23.851334 13.956714 
28.280912 -12.238162 5.860919 
28.436392 1.603830 10.951076 
-7.031205 24.355526 4.121507 
-22.913166 -19.016865 7.074282 
-15.486828 -0.120271 -6.540801 
-22.294098 -18.259104 7.671743 
-31.182928 -19.802025 0.774892 
-26.196491 -25.599045 8.149489 
-29.951637 -9.041969 -0.142062 
-16.853874 -4.743976 18.390112 
-13.202728 16.359941 11.374526 
-3.874860 20.962898 -8.314887 
21.970871 -13.346062 9.130558 
-20.267075 -15.007823 3.723530 
-21.744535 -1.796128 6.304978 
29.913542 -23.937084 6.124767 
18.923233 10.039878 -1.359209 
-3.562402 30.524055 -0.514315 
-14.024912 24.214155 11.533536 
-12.267127 27.386623 -6.118414 
-10.841747 17.869617 12.554748 
-24.153612 -18.817923 4.011911 
7.683350 27.735985 1.075197 
-23.253220 9.440440 6.012474 
7.533591 28.749331 -6.900548 
-1.245674 30.769302 1.994377 
-1.443280 31.099754 9.666615 
17.602161 -2.357712 10.079325 
5.833292 25.801016 0.146000 
-11.681103 12.344428 -3.555157 
8.172869 26.989132 5.342885 
-20.884916 -22.715086 3.779402 
-23.980545 8.076797 -5.400316 
17.989529 22.373737 16.125299 
26.284218 -15.721297 3.573182 
25.062954 -21.276377 5.651922 
-18.898466 -18.557070 17.960606 
-22.467611 12.652846 -3.801831 
31.903811 -22.031429 4.598610 
-11.062992 20.989666 -0.167519 
20.650829 -6.383517 3.863346 
24.671316 7.535370 11.141103 
-29.867922 -20.335018 9.655112 
-15.539400 26.507292 -0.164354 
-11.706312 13.047276 15.393899 
14.177426 20.229628 0.742105 
24.534895 -11.639761 4.687335 
-15.148278 4.991773 5.997695 
-8.858447 28.499847 4.173751 
19.366150 9.124265 -1.168034 
-14.988125 -1.111027 1.279030 
-20.914186 14.032966 2.868691 
13.249475 14.603456 17.179264 
-7.375010 27.660992 -0.944826 
-24.754719 -27.000980 4.962998 
-19.738760 -19.547375 -3.454551 
-6.402335 29.483704 1.407333 
19.934832 18.807060 14.642701 
-10.727419 28.623535 5.087831 
9.239023 29.326952 15.127564 
-20.547529 -6.610534 9.364320 
35.089157 -15.870292 1.052171 
-20.343773 -21.832525 -1.556293 
-1.550183 32.819614 11.374043 
12.941348 24.760380 16.636112 
-20.203339 -18.758486 2.207680 
11.105176 20.740246 -0.057328 
21.310665 13.626680 1.805172 
3.479429 29.549067 -5.547743 
-22.627676 -9.399968 -0.692410 
18.898159 22.246830 8.116526 
30.213663 -3.290160 18.399879 
0.168575 27.418867 11.756744 
-19.112621 18.492010 11.736281 
23.381750 6.644700 6.170912 
10.389174 26.155531 3.562143 
11.729377 25.906572 17.008595 
23.025558 19.303680 15.662700 
20.618048 -9.505771 1.671791 
7.498363 30.246250 1.849630 
-21.160965 -12.870253 10.917915 
3.329196 29.608652 7.995240 
18.834251 -10.959746 -3.541651 
23.942274 2.807193 -0.534304 
-17.927734 -11.638399 18.175776 
-16.919491 -5.892722 12.066071 
-21.883636 -11.568670 11.878425 
-14.049584 22.621841 4.731656 
-25.048716 -23.700134 14.583716 
14.696952 7.110710 0.736224 
-13.988980 26.177450 9.081198 
19.130478 26.277996 12.581165 
-20.637369 -21.858343 -3.508369 
-27.316660 -12.596907 5.964950 
-1.730815 21.617088 -8.348637 
-13.316140 22.284412 4.070905 
-22.330568 -23.015427 8.167765 
-15.186951 7.285887 8.552654 
-23.059509 -16.258047 7.879758 
1.015368 30.483282 -2.746372 
-22.331795 8.775135 1.760187 
25.447737 -11.101393 10.474477 
12.478304 27.252838 17.988493 
-14.785649 23.230286 12.571848 
-27.048172 -24.478767 14.585300 
29.408468 -0.066369 17.384583 
-12.871222 27.895102 -3.762026 
-19.259283 17.850599 19.097015 
24.209402 -5.244024 13.153814 
20.080385 -4.491063 2.732009 
-6.705672 24.738718 13.016798 
-18.922741 12.435129 8.644438 
8.267056 21.966721 13.647070 
-10.348183 16.129957 -2.137872 
15.623587 0.316178 -0.761422 
22.410923 -25.259253 9.898855 
-29.435760 -4.861671 18.395954 
25.816473 11.598721 15.917983 
-18.488974 -6.434239 5.070189 
29.619787 -27.652599 2.934466 
23.403917 6.062079 0.153397 
21.654408 24.807516 8.419926 
-0.327494 28.000650 11.235645 
18.419363 -9.245434 1.419618 
-28.234680 -15.733502 11.122372 
-30.022255 -12.821316 -3.198095 
-12.659466 20.822180 2.869015 
4.725109 31.206747 10.498545 
-28.547632 -4.633668 10.588087 
-27.353817 -12.556477 1.719759 
16.975662 22.636299 2.754445 
-24.634495 -15.060248 3.030912 
10.288776 24.219713 3.932900 
3.906011 32.934620 12.692365 
-13.874399 23.504608 19.269381 
17.963539 -2.389345 6.673538 
2.150266 32.193260 13.497805 
-23.834536 -20.319843 14.898182 
-27.855873 -19.052851 15.462021 
26.696848 -1.194527 11.527444 
-23.598581 -5.377994 -0.296319 
10.404711 25.001741 4.393428 
-20.302473 23.458731 8.297256 
27.306913 4.803537 -4.914198 
-22.959591 10.566846 6.186399 
19.719246 -4.762219 4.750520 
-25.684254 2.215667 2.497124 
18.858780 1.603794 8.295837 
17.733271 26.991369 8.250178 
-26.576912 -15.949003 10.636366 
-26.194328 -5.112949 9.982021 
16.261497 6.644098 17.395638 
14.976955 5.794175 -2.824212 
-10.256090 23.612757 2.590100 
-20.309746 -2.023598 12.970431 
-21.972181 -16.393118 2.266522 
15.943555 24.521269 9.001294 
-19.050270 7.193634 6.251279 
18.320105 -5.640726 15.258528 
7.374699 21.810789 -1.006362 
-21.553095 -3.257965 2.300887 
18.016027 1.910794 2.830686 
-23.459124 -14.201102 5.858852 
-25.063856 -6.331201 7.522156 
31.562414 -6.311373 1.291680 
-21.897902 -3.330383 4.902805 
31.521437 -18.402773 4.196690 
19.686922 -2.991806 3.679823 
-8.507414 26.314842 16.172232 
-22.701759 -8.551874 5.179594 
-16.882938 -7.220793 -2.741864 
0.532983 27.211258 12.940638 
35.358784 -14.779589 -0.395583 
16.379341 28.274265 10.627810 
-27.973139 -3.381927 -4.392136 
-16.591328 5.464663 7.576632 
-12.438896 22.297722 1.985802 
22.819370 11.256360 9.365083 
-11.994386 24.936865 10.219350 
-21.397348 13.538655 2.294699 
-18.051821 -11.293102 0.838796 
-20.430237 -22.968189 6.667400 
17.214466 8.584702 6.275630 
-25.625175 -3.336369 10.742975 
18.575687 -9.838492 -3.509147 
24.700117 13.789798 12.108594 
-18.254408 -14.583979 16.251871 
-26.958691 -24.433416 10.200000 
11.255044 15.133838 -5.466897 
-18.556356 -12.858153 -5.421826 
-30.696503 -22.643179 1.771296 
32.236046 -23.221170 10.580976 
20.484659 -10.296775 2.211985 
-26.961784 0.851835 9.505051 
27.847195 -25.265137 8.241154 
-27.518278 -26.255470 4.161551 
-4.340210 26.327332 2.072968 
24.654627 15.886739 13.743090 
30.947256 -5.080203 14.567811 
-5.257054 26.164801 3.106824 
15.354117 20.787003 3.908386 
23.620598 -15.371759 11.180639 
-10.170459 22.544846 11.616610 
-29.928177 -17.718706 -5.116648 
-29.945066 -22.353899 -4.696327 
2.821995 29.354431 10.497320 
-21.830200 -4.077741 9.344386 
-9.356227 25.395487 4.480640 
25.681454 -2.303627 1.217373 
20.211742 -18.259455 13.035354 
-8.922951 27.500608 17.166319 
-19.331827 5.700346 9.457926 
-29.104910 -8.245068 -4.471447 
5.486000 30.479542 0.108434 
-16.381119 -2.617113 9.850072 
-18.929609 12.353260 7.710699 
-18.176189 3.564756 7.417433 
-11.919436 26.032927 15.519879 
9.449809 28.820841 7.969227 
-22.850016 -5.498999 11.457734 
1.498497 24.920238 3.308228 
23.448425 -7.504019 8.420609 
22.276402 8.109599 4.397216 
32.628197 -12.782161 15.868789 
-27.144802 -17.403112 9.698826 
-15.888272 5.422703 0.766224 
-17.305155 10.872510 9.471275 
25.256971 -22.600765 6.262563 
-25.851145 4.070235 0.779493 
-13.478732 15.155725 11.548488 
16.683739 24.177654 -0.227880 
-22.966722 9.559577 -7.508309 
18.449106 9.112085 -1.175090 
16.706387 4.754033 3.144552 
-24.400423 -3.965625 1.112287 
-23.876667 -1.724944 4.839861 
-1.516109 28.437525 -8.964848 
23.076740 -0.098566 2.787942 
21.725861 -13.740901 2.908234 
18.539810 22.032602 -6.330487 
-6.944173 28.819063 2.118735 
-20.499470 13.855111 4.902451 
15.176331 5.657039 -4.616190 
-16.605196 -4.124869 0.773424 
-20.814650 -20.733715 5.865024 
26.561331 -1.234858 1.658168 
-4.839801 29.530632 3.113318 
-13.102086 26.136496 -4.563553 
26.388165 -23.104782 8.165834 
-10.794363 13.524127 17.164341 
-11.086884 18.953407 11.681911 
-19.013264 -17.177742 -1.867392 
-23.205658 0.588421 7.268297 
-29.901884 -23.551514 13.194295 
-25.059755 4.127424 6.017383 
23.395737 -7.133482 3.994684 
19.493597 -0.400375 -1.001559 
31.019558 -4.304300 -1.983319 
21.409487 -17.369772 2.840043 
-13.937334 11.482003 1.493205 
-25.241583 5.910619 -2.739140 
17.181488 3.244707 12.891442 
19.651281 -14.468478 -3.190763 
30.640491 -19.204092 12.171831 
-24.871811 -26.919823 3.739720 
-20.713701 -1.538020 -1.112258 
-18.670753 -13.456504 11.634147 
22.733486 18.993711 17.910345 
-0.569539 29.629066 9.127422 
-22.018421 -2.445852 13.077157 
-19.177570 -7.847733 0.627464 
-12.832763 24.882658 -1.520619 
-26.285501 -8.271358 8.002465 
17.696562 -6.399497 -1.826394 
-27.305241 2.103998 16.539103 
-7.427626 22.588587 2.265433 
-13.208277 11.605052 3.706444 
15.113022 21.232002 6.516942 
30.236301 -3.259881 13.598583 
11.705199 28.691570 -2.438882 
-15.911609 0.712238 8.837693 
-24.503721 -20.635986 10.868562 
-10.297799 28.885290 7.840956 
-16.912481 -6.715498 14.637954 
-21.932148 -0.692446 2.611674 
-23.124146 10.989888 6.994764 
-4.006614 29.375483 3.471462 
-14.065866 27.110548 -2.935667 
-14.578844 1.042797 -3.807110 
21.042501 -13.009899 3.505025 
-20.581453 -23.165588 2.668474 
-25.469122 0.794019 1.383254 
14.652905 6.822762 -1.623638 
24.162533 7.164234 1.882529 
0.381356 31.028675 9.089689 
-13.172293 28.447479 10.814782 
-1.625761 26.977777 2.868654 
-15.523021 24.472404 -7.593828 
-22.339788 -4.969000 9.191561 
21.309986 -8.728121 11.434970 
21.766470 -5.670179 9.792019 
-21.718729 -25.749470 11.279700 
24.189447 4.773343 9.787080 
-16.184446 21.800241 2.363744 
-8.455768 27.984968 1.246513 
-9.665479 28.631979 1.964410 
