-9.773725 26.194685 1.051394 
-21.986609 14.237615 14.529670 
-11.662717 16.159590 1.748419 
-29.934881 -15.712766 13.268396 
19.363251 -13.008324 18.104822 
-16.413021 -4.840154 14.935349 
-17.380310 -4.444145 8.985708 
17.849955 -3.315921 12.461898 
-20.193495 12.805737 7.689051 
17.887058 -1.516113 17.099428 
31.670887 -17.840355 4.956427 
-19.734545 8.037240 5.391056 
-28.155384 -20.493698 10.396645 
-20.392820 -22.436174 6.578060 
-28.169468 -14.256980 10.855984 
-28.369650 -18.083590 9.599043 
-15.540864 2.943228 11.240316 
-10.051894 28.979881 -1.269292 
12.182308 20.146093 0.025320 
22.410923 -25.259253 9.898855 
31.236601 -5.952124 13.851402 
5.747880 29.059608 18.198778 
26.425585 9.871325 12.113870 
31.906652 -19.070108 14.477228 
-28.426847 -15.251584 5.657451 
-14.498098 14.036768 3.403467 
26.477087 -17.855762 14.713508 
21.550400 -21.517603 -1.873296 
30.281837 -11.350190 5.188907 
18.593454 1.506712 8.701632 
-21.328175 10.190068 3.681455 
22.927402 19.172909 16.762346 
21.286606 -21.107597 0.347724 
-16.271931 24.856667 -0.898004 
-15.891775 3.432506 -1.437407 
-28.930038 -9.861728 4.767260 
-26.176908 1.063535 -6.775850 
19.155844 0.038400 -1.021542 
-30.888643 -10.264270 17.017559 
-22.382338 -13.701526 0.879723 
-15.643663 0.431682 -0.340768 
19.465460 9.464426 11.878405 
-27.169537 -4.458443 11.769866 
22.470980 2.545429 13.576001 
14.976955 5.794175 -2.824212 
-10.459643 17.520132 13.330353 
-21.575695 -9.156639 5.097657 
29.880007 -8.624920 5.672370 
21.876225 24.421764 7.963571 
19.139885 -8.777117 18.237030 
32.117485 -24.560699 17.734673 
27.280233 -6.830306 1.339855 
-9.251785 29.474525 7.878905 
-24.177908 6.452333 2.262335 
26.980101 6.428089 11.685285 
33.167591 -19.202978 13.980266 
19.023191 -11.056834 -5.136512 
-20.958147 -9.388609 5.860513 
8.023957 29.338743 -0.015534 
-15.752042 20.722488 1.965001 
-29.139656 -8.683890 2.922840 
-20.104864 4.733612 10.592416 
17.187386 9.134686 3.372993 
-12.998380 25.411085 13.306113 
-12.587047 12.156346 13.943465 
-26.018700 -6.760851 0.065603 
7.574831 28.079668 17.435423 
25.480377 -21.571001 6.088111 
19.981869 -3.516169 5.764229 
-25.851145 4.070235 0.779493 
18.026442 5.962572 5.577984 
11.051154 29.130657 -1.830142 
17.517647 21.599773 3.786863 
16.513847 -3.314025 -0.100250 
-23.501770 9.369698 -1.001570 
16.457462 1.856009 -6.338651 
-24.703663 -24.670361 10.988322 
23.881420 -14.859935 7.107063 
-3.634000 30.532154 0.510321 
-29.860889 -6.268497 11.610131 
-12.996534 21.541363 9.669330 
-27.136576 0.390900 8.328121 
24.591444 4.790909 9.447363 
-6.096904 26.647026 12.468011 
32.662655 -19.653877 12.671291 
29.835094 -12.398782 6.230592 
34.383938 -20.348185 5.141507 
8.708082 24.617874 0.467906 
-30.966110 -10.044676 9.159669 
-23.466358 -21.322849 8.107496 
32.403389 -12.922226 18.097647 
27.545864 6.525073 14.749121 
20.018326 7.973392 3.032953 
-2.584403 25.507269 11.843939 
8.682628 27.353077 -1.375323 
-26.057871 -20.363400 15.499928 
16.354141 -0.612173 3.393853 
0.758124 27.488577 2.889890 
12.167272 20.409599 13.156792 
-16.584019 -1.254801 7.395079 
32.117065 -23.329073 10.347043 
25.011906 -4.355401 10.150351 
-14.466983 28.550406 2.754141 
-30.441858 -7.802088 17.198271 
25.017153 -2.824971 13.822781 
18.807999 -9.940107 -5.240396 
-12.142654 20.698528 -2.451157 
29.561052 -0.173426 13.339422 
29.295858 -27.424780 17.647430 
15.778229 26.051733 17.629887 
-26.033360 -10.254585 7.502531 
-10.886831 23.964975 12.702409 
13.200394 26.947229 18.032091 
16.923834 7.226285 4.395679 
-29.319353 -16.589487 8.655956 
-15.501696 5.604230 1.635961 
-23.430698 -26.710443 4.427754 
26.433302 -22.382488 8.832683 
0.591939 30.837166 -1.129558 
2.842675 27.888258 -0.775914 
-17.608084 -9.456476 12.561263 
27.306913 4.803537 -4.914198 
-15.782415 -3.213701 -0.614667 
24.160604 -23.520157 0.890958 
27.768553 -15.827431 8.775011 
-11.955816 28.862667 6.701231 
26.696848 -1.194527 11.527444 
-11.381911 24.486755 3.507462 
-2.666828 29.174303 17.571468 
22.610901 13.767651 1.577328 
21.109747 -18.752487 1.745734 
24.671316 7.535370 11.141103 
-13.531199 26.023680 7.126427 
-15.272033 0.824868 15.112415 
-16.435528 -5.081924 -1.284967 
-26.941206 -11.127210 4.611530 
-19.646097 11.143911 11.613190 
25.770094 -22.885513 6.589767 
-26.859842 -25.254057 11.935017 
-22.655107 -20.972902 2.917432 
-23.270626 7.676923 1.739234 
27.146605 -28.226549 16.149347 
-18.964211 -19.513224 16.269003 
14.177426 20.229628 0.742105 
-21.218306 4.310036 9.658601 
-14.947498 -1.078138 -2.500833 
-26.764450 -25.150076 -4.404669 
28.590174 -4.189704 3.402293 
7.430027 22.768564 0.656373 
-24.571753 -19.037807 10.612919 
-20.663971 17.581947 -0.896393 
16.771347 6.953004 11.356877 
25.139143 12.226727 13.029335 
-28.213638 -16.447163 14.552124 
3.071483 26.100071 12.506826 
-19.215425 -3.757670 2.823667 
14.544628 23.809235 11.753377 
-21.457830 -24.690401 0.046324 
-7.031205 24.355526 4.121507 
20.800030 0.930041 6.067191 
-27.899250 -7.100711 10.743216 
28.283821 -15.650725 3.944106 
-17.597408 -0.416986 2.081312 
14.605826 29.820807 9.321451 
10.408727 26.101843 0.452125 
-15.243325 17.880514 9.804350 
-10.868370 28.676201 2.252375 
29.302057 -11.407501 7.834488 
9.441339 26.474894 2.497995 
-9.395935 24.773340 -0.730577 
-23.338570 -7.364109 9.497198 
2.233326 24.453808 2.221596 
20.162924 8.751332 2.454415 
-17.348593 11.546937 6.700934 
-20.332361 3.447149 12.794108 
-13.995018 21.720224 -0.070866 
5.168587 22.094122 15.749328 
-17.345474 -7.693982 18.298426 
-26.198109 -21.219805 10.174877 
9.251125 27.270504 1.520096 
23.813351 -8.562291 4.110832 
31.022623 -17.103062 4.192078 
28.465265 -15.924608 3.081953 
3.259620 29.813313 16.052645 
-11.038234 12.277342 18.916880 
-29.113562 -13.229884 8.263672 
4.115704 24.556557 12.986805 
3.134354 27.757427 12.400061 
11.516606 23.268429 15.667148 
-28.154278 0.132445 15.008028 
32.022141 -10.956147 8.340568 
-28.238821 -13.979716 9.983486 
0.421226 32.149464 13.064523 
-11.956564 14.879950 13.351863 
-31.267599 -15.198135 16.903214 
8.805731 26.643684 5.811431 
-14.718027 9.465953 0.872312 
29.113012 -5.132167 9.712918 
20.985302 0.301315 5.371102 
27.257469 7.263091 12.689424 
14.414028 7.879755 -0.728822 
-27.797457 -23.569794 13.538898 
25.809875 3.489820 0.382192 
29.984062 -12.488138 10.646914 
-18.299376 -14.549390 14.694818 
-18.568764 24.978640 10.832824 
2.196048 25.806799 4.481448 
30.471577 -26.621117 17.671621 
25.370687 -27.072584 -0.706328 
26.502670 -13.941631 5.575504 
12.212523 15.034968 0.960593 
-12.188257 26.927153 -7.468207 
-25.031719 0.402687 13.247320 
22.961807 1.326812 -0.904856 
-25.220552 6.147164 -1.641433 
30.605633 -6.239236 10.732500 
31.654160 -23.861650 12.299927 
-24.386736 5.819498 7.525167 
32.514572 -18.484459 12.596703 
23.297424 5.207590 -0.186166 
17.114775 18.907707 1.825698 
-22.901472 -21.358044 1.278868 
22.203127 -1.251302 -0.777557 
-31.023764 -17.991198 11.354609 
14.355071 20.604404 13.613335 
-27.570192 -12.661616 5.132459 
-16.828310 1.489235 6.525392 
22.367535 3.693579 12.512917 
27.140743 6.250199 18.699921 
16.936661 4.041841 13.219718 
25.555296 3.956935 5.356901 
-27.965958 -3.012782 -1.290079 
23.576181 -0.591039 7.501371 
16.020252 3.711776 -6.512234 
28.714138 -19.743677 9.274186 
-17.349564 -9.240347 -1.918778 
-7.282969 26.627312 7.660742 
-8.933167 25.652805 5.360042 
-23.650555 -8.291958 12.838391 
21.593622 -3.798926 6.054769 
15.648387 26.909378 13.319943 
-19.753626 -19.551636 10.248186 
23.872055 -12.833063 9.607763 
-16.742189 -6.309042 -4.171494 
-20.269604 -22.071917 4.741396 
28.014328 4.434708 13.477856 
-20.024921 -10.042521 5.979163 
9.706720 19.335876 0.375528 
17.333788 22.460011 3.451421 
-20.949482 -12.896299 1.255958 
25.344000 13.007121 13.977066 
-2.726319 24.552000 12.240078 
28.519035 -1.695465 1.606571 
27.182199 -16.967337 0.941621 
-2.494332 30.630329 -1.504824 
-17.056406 -8.139396 -1.705027 
27.351963 3.352206 8.401185 
-30.807220 -22.731230 3.389447 
20.526028 -17.976812 -1.320050 
-24.784569 -12.176268 7.183084 
23.692533 -25.430943 -0.474144 
22.776810 -23.578003 8.687435 
20.242411 -1.938543 -0.730429 
-30.956480 -20.408447 10.861928 
-3.764723 19.340014 19.131775 
-19.396606 -17.377880 -5.021812 
-25.921276 -7.251888 7.614924 
15.399322 4.746125 -4.408556 
26.432096 -17.078636 8.735366 
27.325068 -4.468916 4.067806 
-9.399197 26.081200 2.275054 
27.175947 -25.925129 10.743751 
-31.234474 -18.307255 2.305370 
-17.927734 -11.638399 18.175776 
23.316114 10.196996 11.713782 
-24.278284 -6.483754 12.487543 
-18.920383 3.094356 -1.795869 
7.263171 26.778418 1.573812 
-10.070651 15.637515 -6.233675 
35.957829 -24.745199 -0.978702 
-12.199604 19.267935 2.868059 
-24.204885 -4.622697 9.707348 
6.075779 21.542501 16.306501 
-1.243485 30.213179 -3.900124 
-21.237730 4.888292 7.069378 
-4.839801 29.530632 3.113318 
22.148726 20.377325 17.192173 
-6.688072 26.564953 10.908820 
24.697186 15.874175 14.803391 
29.391094 -13.731826 10.434738 
23.419464 -21.942177 4.444855 
-21.177040 -21.920280 13.027736 
-21.153549 -19.347048 13.067707 
28.121264 -25.451424 10.294304 
27.470898 3.351045 10.171359 
-16.035755 -4.121529 11.779535 
15.762847 20.793734 11.529648 
-23.031656 -10.283716 3.212078 
-12.111900 13.530065 14.074165 
31.264805 -4.385272 -3.647941 
27.923279 -25.958607 11.322839 
23.040173 19.390085 14.624180 
31.782858 -24.057768 10.781679 
-27.801714 -24.694183 -4.458415 
28.417517 -28.186516 -3.470267 
-18.849697 25.027882 8.728997 
-14.123528 8.815856 3.290896 
28.758352 -23.321232 9.902551 
-23.766401 9.102567 7.694108 
7.784672 29.231884 7.513446 
28.490889 -2.741050 8.715226 
9.270905 32.405777 14.038446 
-22.928179 -7.142783 6.064969 
17.558556 -2.571783 11.522029 
21.416330 15.976282 1.763013 
10.946360 18.817011 1.695264 
25.589348 2.723039 11.026039 
-27.775515 -14.965639 9.290987 
-11.007171 16.710449 13.072251 
26.547167 -21.024773 8.563356 
-13.090548 25.803516 14.159120 
-16.146482 -3.868891 15.198579 
-16.828598 8.686455 9.727184 
-21.824568 10.876793 3.003216 
33.452560 -15.821342 3.433540 
8.369656 20.169662 16.658373 
-24.616922 3.599873 4.776138 
17.537865 -0.031721 11.763320 
15.707251 21.499468 -0.615170 
30.436840 -25.084394 13.175245 
21.844286 1.592478 -1.096914 
-9.219971 25.550564 11.019724 
12.961044 18.261576 13.564694 
-15.981635 17.574608 13.217027 
21.020927 17.093481 -7.666560 
28.919210 0.905984 18.531803 
-19.419392 -19.325771 -1.198368 
-13.316140 22.284412 4.070905 
-24.460234 5.170687 0.259084 
18.606667 25.685278 13.558784 
28.856234 -16.552416 14.277187 
30.609398 -8.163190 7.635671 
-26.243633 -6.255317 2.962709 
26.868637 -24.596308 9.494179 
33.710423 -8.402227 -3.403929 
-30.424486 -23.208839 15.155665 
-14.101567 2.270257 -2.383136 
24.629599 6.284711 2.732183 
21.429007 -0.402690 5.853011 
-18.339897 15.189961 3.102311 
17.208231 18.563587 14.042579 
18.320105 -5.640726 15.258528 
2.773916 30.149496 -3.170357 
-17.005919 10.074203 5.615960 
15.840718 25.688433 13.009591 
-27.973139 -3.381927 -4.392136 
-17.773670 17.982937 8.441746 
17.126265 12.271527 1.238072 
-19.317226 -3.685042 9.173234 
-9.271919 24.268532 0.013422 
18.373882 1.590081 10.732728 
30.696798 -20.594213 15.050469 
-18.575701 5.474006 6.547514 
-28.810766 -25.128971 2.566251 
16.415524 4.708337 6.120054 
-25.674107 -20.432959 9.549991 
24.418310 15.816929 12.812956 
-24.506504 -22.261480 10.854050 
-21.251364 15.974328 16.668621 
19.677458 -12.870807 2.763663 
25.353584 -24.393768 0.817899 
-27.343519 -24.306566 8.323599 
-16.235029 7.891125 4.629187 
26.503239 -4.302233 6.907125 
-14.844121 26.958843 -2.210775 
24.621876 -16.135958 3.395215 
18.878365 26.616804 6.590789 
-23.189192 -9.793989 -0.615576 
-29.038654 -10.709455 2.907480 
-16.511536 8.502576 2.872633 
13.396902 22.465111 11.749683 
-17.021288 -5.727212 18.359554 
-20.353971 -6.813076 9.270809 
-30.066271 -11.196949 12.550245 
23.908775 -18.960056 5.004339 
-8.685655 17.537739 15.902329 
20.380636 16.895226 11.065135 
-12.984052 26.943867 -6.558304 
24.777412 -3.163343 10.587760 
-14.118094 3.121063 -3.409363 
31.228651 -25.003199 10.563745 
35.640629 -11.466928 -4.900880 
18.663311 -10.598629 0.244178 
-20.379543 -0.961105 -1.327502 
2.384437 31.970467 6.921289 
-9.644003 20.422949 12.641786 
33.118183 -22.307438 7.269936 
-22.858299 11.809629 -3.429075 
0.154081 27.071074 3.802576 
-23.490139 1.048682 7.389782 
31.721220 -21.280796 14.737043 
-27.575665 -2.510761 11.220290 
-18.833439 -6.479019 2.110865 
-17.845280 20.843126 14.401158 
24.466856 -13.829457 9.423401 
6.000257 25.420790 12.412306 
13.022237 27.443331 -4.981642 
8.975638 24.773500 10.790866 
15.602836 26.043974 -0.104183 
16.325018 25.238356 2.272549 
18.072981 13.946331 5.485781 
13.119658 25.491585 -1.500546 
-30.419710 -17.518473 -2.821249 
9.305861 29.007933 7.993856 
7.137713 32.639133 10.250273 
-18.957344 -19.194056 12.509158 
-29.904501 -12.601671 8.359714 
-23.408796 -1.681354 0.620523 
-4.577244 28.242582 -8.983714 
-21.645908 -24.600897 -1.250224 
-17.340593 15.363664 4.924869 
-16.358425 15.023314 3.147545 
-15.272262 -2.177974 -2.121234 
-30.414097 -9.035951 18.266432 
13.376957 13.887630 3.035067 
24.424362 -0.902689 14.085176 
18.458799 0.184324 2.904386 
-17.804132 -10.472535 12.822306 
-23.348564 8.536988 10.935273 
-26.556890 -26.617008 16.345860 
-13.281550 12.259752 3.520514 
30.127853 -4.898686 11.940288 
28.517952 -0.578107 0.981002 
8.671209 27.616234 19.380636 
14.249825 8.631102 -2.329814 
28.347126 2.013670 -1.188324 
25.499880 7.080195 12.673575 
23.108711 -1.077856 6.892161 
28.757507 -16.992132 7.419753 
33.335587 -7.432530 -5.294420 
24.400352 -6.474606 0.775411 
-17.122313 19.277714 15.121895 
8.971949 20.192381 15.856929 
19.261944 17.414402 1.067391 
-20.258015 -11.784137 7.263430 
27.832041 -20.983805 9.489166 
28.856657 2.028754 12.860476 
-18.898466 -18.557070 17.960606 
-13.488820 17.900036 11.025726 
-30.625351 -10.292862 18.227369 
-23.670063 7.806184 -7.357634 
24.264059 10.980268 -0.850877 
-24.458607 -2.936146 12.784946 
-7.878411 29.774452 10.973583 
-20.415375 20.446739 10.422474 
25.783470 -20.578987 7.934129 
24.126537 15.524464 18.991611 
22.569759 8.035082 13.471868 
16.874792 21.459133 15.614080 
26.745197 -9.926548 0.780632 
-15.914854 23.271862 1.854542 
19.561277 3.884783 6.223069 
-7.370478 30.009161 9.814991 
-20.254583 -22.788383 9.539200 
2.403101 22.158461 -3.324265 
22.448196 -18.696785 8.491972 
25.659813 -15.369997 6.838305 
17.072575 26.274052 11.604156 
-16.175594 -2.804936 16.879375 
21.076962 6.142738 0.271567 
4.697911 24.166363 1.162175 
-19.331827 5.700346 9.457926 
-17.058273 6.991884 2.089751 
-1.966303 25.431723 13.055552 
-8.459214 28.975166 8.341538 
7.387716 27.052124 13.920624 
-21.323999 -2.857695 12.895701 
-22.141384 -6.206064 6.257833 
-14.845068 23.902674 7.286872 
15.491874 14.686757 10.456045 
2.821409 29.476604 -5.763103 
21.257418 18.467712 -1.342088 
20.204275 25.919069 11.134287 
-13.770043 6.566389 15.965903 
19.984735 -8.338857 3.482558 
-13.743365 27.250025 -4.720260 
19.198273 6.670166 5.176492 
30.859169 -5.121839 1.304206 
20.531971 -6.887908 6.019097 
-23.509119 -26.824236 17.706110 
-20.344566 22.691099 9.630543 
-29.928177 -17.718706 -5.116648 
19.864321 -17.525679 14.418252 
-29.674379 -12.232967 7.276053 
31.521437 -18.402773 4.196690 
-29.987328 -5.770805 17.043941 
-26.124561 -8.685648 8.203411 
-5.980187 22.878691 0.877458 
16.910786 3.947596 16.969055 
23.667223 2.298373 10.862818 
1.186666 32.691486 9.499907 
-14.944809 4.226768 11.725535 
27.378061 -10.531421 1.065740 
15.608458 29.157114 11.160428 
20.911226 -7.729112 7.409368 
36.873520 -20.019463 -0.188475 
16.766636 -3.213347 -2.600624 
-12.502176 19.044676 10.704524 
35.556747 -20.154812 2.870169 
23.010977 -8.747947 12.711045 
28.955757 -10.554981 8.148612 
6.156959 27.504635 2.117517 
30.766911 -13.870607 10.071745 
22.447033 13.406857 2.566484 
-24.014198 6.926541 -7.281939 
33.147228 -7.403662 -3.686124 
-17.541769 21.156033 7.527715 
23.076740 -0.098566 2.787942 
21.768053 -19.244751 2.868273 
7.086549 30.224764 0.672258 
31.098993 -24.491663 12.607660 
-13.876710 23.328623 14.161289 
12.132022 21.289837 2.464489 
13.802224 26.494827 10.513577 
-18.513401 -5.991119 3.263204 
8.909889 29.632431 -3.446980 
0.735818 27.710136 14.257546 
-28.583773 -6.693914 3.476949 
21.063620 -13.821631 5.554767 
17.023212 3.154773 13.985616 
1.183612 32.020077 12.205919 
19.456030 -13.880023 16.565529 
27.368769 -17.948742 -0.010046 
-19.224991 11.288537 -1.302931 
-21.982998 -9.344997 12.227136 
26.095497 -6.118520 12.826604 
28.999485 -0.292574 -1.200974 
9.241005 26.109219 11.982204 
-18.609655 -15.459157 13.148488 
-14.513768 8.009067 10.384470 
-19.769405 -7.527734 9.656690 
-10.078640 15.504351 -7.893747 
18.522367 19.021935 8.771179 
-16.298553 -4.136220 -0.200297 
19.527309 -14.803052 16.399405 
22.122423 -17.832197 11.909174 
8.125874 31.680532 15.198080 
28.766533 -2.043700 10.653227 
-10.332797 25.714418 -2.819007 
19.602020 9.657856 -1.286435 
-5.367225 29.745907 -3.216452 
-26.588797 -0.753740 5.404069 
-26.192009 -19.030201 9.900126 
4.410761 26.728008 17.680941 
-22.116451 -24.589304 4.766153 
2.100903 26.908596 -0.366411 
-21.919163 13.933549 13.701061 
30.081049 -2.177916 17.123363 
13.229053 22.088879 1.776825 
-1.028386 25.357578 1.266006 
-4.883879 28.580362 3.360362 
28.743452 -25.719641 10.890729 
-17.947792 4.654222 11.880721 
27.745026 -26.038721 12.194687 
17.124113 4.097230 12.340645 
-23.124146 10.989888 6.994764 
27.612175 5.812212 13.423023 
3.446140 34.011520 9.967150 
17.497482 17.911446 1.406132 
24.949194 -16.902945 5.028588 
16.483740 23.958105 14.592104 
27.002048 -25.726690 7.524208 
-18.923325 -7.132021 9.287613 
21.947580 -11.106833 0.792993 
31.521235 -11.251878 7.343624 
-20.241659 10.140116 2.360584 
-23.970335 8.473500 -2.195439 
29.010674 1.966092 13.958985 
25.353853 5.795932 3.413841 
21.541527 -2.337617 3.517874 
31.617102 -20.327095 14.755587 
-24.091599 4.378181 4.736741 
-9.846954 14.026514 18.970562 
-21.155569 -9.369425 11.728244 
-29.630011 -23.530766 -1.994438 
-17.136686 -8.287149 -2.894936 
18.101330 0.808506 8.103221 
30.302652 -10.486254 5.412181 
22.813370 -14.822170 11.130016 
-16.723162 24.975750 6.281283 
-28.386475 -11.960670 3.381421 
-22.264055 13.647669 -1.440394 
26.954563 8.092660 11.957522 
-0.586690 27.120270 5.803158 
24.633286 -24.382393 9.647968 
-18.036774 9.540666 -1.206788 
1.312839 24.376051 3.112301 
-14.840917 -1.076488 -1.477089 
-20.343773 -21.832525 -1.556293 
21.390738 12.162900 -1.019912 
12.348584 17.556248 15.339057 
-14.176517 9.517631 1.929682 
-20.909437 14.030950 2.622402 
-20.593109 17.429718 -4.714053 
22.315798 -18.590105 9.365037 
18.062321 8.547786 6.175106 
23.527882 -25.714609 4.223446 
-13.309092 8.697167 14.243147 
18.452547 -2.460464 18.434666 
-27.440308 -14.184863 12.557456 
-14.355525 23.259722 0.209259 
7.718092 28.013666 11.993208 
-25.066645 -16.091757 8.921034 
24.526352 -26.915073 1.479410 
-17.407972 -8.854659 0.606426 
-11.550908 22.649971 15.088435 
-21.921907 -13.913659 2.509995 
19.567007 -2.712288 6.718681 
-16.631474 7.062875 2.914498 
-22.917629 11.880735 -2.319217 
32.174633 -19.764954 7.187398 
1.109611 29.325317 3.599186 
18.797977 7.376798 5.929410 
-25.662058 3.450037 12.303116 
23.046240 -10.550956 9.828088 
-29.007215 -25.245073 16.560650 
-18.104435 -11.654091 -4.126985 
-6.091516 26.942451 15.209617 
-29.416195 -20.810280 4.656332 
24.495682 -17.178732 13.763701 
4.129757 25.482143 16.337303 
-17.883820 -11.608027 16.710321 
-30.496851 -17.953661 9.093019 
19.619764 -6.299178 9.862029 
1.826596 30.525526 -2.224885 
-19.719109 -6.955478 0.357255 
-29.044867 -9.351193 2.013273 
8.150245 25.744547 3.770097 
15.798673 25.006094 8.950266 
-22.966722 9.559577 -7.508309 
-15.291151 9.842785 -1.014218 
22.271782 -2.530000 10.798679 
20.732565 -4.561077 10.015896 
25.816225 -5.023058 4.105560 
17.946245 -1.934199 8.488178 
24.262049 11.097805 6.190521 
-24.848038 -25.412138 4.257725 
6.130749 32.814648 9.352877 
-17.975670 5.935507 -1.225009 
18.552292 20.031126 8.224370 
17.580166 2.130096 18.578579 
-20.246641 -2.749882 -0.005552 
-19.144144 6.524913 13.276499 
17.630024 -5.271237 0.740036 
-14.910753 2.210703 4.544858 
11.577458 15.023503 -2.252056 
-25.851923 -11.742001 13.004821 
-2.800856 22.545309 14.219662 
-9.665479 28.631979 1.964410 
-24.706057 -26.961519 15.016256 
-24.370598 -13.160995 6.910057 
21.984758 -7.080682 10.005604 
-6.558149 28.694143 6.822217 
-13.470656 6.014107 -3.266112 
9.906559 26.313011 8.812158 
-0.208473 21.059458 17.998983 
22.119488 -0.419720 6.525120 
26.370037 -21.527361 3.834624 
0.558790 26.667831 12.204701 
13.227955 17.832224 4.209709 
-25.942768 3.849943 -3.174859 
-21.659863 -26.076864 13.721626 
-29.602167 -7.770012 -0.815842 
28.407984 2.027201 -2.218448 
11.155836 26.628895 15.909117 
16.173508 25.964611 9.460118 
32.330490 -10.564625 16.196947 
24.211971 11.856850 -3.707828 
23.192249 -7.984821 7.574796 
-20.051979 16.702637 19.061790 
-16.756714 -5.754111 16.372833 
14.402643 9.024051 0.957690 
19.473680 -11.648981 13.143612 
21.362761 19.512129 13.706621 
-28.870281 -7.017505 -4.456406 
-22.457106 7.362626 6.451854 
19.023531 -11.899220 -1.033788 
-0.385135 27.398117 17.567017 
3.189470 22.015121 -4.308699 
-5.833568 26.900648 16.074156 
-26.060501 -9.206602 10.536321 
15.974975 19.250553 14.008416 
11.656176 21.264172 3.996398 
30.394901 -3.205603 14.600480 
-2.100872 31.031672 8.435627 
-21.867464 11.386057 5.847260 
5.460402 29.810005 17.614290 
-0.802754 25.628515 16.548553 
29.248856 -22.750397 15.146306 
-29.799294 -7.933440 7.203341 
-30.727863 -21.336264 10.804729 
22.300150 -20.740206 8.157124 
-13.426463 10.761329 12.636211 
-0.356259 30.707394 4.534263 
-14.590995 22.934490 1.643820 
17.790022 3.191031 -0.749903 
14.173517 27.330318 -2.633804 
-13.810299 5.561772 -0.475491 
32.121841 -9.032613 2.974429 
13.265567 27.184605 8.483746 
-28.677752 -24.061695 -4.526258 
25.399553 5.543870 9.691733 
16.464111 16.403885 10.087596 
-15.682803 -2.959133 13.128495 
20.614071 18.698410 12.461893 
13.774452 13.360465 17.379013 
-15.042213 22.624178 19.242790 
-25.518021 -24.684071 3.269568 
5.424496 30.270874 8.963691 
6.848783 25.826078 2.004441 
-18.974957 -10.581292 3.833863 
30.156727 -21.507580 7.375145 
-7.868979 22.251028 1.384340 
-18.151451 -3.110231 1.744448 
-13.438998 22.410902 8.971750 
7.827219 30.136827 16.827721 
-11.817339 29.318726 2.298172 
16.966513 18.332539 9.979294 
25.551149 -3.174506 3.236850 
-15.807523 25.109671 -3.113037 
30.671375 -3.374942 -3.629515 
32.662025 -15.099943 18.029491 
-16.639137 7.038090 4.555346 
25.119162 -12.191544 6.878063 
20.121138 -15.415627 0.948918 
25.625471 -15.572587 13.272435 
14.425279 19.550137 12.913259 
34.568268 -9.415128 -5.099831 
21.820086 8.861335 0.698062 
-13.958375 2.488791 -1.320196 
29.204792 -9.580195 8.310364 
-28.444973 -4.335985 -2.827596 
-13.700516 5.303598 -1.731709 
26.797306 -25.635578 14.026910 
12.149745 25.062231 -1.332729 
-19.724253 -20.221542 0.721966 
32.051140 -5.470249 -5.487782 
14.001381 28.344654 13.547668 
20.870558 16.968758 1.710082 
-30.051435 -19.133553 8.340601 
27.090263 1.383306 2.227448 
8.829264 28.371233 -7.198788 
-23.656374 8.716804 8.756913 
-16.719770 6.078237 2.618489 
-6.417632 24.257109 -0.238813 
-4.184559 30.348766 5.593449 
-24.940081 -0.064155 11.120261 
-31.251110 -21.250713 4.258465 
-25.314627 5.591047 0.892821 
-9.455389 28.832815 13.026565 
19.941217 18.364147 12.949404 
30.259146 -8.453830 4.861312 
17.456253 20.569656 12.632092 
-21.320204 15.416685 -4.244069 
30.436470 -4.145953 13.551075 
-28.220821 -7.157151 12.937227 
26.174667 7.421008 -4.918018 
37.582146 -19.989038 -2.032110 
-8.326086 19.580103 -3.563814 
16.768158 5.901660 11.671852 
-16.155975 17.882648 9.264687 
-29.361568 -18.147892 9.132795 
28.361958 -3.283764 9.688318 
6.434944 30.044397 1.331514 
28.935234 -27.474169 16.276695 
28.088156 -11.044266 8.520122 
19.302612 -10.560797 12.941889 
-17.096331 21.980497 14.719670 
26.784098 -7.882664 10.430758 
-27.978872 0.090134 17.241735 
11.910101 24.425957 5.797537 
16.666599 -0.398774 1.160180 
24.606279 -6.143294 12.385189 
-26.838129 -4.002542 8.271383 
31.019558 -4.304300 -1.983319 
17.207787 11.935331 0.097388 
-25.599943 -16.814262 5.195025 
17.776524 23.591370 0.541719 
-24.103256 -7.394213 6.796451 
-18.187887 -6.875936 2.956774 
7.670477 26.090834 -0.858724 
1.206108 27.706272 3.798396 
-28.271673 -2.148687 12.544220 
25.860441 -18.000172 0.207229 
13.747004 24.801283 -1.669174 
-11.564451 11.355573 18.888512 
19.707228 14.249944 6.353206 
-23.289099 -13.352091 0.704040 
-15.186779 7.634135 8.963669 
-19.817291 -3.424871 5.309017 
-16.773369 18.093359 8.559660 
-27.796562 -11.978778 5.958531 
20.005539 9.389127 12.580933 
-3.380212 25.891809 11.691733 
-25.436434 -4.023796 8.452071 
26.048464 -16.210094 8.947402 
27.167645 8.138470 14.348366 
-12.072252 29.522221 4.392581 
-13.406406 7.536620 17.188538 
33.872860 -9.488443 -1.374055 
31.053890 -18.166792 3.452326 
19.485203 6.485203 2.964336 
17.423218 -0.522998 15.691325 
20.119377 19.298380 11.028729 
-0.224251 26.286932 4.220836 
31.594706 -8.598958 18.233170 
-22.692493 -8.350038 12.472566 
-13.755972 22.557131 2.062237 
28.828161 0.867670 -2.999484 
-17.019213 -7.360260 -4.214293 
17.402020 -5.351974 -1.930633 
-11.630733 13.813137 -0.798221 
21.458012 -13.082259 2.287619 
16.014627 2.899162 3.517363 
24.998819 10.055439 -4.111500 
0.948064 27.814287 4.719314 
-20.834232 -0.212704 -1.415384 
-9.684267 27.264544 15.461256 
5.339715 26.596878 17.718037 
-13.629409 25.688805 -2.918850 
10.157746 19.248110 16.235613 
-9.316428 28.320744 14.114821 
-18.143675 25.622110 9.171932 
14.897295 5.953172 -1.290539 
-12.132281 23.565252 3.554615 
26.444477 -1.878804 4.243731 
-30.183550 -7.839570 18.303593 
22.121807 21.119873 12.873957 
32.084270 -6.322891 -0.835093 
0.671121 21.328663 17.788719 
-23.354996 10.153535 -1.405916 
21.070736 -22.093363 10.927755 
21.255657 -24.217609 13.666421 
-15.164340 11.399629 5.806135 
-15.869670 0.680511 9.856853 
24.866291 -3.051593 1.307940 
-28.420160 -21.436131 10.480685 
-29.355022 -16.532326 6.842230 
10.889761 26.001122 6.221283 
-23.147020 -25.080099 12.013381 
-21.177393 13.617531 3.678484 
-28.073755 -3.168610 -2.708077 
10.165842 25.890575 12.399033 
32.641022 -14.891371 14.756960 
13.645985 24.117220 16.161196 
-2.994587 24.062140 14.931349 
19.863831 -19.559759 17.900000 
-24.738195 -5.421891 -0.069785 
12.143359 22.245613 14.488241 
8.042708 31.640146 5.774822 
23.627882 10.570029 2.310818 
-18.300072 -11.733886 -5.520763 
-15.454037 -1.862736 13.497008 
14.390594 11.934293 18.886940 
-19.308115 -15.276218 11.259294 
18.997885 16.642141 10.550111 
3.927482 30.911272 5.460967 
2.771509 29.650057 7.639898 
-5.377543 26.642250 8.160234 
23.032965 -8.944833 6.875624 
-20.234835 -7.803459 2.459600 
-23.829887 7.323197 10.911275 
-18.704891 -17.587173 17.990726 
-22.415743 5.796555 9.096478 
-19.134518 -17.311066 -3.353542 
-10.007787 26.955256 4.036218 
2.751209 30.348011 -2.082654 
-20.796110 15.528937 19.025728 
-8.270358 28.721941 6.127621 
-0.495679 22.898674 14.491394 
23.838146 -19.276070 7.117526 
9.752990 25.500883 -0.184925 
20.929686 -19.633755 10.415554 
24.008921 11.979153 -1.260248 
22.929947 -22.640415 8.350414 
-1.649997 22.977222 0.841213 
-10.309283 26.751337 4.917942 
-2.980285 32.744282 11.475924 
-10.710123 16.495113 -0.139775 
-23.798857 6.620875 1.393869 
1.339844 26.071522 0.427213 
-15.654761 -2.172900 -4.766243 
21.661131 2.110072 13.591456 
-30.526470 -18.139774 14.795471 
-30.108896 -23.004213 7.690106 
-31.203136 -10.313053 14.974236 
29.078932 -24.839054 3.667254 
22.900227 -9.360654 9.776915 
27.087624 3.296265 11.717960 
-19.014765 -16.990707 -0.556441 
-19.683569 20.355425 14.321735 
-9.786739 26.622536 7.432709 
-3.850228 21.296383 -3.996069 
-1.768775 26.484274 0.169443 
-15.565495 -1.863428 14.555737 
-29.310158 -6.390552 -0.717292 
-14.307218 4.899255 14.186172 
34.674282 -12.649888 -0.437591 
8.888885 29.864187 -2.504823 
24.607918 -26.082598 5.742165 
19.960274 -1.942171 6.176983 
36.064316 -12.535700 -4.798858 
-11.503562 27.183464 -0.469223 
-17.631437 -3.334131 3.868122 
-21.481445 -13.189505 10.956630 
-2.712581 30.058619 10.561413 
31.657934 -9.150586 9.855992 
27.653851 3.926749 -4.949631 
28.640074 -24.138086 6.488538 
6.365354 24.484188 1.553997 
-20.395920 -20.699034 -4.732438 
21.946047 -1.078313 11.187526 
-22.017849 6.821024 5.719599 
19.288664 18.288580 10.373636 
-24.616140 -25.456564 10.511478 
-30.104881 -11.512672 1.171673 
19.256849 9.096786 6.080261 
-16.682413 -3.761185 18.420650 
4.837317 30.552061 -0.246627 
31.357327 -7.527113 18.266796 
-0.178258 31.128386 1.616273 
-30.855064 -22.809132 4.762664 
-12.410705 27.935663 6.826848 
-20.183737 17.955872 1.103060 
-0.973750 29.331717 17.059013 
28.648226 -1.742358 7.864420 
-22.878160 -9.423687 12.657194 
-27.740210 -1.416589 11.554391 
27.617746 -12.132246 13.889574 
33.426197 -8.445553 -1.788946 
4.145240 29.618402 17.642466 
30.823507 -3.479403 -5.683058 
27.856619 -12.142375 8.485455 
15.907284 -0.867943 -1.012705 
-26.960260 -4.214854 4.089336 
-14.026040 23.408981 10.986615 
-30.942396 -18.285208 12.673206 
-18.749166 8.094547 4.259274 
7.089921 28.874146 16.579805 
28.656445 -9.311726 14.025517 
-22.984758 -19.689178 1.086528 
20.433212 1.708920 5.828060 
16.626909 -0.942169 -4.620718 
25.033264 4.646723 5.781480 
-15.986357 12.827412 5.679087 
-23.840708 -9.036890 -0.646143 
-25.312071 -8.062422 8.127981 
28.377348 -9.157963 8.431785 
-22.102268 13.736757 0.108974 
-7.669175 22.344398 12.587829 
8.354657 26.755255 15.013317 
20.270237 -16.841480 -2.841910 
31.737343 -22.980118 4.711235 
-24.868069 -12.093390 12.768641 
11.017583 27.095173 4.063368 
26.423931 -19.631817 9.914833 
4.175869 30.338444 -2.586117 
5.699499 28.996899 16.904238 
25.001764 -2.478624 3.871074 
28.778666 2.709081 15.155687 
25.886068 -27.654999 2.631503 
6.751169 22.026613 15.218189 
-20.848450 -19.550079 1.571503 
24.342142 -20.672211 14.573410 
18.864494 -5.612485 18.335993 
-13.561935 23.706539 10.084850 
20.417868 8.325515 0.058579 
15.020353 13.812566 4.303351 
-20.192913 12.928535 -0.813805 
-18.291620 19.260057 12.584468 
-7.470759 28.294771 -7.261014 
25.570225 12.320559 14.832350 
-12.280439 23.348040 12.064016 
9.296842 27.883617 12.877386 
-25.350639 3.391794 -6.977211 
-31.182928 -19.802025 0.774892 
-18.038054 -10.627848 -5.617978 
-25.300838 6.728817 14.543962 
-26.133709 -20.802176 2.083608 
20.934000 -9.319805 0.868077 
7.660215 29.933481 11.634164 
23.975731 3.926937 7.536753 
-21.937698 14.162313 -3.245309 
17.838026 -4.430614 2.781690 
-21.505072 -7.090601 8.981675 
28.726011 -7.142828 10.730766 
-30.901346 -18.381186 9.946881 
23.391035 2.729849 13.575974 
-16.295307 7.748281 5.512468 
-29.985525 -24.002903 12.183270 
5.518623 30.478121 -0.801230 
-20.726191 -1.605344 10.014523 
19.628292 -14.290710 0.639792 
21.871281 -7.917105 9.728296 
19.103174 21.727211 -4.618848 
-28.123148 -25.978949 17.735977 
-23.782089 -14.440318 4.363949 
-22.597836 -16.397099 1.925732 
-8.215131 28.617949 3.388587 
21.640232 11.302421 1.028028 
3.284940 29.708620 0.990517 
26.558094 6.565300 -4.830668 
33.649792 -25.894495 1.461239 
-30.022255 -12.821316 -3.198095 
22.411144 12.999695 1.121757 
-24.326321 7.670594 -2.157949 
9.574558 29.648542 7.276773 
-20.890547 11.562441 5.644045 
-4.194417 32.227127 12.500982 
16.341654 9.909198 -0.003996 
37.181881 -24.811018 -3.671849 
24.311310 -5.103527 7.423673 
32.925640 -17.026432 15.051415 
-12.410237 26.381470 16.188263 
-23.712963 5.070993 -0.197705 
26.869284 -4.341857 5.140749 
-28.347755 -5.825164 1.731069 
19.527216 -13.352388 -4.922234 
14.878024 26.039230 10.370878 
22.371199 -20.454695 13.360123 
-21.637812 7.187257 13.237812 
7.164955 23.345299 13.701828 
26.790663 -11.778180 8.083010 
20.395922 10.281541 -1.298925 
17.970543 5.666229 8.870586 
28.035191 3.094583 -3.769128 
29.695873 -11.769911 6.931243 
15.610370 1.262676 -1.588816 
26.795372 9.045536 12.457460 
-15.277583 10.507892 4.967425 
30.910538 -9.216384 13.457542 
-0.931591 24.136845 14.322228 
-23.602201 -23.296618 8.193634 
-27.677479 -14.034055 8.989180 
22.967562 -17.238802 3.314874 
1.865016 30.193884 -3.601802 
14.990450 22.146603 1.927132 
-17.898331 -2.703027 5.912586 
25.102757 -6.684670 12.875022 
32.854626 -17.030048 5.152789 
23.514708 11.021860 4.497955 
-18.328609 19.727673 13.662344 
-15.867311 5.677129 8.729791 
-20.649836 -13.371128 10.282238 
18.513809 -4.459535 8.080009 
-14.094956 12.991316 11.232914 
16.624716 23.207607 -0.302922 
-23.128260 4.280194 -0.676794 
-20.129694 6.266926 6.735325 
-14.316728 2.084269 -3.628471 
24.842140 -8.620820 10.076922 
21.057310 -9.366591 11.340389 
17.366358 3.040799 18.607161 
19.003244 5.425452 0.211090 
-25.663464 -25.260088 10.262604 
-25.053711 -25.337442 12.549653 
-14.653749 26.577087 9.669556 
14.857072 20.957390 14.254865 
20.544289 3.062433 -1.067677 
-0.269426 29.280037 -6.762559 
6.864639 27.800066 -0.952609 
-20.571550 -2.309138 12.947723 
15.536022 28.572893 8.695108 
-11.938011 25.152098 10.283987 
16.219845 6.660777 16.186588 
14.583849 25.789148 19.319149 
-25.552189 2.897736 1.151881 
30.640491 -19.204092 12.171831 
-19.259283 17.850599 19.097015 
19.058643 19.204586 14.965108 
1.128927 30.133551 9.110160 
-21.877903 12.176154 -7.732694 
-3.933358 22.359661 0.455847 
-15.208076 0.957807 13.736121 
31.551353 -12.811198 4.234748 
-30.077354 -11.548552 -1.695525 
-26.133142 -12.558599 5.001647 
25.737173 6.207423 7.490752 
-24.652296 -26.990402 5.924050 
7.737512 32.721897 13.599165 
-19.596298 -18.345316 3.160260 
-1.470332 31.443361 9.254349 
27.347033 -3.731222 6.348084 
-30.183041 -20.195992 -4.894942 
1.066609 25.356909 3.031780 
17.432980 0.065698 9.893175 
22.267279 -2.539610 -0.426238 
-30.879978 -8.997349 16.069618 
19.855444 19.691984 12.222689 
30.236301 -3.259881 13.598583 
18.596258 5.050772 8.702975 
15.456901 6.691248 2.628913 
15.185678 4.903222 -2.537435 
21.575258 3.745706 7.152772 
-18.223160 -13.611094 18.114441 
-20.238272 16.230103 -8.080904 
3.317609 26.120211 16.697611 
-9.132092 22.774687 -0.588621 
-17.540897 -8.523211 -5.802981 
-18.724457 -18.439968 14.633812 
16.227066 18.392679 13.341784 
-27.041073 0.301705 10.232608 
-14.610432 1.941829 -5.068112 
-20.812906 -24.928986 16.255577 
-31.079233 -19.708673 11.579514 
-24.239161 -15.580750 8.810512 
-3.738021 24.336969 15.340056 
-8.189719 28.727718 14.430334 
-7.480929 23.490452 11.934243 
-22.718122 11.649146 7.459520 
-23.233727 4.526382 12.330429 
-28.267426 -3.951036 -0.346142 
33.889294 -13.821856 1.396367 
-14.733502 12.458669 0.504356 
-5.829047 23.574369 0.345033 
20.647869 10.571321 10.556976 
-30.668106 -21.771954 7.482320 
-15.881079 9.108530 2.550801 
6.240720 26.998281 14.123135 
7.034687 21.167717 16.254660 
-11.966420 28.760124 0.736754 
16.016172 1.942844 -4.384541 
-16.994017 5.664570 5.172300 
-13.437414 21.025803 10.781212 
3.845662 21.216604 18.062487 
13.114353 21.689812 5.425405 
-19.634914 20.431700 13.424541 
31.038443 -5.171711 15.694050 
-3.295214 23.441811 2.057008 
34.742722 -27.202419 -3.484019 
15.465486 21.176842 6.166219 
5.908360 20.923161 17.602642 
14.702030 9.274157 2.414722 
10.006639 21.384357 0.908303 
25.108809 -24.901499 1.571378 
29.213831 0.917928 13.734493 
-18.571846 -17.553694 16.059536 
30.009098 -16.173203 5.123453 
16.950146 22.594969 4.323890 
18.186258 -8.576583 -1.857965 
-16.143644 23.743589 -0.588220 
7.683350 27.735985 1.075197 
15.982739 11.090776 11.622815 
-31.218052 -20.262735 15.714342 
19.970648 -15.505109 -0.197629 
21.935308 -6.704767 0.888517 
29.527393 -0.051113 16.373104 
19.996309 2.145216 6.835508 
-9.693419 25.798937 5.793030 
-16.065151 25.924484 0.893982 
-28.602331 -5.782867 -4.437921 
27.086084 -4.748441 8.649422 
-23.244644 0.135443 6.814872 
4.472982 30.881769 7.912799 
-24.984392 7.148668 18.767382 
-4.726028 32.219410 8.517882 
-17.478928 5.760188 9.722549 
5.259666 24.669378 12.747459 
-23.333342 4.016782 10.776617 
16.971584 23.345741 3.540574 
-30.837654 -9.775049 8.197911 
-15.625976 18.215298 14.089536 
-26.194328 -5.112949 9.982021 
32.862316 -16.106121 16.844669 
24.060137 3.999954 1.956654 
-20.830914 -6.731045 8.147026 
-27.951040 -4.851681 -6.260384 
-19.323759 8.310235 6.641442 
-24.445532 4.372077 12.027070 
24.518326 11.020650 -2.388847 
-6.905419 26.779261 19.366299 
13.642003 23.502409 11.427195 
-19.879717 -5.608855 4.575738 
26.169001 6.887440 -1.861208 
-3.479540 30.399700 -1.743416 
-16.668001 -5.792983 14.676623 
-19.724154 5.482716 6.787209 
6.135318 27.782082 3.215869 
-10.592255 21.346910 0.616087 
-6.253714 28.869385 15.227066 
23.855202 -20.785601 2.057049 
-28.576151 -20.955357 3.782056 
25.570787 11.617566 13.745965 
-13.590109 12.727885 2.837641 
-30.722048 -23.060709 17.829008 
-3.989474 22.803436 1.468139 
28.634548 -20.591471 9.641740 
-30.072838 -10.310182 -0.723046 
19.149111 -8.467908 12.519363 
17.957750 25.960663 12.892198 
-2.608221 30.269659 2.222983 
-11.504757 24.770119 13.506050 
30.397572 -3.308072 -1.866322 
15.230701 6.458842 -6.770886 
27.526609 4.358825 -1.573916 
10.904018 17.961796 17.378149 
17.183369 19.800440 9.425900 
-19.382195 -6.358727 1.372013 
19.056932 -11.800824 0.044145 
26.542694 3.938355 10.851531 
-16.141798 -1.692101 1.807734 
15.649492 3.553209 2.410371 
23.891851 -3.323341 13.805112 
-21.811979 -24.532900 10.181355 
-22.882813 -14.839402 9.731629 
21.237953 18.437948 -2.974904 
11.437954 15.841803 -0.509321 
22.060963 15.993921 -5.755198 
28.250244 -5.324370 11.856709 
-13.134823 8.631250 15.572502 
21.814392 6.804009 6.446662 
-17.050591 6.645148 9.904968 
27.068989 -4.615781 6.306552 
-13.557652 7.639767 14.505645 
23.019587 6.740811 2.827416 
-22.771315 6.834428 9.070432 
20.526699 15.895927 11.622080 
-12.391455 9.903961 -3.130570 
21.260441 7.533399 6.562151 
18.232437 5.900153 2.700023 
-22.153877 -21.858734 8.158558 
-20.308216 2.748121 6.247059 
22.621155 6.987062 4.585429 
-30.678061 -9.003730 17.110723 
26.964830 -5.715314 8.869829 
-5.877367 28.150255 -0.277959 
36.176712 -14.766398 -2.319958 
21.070339 3.798697 9.161812 
12.077490 22.552206 11.680245 
-20.748583 4.753796 11.372371 
20.905540 -13.485033 10.207509 
22.428165 -26.324945 17.686947 
16.591032 -3.255613 -1.259387 
-12.550060 14.054291 13.011879 
25.425772 2.466647 6.847461 
13.049739 19.906979 1.260110 
1.374337 28.313368 19.407909 
-19.406900 -18.426060 -3.403304 
-14.363165 6.878969 11.246290 
17.019260 10.093678 3.262674 
-17.514008 -9.530380 13.682507 
-4.566787 26.806755 8.545182 
-14.037977 6.722869 12.754714 
-9.058204 28.623962 5.481956 
28.373802 3.649199 13.853975 
25.716406 5.343040 1.721984 
-9.484763 25.554722 13.992654 
23.114544 -6.000446 4.177019 
-30.361374 -13.807047 -1.004863 
6.574759 29.652325 5.213720 
-9.923221 24.195688 11.282073 
31.358194 -6.200107 15.852649 
14.751537 16.732168 3.331551 
26.302204 -15.454201 12.280397 
-20.235647 -3.352216 12.543397 
10.096092 27.265411 19.368610 
-29.517708 -6.975164 12.617708 
28.664099 -28.430279 0.772515 
-19.955481 5.836242 2.043714 
31.462978 -10.240415 7.775474 
26.214985 8.762496 11.207957 
-26.823433 -24.941498 10.969184 
25.458927 -22.938879 8.462169 
-8.539081 29.237341 -0.068106 
18.128815 -7.118236 0.923141 
-9.754825 27.214630 -8.952280 
10.124053 29.900806 12.283955 
-22.390312 0.576619 11.008324 
16.246004 2.785844 -6.425534 
-19.917868 1.345904 10.214367 
30.605297 -15.964334 12.949793 
-25.182570 -26.885742 17.705456 
23.779505 17.565744 12.548841 
-6.378139 28.478146 8.590219 
8.139396 27.348938 13.349545 
29.274660 -0.356665 -5.984860 
-12.942548 11.523614 1.874208 
-22.935925 11.989512 17.710611 
36.910351 -23.302265 -1.315824 
-27.402023 -12.958411 4.268349 
31.160324 -20.382864 8.755857 
33.458614 -14.875034 2.539658 
-27.518557 -18.330496 2.846059 
9.273803 27.147017 13.442258 
-21.820869 -18.622690 6.424443 
-16.288065 -4.293015 10.324963 
-29.211975 -10.748348 -5.740473 
-16.359438 25.257978 3.271888 
-22.775875 11.854989 18.912577 
-2.322644 25.558596 4.362076 
19.255699 -12.185606 -5.031330 
18.259249 -5.778515 12.978310 
23.829344 -13.065531 7.092408 
20.462870 -11.614027 3.661951 
-19.517336 14.982232 3.994861 
-0.471414 33.348892 9.495091 
9.799247 23.014650 14.633009 
-28.848686 -17.205870 14.836133 
-22.215757 -19.222723 2.716774 
-25.123606 -6.771504 7.547443 
25.719683 8.074478 -6.792215 
21.420925 21.972132 6.038652 
-22.249699 -7.456604 5.337084 
-8.530611 22.605906 1.866554 
31.807356 -20.423595 4.103909 
-3.632978 26.341713 13.949985 
13.664882 16.724825 13.860358 
-16.729502 18.788437 8.003478 
-7.485066 31.605604 10.605195 
-17.944475 23.022047 -1.349931 
5.819147 26.062410 13.000690 
-21.381481 14.508192 1.262430 
-17.428116 20.194277 15.548034 
-23.518400 5.898351 7.048710 
14.302090 27.211637 3.183041 
-0.954461 27.266293 0.037964 
-29.382347 -3.793323 16.898258 
27.193640 -9.125693 10.950847 
9.756021 32.979679 12.144552 
-25.578615 -5.830399 0.091912 
-19.013264 -17.177742 -1.867392 
-24.094118 9.480640 16.734623 
-19.517540 12.704715 8.354305 
-15.596209 8.123944 2.527172 
15.899883 26.514389 14.642806 
26.857410 -21.818035 8.249128 
-16.468216 13.453718 2.436860 
31.529781 -16.302969 11.204422 
31.372297 -19.553995 8.205913 
22.024330 -7.206048 9.092123 
22.804932 -21.513084 13.668179 
29.929295 -17.702364 14.648399 
21.675476 -18.655638 11.808640 
32.573364 -20.474987 9.786775 
26.340162 -17.209507 7.839686 
29.327160 -21.472267 9.671422 
31.029850 -23.297005 9.624695 
26.903608 -15.330755 13.004262 
28.084408 -15.215131 12.826184 
24.880373 -21.555565 14.777550 
30.330662 -18.306421 7.803126 
-15.241012 1.138434 12.571018 
21.664391 -21.321367 10.061278 
12.636048 22.683191 15.100044 
29.191858 -14.706640 9.025859 
25.466080 -16.012880 9.612191 
25.045530 -15.790792 10.471466 
24.637041 -16.326483 9.531784 
25.184212 -23.323959 14.558073 
26.136866 -24.704678 8.881174 
30.018320 -23.658123 14.809921 
25.035982 -9.349320 13.742593 
26.316025 -5.044888 7.700801 
32.440308 -18.957268 13.493545 
-24.029512 -5.890487 7.435393 
23.111856 -10.097817 6.096381 
29.422983 -18.246981 8.332108 
28.193716 -15.178960 11.076805 
31.247173 -7.116867 10.458028 
27.110554 -14.136135 8.449289 
30.202629 -9.497488 8.042090 
26.917206 -8.778509 8.736176 
-18.679173 18.051462 10.694201 
31.334415 -13.141490 9.633491 
24.041708 -14.015491 7.589017 
31.786837 -11.117798 11.881055 
25.406979 -10.156826 7.220053 
29.463490 -8.909105 13.830103 
22.584421 -7.182013 6.977774 
-14.889066 1.395819 3.745936 
23.054321 -14.234485 7.324330 
8.923028 28.972343 8.952320 
20.970280 -2.186798 6.001255 
21.284021 11.341041 10.260413 
25.922930 1.101956 6.832230 
20.986383 -3.045425 6.272799 
18.889919 -2.910611 6.175284 
26.804148 3.674947 7.583151 
-27.304907 -1.949895 -0.208158 
25.043381 5.306204 8.089112 
19.913958 -6.561567 8.928994 
26.643995 2.081691 13.397269 
28.436392 1.603830 10.951076 
19.418463 -4.477636 5.845381 
26.278095 0.398254 13.763007 
17.355305 -1.643443 11.652991 
20.853226 1.080147 13.655065 
19.097473 2.347645 10.661692 
28.630772 -0.732319 8.831407 
13.594970 27.488554 15.159428 
23.940592 -1.719304 14.067142 
22.633690 2.024626 7.158126 
-21.039808 7.722647 5.474000 
27.564272 1.007954 7.149086 
23.170538 -4.359107 5.933996 
26.566874 -0.966690 5.057700 
18.546114 -5.970854 11.389429 
24.409212 5.429074 5.890059 
21.925009 11.284694 8.382050 
21.881332 11.140559 7.474222 
24.636776 10.125245 11.075467 
17.361343 7.683852 9.675701 
20.679680 7.256237 5.862372 
26.349083 7.106483 11.415333 
23.573725 7.204120 13.303344 
24.464510 4.457624 6.597385 
20.664776 6.474068 13.144988 
20.086317 4.732602 5.976087 
19.479805 26.735064 11.023475 
15.899768 26.703636 10.190555 
-7.481113 27.770937 9.100744 
15.163567 24.797766 9.558393 
19.329031 19.360123 8.187792 
28.849564 -13.746463 6.851901 
21.725868 22.597641 14.082940 
15.893252 24.188171 12.413708 
20.834427 19.436409 14.984440 
15.161711 22.210402 10.154397 
21.728069 23.193808 12.350327 
-0.781188 29.721033 10.482633 
10.621946 23.840233 15.876122 
-9.885413 28.568966 8.230830 
14.761710 29.472826 10.759676 
10.979544 22.805109 15.033431 
15.505136 25.908298 13.812832 
14.902873 29.203594 8.131351 
16.336779 28.246700 11.000239 
15.208662 27.138659 9.758824 
14.607452 28.641270 12.811222 
11.172646 28.315369 14.118832 
8.724964 27.158804 12.304639 
12.380922 27.126829 8.496363 
9.122898 29.930996 15.394710 
6.817885 28.044292 12.018895 
1.777684 32.155331 10.082049 
2.973378 27.884727 11.497842 
9.434647 30.390987 11.769286 
3.435696 29.447515 10.505271 
3.613219 30.401442 17.142675 
7.369656 26.943047 17.601711 
4.413146 25.238256 12.360880 
8.554182 30.068420 11.331885 
10.335509 32.065319 12.402857 
1.878554 31.859182 13.461002 
7.823912 28.948648 11.790361 
2.271167 31.134472 9.175875 
5.636558 32.644115 13.642911 
8.711578 32.957714 13.264297 
3.965074 28.000414 11.358826 
-4.000295 30.152227 10.366368 
-3.768464 24.957779 12.119753 
-7.555646 28.972023 13.775479 
-4.640512 33.296013 9.697220 
-7.316940 30.861317 12.271600 
-11.682099 24.308849 -4.330740 
0.386039 30.798470 9.285522 
-1.500903 30.779329 15.803771 
-0.049127 25.036177 14.195498 
0.231614 32.609085 12.253318 
-0.671624 30.953613 9.067069 
-16.234318 19.536453 8.458873 
-8.650266 28.716599 13.462665 
-8.725499 27.333904 8.938597 
-10.940569 29.862900 9.191445 
-6.790112 24.692345 14.330285 
-13.003922 28.847826 7.098336 
-14.312891 27.797268 8.446098 
19.139681 7.224044 3.743820 
-21.074535 9.573723 13.665322 
-15.226610 0.049384 14.028386 
-10.929913 21.864824 14.560133 
-11.013275 22.646217 11.090923 
-11.901504 24.253057 12.085088 
-23.187391 -1.672807 6.424613 
-18.809271 24.876274 9.846142 
-15.450394 25.046019 7.169936 
-19.995918 19.941795 6.432628 
-20.465069 19.795048 7.298509 
-14.607368 21.936617 15.052146 
-13.419255 11.414934 2.678169 
-27.392130 -4.928455 4.678291 
-14.722264 25.616861 7.610583 
-19.730846 23.118382 11.444336 
-21.981684 -7.048047 -0.695396 
-18.165325 11.569958 7.391515 
-17.249178 10.876892 9.301348 
-22.540867 11.343793 10.133375 
-15.365487 8.532971 9.093327 
16.379856 1.111700 4.864223 
-16.822607 4.807693 10.014722 
-20.981936 4.986036 9.040139 
-18.666334 7.992867 5.151771 
-30.397821 -9.971487 12.105173 
-26.176386 2.729789 12.416779 
-18.070637 -2.228567 5.186577 
-18.930464 -2.998069 5.316372 
-16.522619 -2.829070 9.518547 
-24.480574 4.306864 6.054781 
-17.208639 -4.055658 11.128938 
-26.662422 1.489759 12.235865 
-22.688227 -0.777216 6.357823 
-16.267324 -1.851227 5.805333 
-16.764698 -2.092521 7.838941 
-17.863712 -3.076787 5.007905 
-19.959656 -4.731331 3.839110 
-22.223211 4.411750 7.069539 
26.284052 2.568761 0.499732 
-16.460978 -0.728359 11.673265 
-19.059437 -0.045586 4.875813 
-19.436581 -2.837358 12.523355 
-26.968885 0.741914 11.007166 
-24.476988 4.876439 10.972433 
-16.126556 1.456233 9.278254 
-24.164265 5.415885 10.089868 
-25.955980 4.578732 11.745240 
-25.217258 -11.400965 7.003732 
-23.084225 -10.320928 12.699129 
-26.529900 -14.143103 12.807980 
-22.190960 -8.371474 5.134304 
-27.229668 -12.008084 6.986330 
-27.074553 -14.317259 10.333841 
-30.662420 -9.040424 8.865266 
3.484948 22.880461 15.066387 
-30.031874 -6.998775 7.370573 
-23.218056 -5.213190 11.451514 
-24.546085 -21.367609 8.005058 
-21.785341 -24.333611 9.140095 
-21.369062 -20.854109 13.346937 
-22.884022 -22.382120 8.121639 
-27.192417 -22.408646 10.835912 
-19.411180 -19.745960 11.152907 
-26.080233 -25.402046 11.120247 
-29.382469 -24.304148 12.807103 
-27.171564 -16.782864 14.744387 
-25.316387 -17.145346 14.663131 
-25.479067 -18.766212 9.313704 
-29.407305 -23.262768 14.433784 
-31.019833 -19.172987 10.791376 
-30.503311 -19.655363 15.088311 
-27.552382 -24.833893 13.153657 
-19.564045 -20.637875 10.929643 
