19.012363 21.216293 16.925070 
19.620050 21.078768 -3.016819 
-25.728012 -10.141181 5.876708 
-23.314548 -2.722479 13.282275 
4.467572 25.714840 0.485887 
6.965408 18.348242 18.673054 
-25.060415 -14.193627 6.898287 
27.116096 -1.947316 5.909433 
-14.746464 11.275549 14.623503 
-8.870163 26.781836 7.474305 
-17.133263 22.896467 6.016600 
-29.304996 -6.410386 6.926032 
21.177301 11.777969 6.656282 
-20.654699 -8.030431 -0.416456 
-14.292353 17.825487 -1.783162 
-20.425396 19.804695 2.056342 
30.524466 -11.583106 5.668665 
17.818682 20.872198 4.812119 
-10.190981 22.479923 0.849921 
28.328302 -4.374302 7.746421 
-16.286638 8.680158 0.278095 
-18.843796 12.236573 9.938260 
12.393870 18.765739 9.496497 
22.073307 -4.407764 2.300320 
28.008762 -7.439904 8.967615 
9.765730 16.684177 18.637663 
18.913067 0.496271 -1.134629 
-28.855204 -11.280514 16.092001 
-28.410515 4.727998 -1.795816 
-17.296726 15.571874 5.004291 
12.973660 23.401665 13.163911 
10.724568 25.579611 3.315253 
19.382008 9.738091 -2.558920 
-20.027525 16.081217 6.857952 
17.950562 7.885469 4.000137 
21.582657 15.088840 12.584587 
-0.738412 25.666639 12.795959 
19.784351 0.446586 9.419233 
-21.039604 -9.385559 -2.166087 
-5.120934 25.980553 -1.127638 
-13.342134 23.487780 12.722132 
19.057514 23.942440 6.907791 
-6.567153 26.439045 6.313244 
-10.444379 26.881517 15.095800 
20.912529 12.108479 13.404523 
8.042192 27.026453 -5.517230 
26.311096 8.504648 5.626237 
21.279377 11.882782 0.499019 
18.087061 13.454926 3.428357 
22.594711 13.081910 5.247217 
19.176128 14.735944 5.992474 
27.986568 -0.344648 14.188370 
24.013823 -3.066139 13.494965 
-17.205622 21.865223 6.877880 
15.014112 18.037672 -0.094140 
-28.814318 1.592123 6.934371 
-17.913677 22.062504 -1.352231 
16.203217 14.550377 5.725126 
21.178709 5.065690 -0.627758 
3.912414 27.452024 -1.817651 
-26.831717 -10.882374 6.665993 
-18.911711 23.364790 6.799160 
4.314754 28.670746 16.096786 
24.483166 -13.613478 10.760734 
16.686392 14.147654 -0.604971 
-10.716340 23.597546 12.094988 
18.204912 19.949024 14.771297 
21.554941 1.888115 7.569862 
13.050169 17.842962 12.536706 
22.435160 -12.376509 9.549531 
18.250982 2.883827 -3.035065 
-31.038431 1.367856 13.847138 
20.730034 10.100277 6.998388 
-19.976665 20.696051 10.750006 
7.871970 26.775976 -3.051776 
-1.595831 32.215984 7.560866 
-24.758347 -4.393456 5.366909 
8.859138 17.849030 16.730482 
-17.333172 15.619520 5.878680 
27.607481 -13.609398 5.792536 
-20.159452 -1.809747 -0.903378 
-8.879177 28.249949 -1.454064 
19.317421 -0.685769 -3.050008 
10.409925 23.107861 10.500336 
28.980270 3.521797 3.343860 
13.394348 23.481695 11.279681 
-22.639755 -5.148813 7.423914 
-16.003746 7.218361 -2.669567 
-1.662533 29.226141 -0.791386 
-29.886274 1.102997 -2.347130 
-23.541105 12.143260 6.290646 
12.630771 24.583157 7.634779 
15.454360 13.135584 11.447163 
-10.361550 15.868748 -5.466652 
-10.441486 20.510820 11.435166 
-12.939192 16.528208 11.946249 
10.354509 23.291664 -1.937371 
13.455252 19.403275 13.941704 
2.733287 29.292521 1.491093 
6.902480 28.904503 7.775704 
-25.569679 0.111060 14.060874 
-21.636368 -9.784051 2.543064 
-18.415955 19.420534 13.259558 
-23.881498 -9.288568 5.870905 
12.703952 17.977760 9.686945 
22.016684 -11.521314 -0.554897 
23.897026 13.894114 -0.574933 
26.536779 9.779278 14.949343 
16.593163 11.339325 10.148942 
16.002275 8.460145 -4.667235 
26.485935 -1.416982 14.163468 
30.434341 -10.257142 0.874220 
-26.349541 7.673933 11.233633 
23.736675 -12.211611 7.958725 
-18.219030 18.995205 8.989224 
-27.394020 -9.070295 9.030598 
-16.383913 17.001417 8.136799 
-26.689169 1.005475 7.570296 
20.972755 -4.402857 11.677608 
-25.677097 -13.540490 8.401671 
30.724291 0.919235 -1.182305 
8.931223 27.521194 2.437027 
-21.856449 -10.572209 2.505937 
-27.362450 6.797602 9.824284 
24.029276 3.728829 12.930090 
20.656206 -6.108182 -2.170024 
21.280685 2.538283 10.305492 
27.558365 -0.984201 5.681582 
-4.952618 27.605907 18.243870 
17.881973 18.400562 0.002139 
21.214085 6.060101 2.234789 
27.395468 -5.855331 12.160631 
25.441460 2.993603 13.517789 
32.477581 -11.191561 16.901485 
23.605766 -15.813206 13.942476 
-11.146119 21.560375 12.136033 
-6.690193 29.840792 12.491327 
-22.808578 9.429574 6.978279 
-32.088642 -7.196002 9.315136 
-22.929457 13.444927 3.818372 
-19.439260 0.832485 9.447765 
-22.793880 -4.655510 3.181895 
-19.157135 -1.859017 1.162852 
18.997568 3.216159 2.224815 
4.505710 26.804174 2.058706 
-28.434553 -12.407828 9.561820 
13.834925 23.753736 11.928715 
15.548670 12.424505 11.055572 
0.967792 25.558687 2.931959 
-24.411224 -1.066203 6.715167 
9.024849 26.719778 8.625834 
-23.579752 11.643843 12.283337 
31.907120 -6.400086 16.560907 
16.428968 23.904276 15.787307 
20.613447 -6.780725 17.901773 
-25.402443 7.905500 10.845463 
18.968931 11.498819 8.917470 
30.346321 2.090646 -1.635318 
-13.353850 25.713686 5.095616 
-26.668907 1.088696 -1.925127 
21.116274 15.706349 1.319200 
22.857964 -14.132743 12.983216 
6.999861 27.504717 -0.636213 
-19.933819 9.206951 12.833632 
-24.070505 -2.820308 -1.162611 
23.727716 4.310407 9.221220 
22.489571 7.560253 5.599919 
-15.888367 19.225353 -1.217945 
15.219167 13.297364 0.281105 
1.176914 27.467251 -1.508499 
-23.969093 11.376407 11.125428 
26.450232 -16.802729 16.031612 
-20.869215 19.455463 13.863912 
33.024067 -11.026606 0.135043 
-26.400017 -13.982923 1.069816 
14.431144 24.616102 7.666711 
-8.511273 19.906712 13.297644 
-29.477020 -14.147197 6.605633 
-20.986012 6.482195 2.162895 
-31.150587 -5.982799 4.754252 
19.023525 19.241922 -0.308405 
-0.710176 28.746651 -3.083240 
0.490231 22.563547 12.878771 
-19.899281 11.813196 12.265381 
-21.833263 -6.459082 11.263907 
-15.791127 21.780165 7.573340 
10.436436 25.198444 14.869171 
-9.526536 27.330709 6.992810 
24.774580 -1.438978 6.255922 
-16.620300 17.860441 12.315093 
-29.598530 1.596990 7.859643 
-29.664307 -15.255184 12.137214 
-14.138188 14.866954 11.918297 
4.931314 31.397234 6.278535 
17.137682 22.034975 15.848158 
-28.640226 -13.874528 14.799821 
-17.919655 18.513655 9.888249 
-14.095242 20.943357 8.456277 
21.850878 18.335638 -1.605791 
-20.157665 6.528875 6.181864 
26.520712 -3.057220 7.385990 
20.691385 18.979359 13.608755 
16.615538 15.493513 5.560364 
1.727851 31.526375 9.316565 
-28.004997 6.835350 10.822558 
-19.802307 1.840518 9.382747 
21.128330 5.158456 9.054993 
-20.870173 -3.009845 1.108459 
-17.933128 18.272627 8.456756 
-8.246962 23.185396 -0.708352 
5.471977 24.205153 2.237975 
-24.779757 -1.420267 13.849005 
-20.359262 0.706758 12.670259 
-18.089218 8.125770 10.445094 
-20.909456 -8.792782 0.607335 
-21.385010 19.083141 13.246428 
21.807472 -11.870367 10.474693 
17.412956 12.064318 3.082779 
-10.848550 27.049978 7.900076 
6.417575 24.853201 14.487853 
21.889065 -9.711971 4.743810 
-6.100385 23.879450 0.278278 
33.286385 -9.514556 2.495850 
12.373683 15.770410 -1.938233 
-16.318209 7.577568 -0.517461 
-1.123802 25.781464 10.473877 
-18.416496 19.575602 -1.764360 
18.500057 1.682086 18.182055 
12.372415 27.421669 6.560905 
-22.571791 -12.468615 12.231467 
-13.593400 15.690465 1.697806 
28.206846 -3.939294 12.939870 
26.581461 -14.506710 6.321571 
11.434384 15.308260 -5.333780 
-19.924196 15.821127 0.081916 
-20.051933 -2.624277 3.112441 
-15.036217 11.351231 12.855008 
15.126436 23.031487 -0.949272 
-23.846958 -5.838533 11.804126 
-32.016766 -10.745750 8.888723 
22.313229 -1.105765 1.140624 
4.211672 23.191525 12.920102 
-19.754551 5.437333 9.499229 
-26.545065 3.952265 6.490199 
-18.714388 15.195457 6.795321 
16.345350 13.258718 1.536146 
-17.226868 13.448444 13.476133 
5.239812 28.367262 6.050967 
-22.445536 -8.028470 11.413001 
-25.420996 -6.484430 2.416263 
-3.487169 20.930067 14.840075 
18.704613 15.619492 6.082430 
-31.318325 -14.149321 13.856398 
6.123448 28.417097 -1.677791 
-32.475269 -10.456755 4.897292 
31.159147 -2.397146 17.181608 
-17.012146 9.467715 0.824370 
24.379015 15.629835 10.373352 
24.852179 9.493631 13.258245 
19.565886 6.612089 4.285415 
27.557276 -17.414246 11.271861 
31.385593 -14.499392 17.719282 
-14.648684 21.822174 8.057160 
26.227493 -11.010448 -0.704152 
-27.513390 -14.978512 3.343764 
-8.719050 21.581882 12.163438 
-22.528702 6.696442 10.411516 
14.734587 15.280928 10.460599 
20.249634 8.810034 4.077398 
8.140092 21.883860 11.108083 
13.243299 27.373257 10.468554 
-0.871700 24.398638 0.203480 
29.602432 -14.323343 2.900126 
-11.091812 24.572906 -2.031470 
16.124001 8.736703 -2.943918 
-19.038712 22.345989 6.676620 
10.348403 26.302217 2.758378 
27.913979 -0.736987 2.145168 
22.286797 -10.305327 1.395360 
11.781644 23.312241 5.123286 
23.200552 -12.554342 8.764174 
-11.073017 28.662210 6.991295 
-25.329239 6.441285 5.254126 
-5.774863 27.356951 15.586766 
10.057426 25.189665 1.266117 
-25.150715 6.289316 11.333147 
-24.523901 10.891805 -5.046148 
1.944735 29.370544 4.830205 
-20.151449 19.362572 -2.580870 
-10.144695 20.183256 1.063210 
3.424308 25.476650 3.115287 
23.660042 13.559324 2.291765 
-20.848124 -0.988069 -1.912556 
21.572821 -1.776791 12.692586 
-19.416971 20.456263 -0.743108 
24.032661 -12.091474 10.972694 
-28.100117 -16.031652 14.667447 
23.550215 -13.874930 5.758518 
-28.907301 6.587200 14.225266 
10.070664 27.781748 14.242266 
16.883234 20.529787 4.947695 
-29.691248 2.602817 13.154518 
-19.152924 7.329457 12.386411 
-18.817696 7.915228 11.607714 
-27.149672 8.598495 9.420939 
-5.593627 22.060381 12.565684 
23.422232 14.919776 -3.089315 
-14.731198 24.326761 -6.285241 
-6.618146 23.013206 -1.789820 
8.075153 27.467987 6.485790 
23.611143 -1.417295 4.801556 
-32.244621 -6.175441 13.913161 
-3.392767 23.649794 0.029693 
20.952929 -6.903656 -0.167144 
21.922697 -6.885352 10.464271 
-8.716285 24.164360 2.862567 
-17.106815 12.239017 12.945717 
-21.032890 -6.649944 12.679075 
-26.238258 -13.228049 0.644794 
23.703012 -7.313222 13.315309 
-1.798049 28.589071 -3.715019 
-27.541885 -7.732376 7.155876 
11.380852 17.721409 -0.681048 
-14.107903 10.733552 -4.993051 
-20.469685 -2.127776 8.105986 
-20.122120 16.572275 -0.497167 
12.280239 24.487703 -2.840579 
-14.050485 19.676916 0.633871 
-22.030615 4.311499 -2.011394 
20.042561 20.282637 8.339811 
-7.421555 24.139620 14.311517 
17.105152 11.714140 12.642125 
5.073497 25.781988 3.545628 
-20.944107 -3.684810 8.247385 
13.194881 17.360195 9.988814 
23.789063 13.125272 5.923867 
24.466366 -7.641762 9.393274 
-28.469734 -11.011843 7.521033 
-21.332132 -3.494614 2.018340 
-16.018364 22.843897 6.802705 
-22.761787 17.901308 15.808359 
30.689156 -7.414111 6.724825 
10.841254 23.198244 13.978333 
-24.548532 -14.461934 3.146042 
1.713872 20.897474 -4.780793 
-29.664015 2.692167 8.159721 
22.691694 -7.479383 0.938798 
-21.507090 14.522408 14.017279 
-14.975434 25.514278 7.472229 
-21.061604 18.975485 10.575356 
-19.305574 11.183399 1.373926 
-21.029316 -6.410813 1.253946 
-23.634665 9.406037 5.621721 
-16.479227 19.746561 16.149179 
17.890043 21.861160 -0.263117 
11.273430 15.435615 18.606201 
30.220947 -0.370284 10.047871 
20.182619 4.664320 11.447526 
29.240423 4.038427 -3.363819 
10.367963 16.683168 -4.425757 
-15.460817 20.330744 3.900668 
15.178986 25.287626 -1.584937 
14.261691 16.694704 1.244990 
9.904538 22.873455 9.789268 
28.188990 4.850091 9.274958 
-25.922714 12.585861 13.930660 
31.255827 -12.722778 15.949812 
-15.128845 14.458961 8.043223 
-6.241506 23.709463 11.150730 
-24.425282 0.366229 4.904302 
23.500320 1.956256 13.316334 
18.891123 11.504635 6.678491 
-3.238171 26.856516 5.749772 
12.151978 28.818457 6.467394 
-16.134272 12.939513 7.308374 
20.964251 1.391214 7.849890 
-20.144217 -2.780102 11.233150 
10.058773 21.603291 10.976276 
-2.060901 25.989929 9.846828 
-26.663691 -11.741265 6.907125 
-19.898060 -1.460288 8.739137 
-31.757797 -5.847016 9.309466 
16.210575 13.752719 2.180029 
-14.150087 17.965155 14.568909 
10.832097 21.569370 11.322546 
32.294304 -11.578044 10.546836 
32.039906 -8.352267 5.636326 
-1.745160 27.101412 6.878098 
20.512419 5.049932 6.585216 
7.448478 22.999779 0.387446 
-8.814073 21.578691 11.326239 
20.201117 18.702255 8.317308 
20.772217 10.447710 -2.629760 
4.700285 28.676519 -2.067196 
-26.137985 5.593153 -1.296246 
16.192581 21.373854 4.026686 
12.354302 19.741226 9.244187 
-23.965580 9.955594 5.107724 
-14.954080 23.212570 16.539684 
26.885574 -2.310015 -1.035526 
-15.924241 10.487503 12.866790 
-2.344548 22.367279 -0.483923 
30.066645 -13.320509 6.878298 
19.465242 18.345383 8.551244 
28.790377 -8.399346 8.112144 
29.766024 -1.892594 12.315469 
0.349943 28.481712 -3.937166 
-17.521238 21.872547 0.227596 
17.421299 22.737865 5.668118 
5.986722 19.914648 -3.671944 
-7.619828 25.327274 4.408595 
16.271698 14.864260 12.786471 
-32.347393 -8.951429 15.539536 
-26.461626 11.037992 6.512437 
-27.951790 4.705410 3.031994 
15.967866 24.413918 -3.987183 
-27.095278 8.178078 6.662923 
21.467068 13.321502 -0.199599 
16.177740 23.547928 2.371885 
17.773533 4.748594 -2.176619 
1.827615 21.649807 13.924306 
2.437296 29.013086 6.803531 
-4.720761 28.699766 1.396962 
26.500635 8.737173 -0.734876 
20.723511 19.693089 -0.672225 
4.123689 26.401657 -1.848861 
-22.102446 -11.503197 12.429464 
-13.442276 11.875689 -5.098999 
-11.682857 19.758827 14.027802 
29.132553 -16.683233 14.815062 
1.903507 28.462120 17.501751 
14.564403 25.514395 13.783268 
17.950693 20.384045 13.592812 
23.381620 12.699731 4.813848 
27.723700 -1.772303 -1.082792 
-16.989763 8.721327 12.755689 
23.545805 3.575359 6.675517 
-9.870955 17.070923 -3.383816 
-27.768299 -15.904736 1.888210 
24.617435 6.393110 -0.928125 
8.601121 23.227673 -2.050036 
6.798818 24.576714 12.532592 
-18.133978 20.830538 7.170218 
20.914440 14.060398 4.572575 
-16.652016 16.369295 12.416603 
-23.919754 -13.345937 0.910417 
-12.123834 22.111288 4.651508 
-17.575628 17.181263 10.156446 
-18.214293 3.762217 2.431593 
-12.043877 23.742729 15.121941 
24.542828 4.562729 10.306646 
-2.641466 28.635128 9.141592 
13.669908 18.037359 1.317275 
14.429541 25.870331 10.532752 
18.983757 4.361520 9.187577 
-22.689741 -5.508568 3.573154 
4.150337 22.390354 -0.093010 
28.782684 3.449956 6.542685 
-21.315792 15.316670 14.168956 
28.643351 -17.122448 11.242451 
-25.393656 5.132014 12.925788 
-8.189549 23.674740 2.291367 
18.357983 5.244411 0.223169 
27.566298 -1.592962 14.167500 
-20.771893 -5.793433 12.675200 
2.109200 27.285681 5.962079 
-18.798182 7.023011 7.778194 
16.187334 15.611989 7.503530 
-24.537460 6.074015 9.381112 
-27.958670 1.775620 5.055726 
19.611864 22.680090 9.807382 
28.614761 -3.973082 3.794286 
2.348540 25.390579 3.002213 
28.803139 -15.386565 9.841962 
21.463078 1.964101 12.384934 
17.744265 6.835571 0.366041 
7.429527 25.500578 -0.193678 
-3.555171 28.566122 -3.402240 
-24.225563 -13.810050 6.902917 
-23.794722 -13.987287 11.899799 
-3.285304 23.553661 -1.086070 
14.732950 18.218803 9.828564 
21.742208 5.785531 0.169579 
-15.585339 7.772340 -4.717451 
-29.444613 -10.573363 7.712170 
29.898348 -4.233453 12.073919 
-17.475733 11.335938 0.256759 
5.574229 26.181784 6.712325 
-12.776654 21.858683 5.111592 
-23.339849 9.706603 6.399346 
-22.112316 15.241008 -0.130302 
25.859776 5.332297 -1.562029 
15.740852 19.842287 3.189227 
-17.259146 5.100471 -0.152866 
25.618853 8.540693 13.158380 
-20.835325 16.093649 1.334831 
16.073420 19.783934 7.575952 
-29.152643 -11.992174 9.266870 
10.369894 21.847866 11.984489 
-27.474211 2.354583 5.480196 
-14.490307 18.501762 0.110273 
-8.493572 24.733191 1.025944 
-0.143388 23.367908 0.498000 
28.874311 -6.079398 14.018938 
-17.247227 21.165361 7.407474 
-28.490540 -0.389951 3.199268 
-20.734194 17.696133 13.284114 
11.303157 20.391794 2.027443 
-9.128043 17.944927 -3.083046 
24.808163 -11.801062 6.945539 
24.177851 11.312470 9.585157 
-0.031151 31.317909 9.377133 
1.554730 23.915047 12.883950 
21.727388 -7.646353 10.968491 
24.097788 14.656075 15.546185 
24.737951 14.796864 6.620040 
-28.953320 -1.048999 6.253355 
26.980143 -10.229136 -0.734000 
-19.117695 7.903744 1.576077 
30.687359 -10.804146 7.946843 
-28.053181 -1.115879 1.305650 
-7.796007 19.019815 -3.200345 
5.660004 24.933781 14.975229 
28.086569 6.208862 15.804440 
30.290108 -5.943917 13.114587 
-21.641510 -3.332730 12.542676 
-18.281532 11.489542 10.385347 
28.356079 -6.123111 7.239748 
-9.579757 27.962675 -2.030250 
-31.465248 -4.234162 1.141737 
-8.446634 28.673853 7.641345 
32.737133 -11.011757 -2.758290 
13.317072 24.617111 13.286908 
-23.871113 -6.324242 0.593093 
-24.813925 -14.387542 9.090143 
5.499373 19.871439 -4.742809 
-25.801107 -10.327496 7.289608 
30.924236 -1.470563 0.595439 
-4.628384 29.423759 14.210919 
-13.202556 22.529861 8.543769 
-12.981733 13.645496 16.622820 
-14.802268 10.756783 -1.227365 
14.444504 11.511491 14.277784 
21.371542 -2.729807 1.301202 
-29.106945 5.275172 17.914751 
-17.865416 17.911980 -2.621338 
1.603657 29.060667 6.961026 
-20.619205 11.803347 1.076042 
-27.602436 -11.200962 6.786322 
-4.900135 27.492479 9.691342 
20.831306 -2.516753 2.100097 
-20.912336 -3.200694 4.822328 
-29.476955 1.417227 13.392425 
20.872770 13.730493 6.697216 
-17.754799 11.558715 11.268596 
10.116233 26.219740 -6.374031 
-22.813141 -12.508628 13.940018 
6.696803 27.357449 8.967636 
24.576357 4.650363 8.402637 
-15.825610 15.865998 -2.268272 
26.403917 -16.190859 12.398828 
3.411219 27.646084 18.970800 
-22.645672 18.191879 7.679738 
-15.976317 18.955954 -2.161871 
21.968603 17.544466 3.009827 
23.228622 13.549303 11.862809 
-22.595266 -1.891302 13.337068 
29.314610 4.230820 0.067501 
-7.397567 27.377403 -5.534616 
-13.416952 22.595457 15.819818 
-24.500603 11.823771 11.810897 
-9.731144 16.827265 -4.403195 
26.608799 6.934216 3.604237 
-30.294378 3.735226 13.292020 
-27.333487 -4.254600 9.447666 
9.806817 26.865108 5.411496 
29.379557 4.200100 1.045530 
0.405470 20.553848 16.916904 
19.320053 16.862984 13.292642 
-17.950954 2.672563 4.456350 
5.549078 28.250164 2.283589 
22.083208 -4.509884 12.284812 
19.524820 10.890367 4.531540 
3.325448 26.690502 16.129604 
-28.081133 8.128904 12.815820 
7.174675 27.438463 18.030609 
5.702109 25.529560 5.219973 
-24.925449 12.277167 10.342754 
15.031932 21.682186 -2.829334 
23.249584 -11.497393 8.276431 
-23.843922 -7.023109 9.750313 
-17.597219 2.672063 -4.240821 
-2.602036 29.038231 1.249163 
-17.520906 23.695196 15.920444 
22.857338 4.422641 11.240045 
-11.151257 21.597614 10.443830 
-2.887829 28.969627 5.451347 
-15.903100 22.258158 -2.155709 
-12.400524 18.275265 11.041835 
-15.323143 25.692411 11.513922 
-14.902160 16.148611 10.616301 
9.423964 27.823013 14.847347 
-25.342813 -13.328175 3.533368 
7.389987 27.117102 -2.303361 
21.480282 4.620977 6.821734 
-24.057102 7.334262 13.328634 
-26.208202 -1.804467 7.128379 
11.588096 21.978897 11.066193 
25.084009 -6.913659 14.109898 
22.752789 16.490477 16.891508 
25.556440 -6.678397 6.080064 
5.849834 30.221083 12.440274 
3.284064 29.396702 3.268464 
-15.902670 17.341335 6.613193 
-3.012619 26.530661 4.973360 
21.844250 -10.424576 -2.853833 
24.902456 -6.647463 12.290294 
-31.730886 -9.265296 1.541438 
21.736895 17.595919 17.684540 
25.802250 -3.772757 3.296264 
21.764595 -4.324769 6.646993 
30.161339 0.628704 10.175545 
-26.381916 -15.680407 0.418217 
22.286270 11.079016 7.022532 
16.169279 20.030476 2.325971 
27.225554 0.062962 -1.776317 
1.994241 27.880075 -5.398044 
-16.117947 23.176315 -2.260239 
3.322836 25.567867 0.442615 
5.823207 22.723637 0.382481 
-22.666624 -11.951293 4.851274 
-23.334034 -4.222782 12.660697 
33.149464 -7.922222 2.414894 
7.152586 28.368467 -0.347852 
28.309357 -9.126027 9.596801 
-19.406540 6.427302 7.124420 
22.935215 -4.155037 3.077621 
-14.178298 26.280190 8.749455 
25.983517 6.900596 11.925183 
7.198623 19.075029 -4.353804 
17.987749 14.867465 5.051764 
15.839530 15.155726 8.091860 
-11.203940 27.099247 13.068384 
21.588383 -9.555793 3.948600 
30.429054 -13.725137 3.940477 
-18.860394 0.848450 11.738741 
-25.554661 9.549600 -1.937511 
21.922377 -3.354475 3.957305 
-18.907806 1.512174 5.782265 
0.349749 27.379070 -6.519751 
17.573889 4.161150 16.505522 
-25.218262 8.032867 0.765725 
-32.319904 -12.295996 12.583811 
-29.288397 -8.996605 9.304306 
7.669905 25.637251 9.696237 
28.185894 3.775702 4.503814 
5.904294 23.570242 13.040250 
-21.473953 0.846058 5.537284 
17.433716 7.777056 0.212649 
21.590809 12.083638 11.947720 
19.249903 19.741318 -2.141238 
23.064014 1.079765 13.328709 
-27.433762 4.129197 3.782215 
-17.535637 19.934933 -1.010895 
16.556671 15.703749 -2.461930 
23.880335 15.272182 14.504550 
-30.764004 -4.143811 2.102055 
23.956310 -15.581985 16.248535 
27.502319 -3.003816 4.098118 
15.372200 20.155413 0.811788 
7.682349 28.123072 12.050214 
23.550352 -2.086604 -1.997328 
30.967407 -6.938086 14.931458 
-5.051207 28.686066 9.142910 
-13.017763 24.901995 12.540498 
11.314612 28.395695 10.899282 
-15.491365 24.720324 6.590826 
27.522711 -8.400936 9.223689 
26.489529 10.728444 7.647065 
-6.264258 25.752211 -2.822523 
8.617460 27.067492 17.969028 
30.246532 -10.045867 8.298348 
-18.842590 6.903263 8.616881 
-10.569292 18.389530 13.201291 
-21.154453 -2.991681 5.681077 
16.017847 14.944034 6.465795 
8.854969 20.485821 12.011897 
9.535108 23.736294 9.977994 
-0.501992 27.827044 13.319776 
15.922939 13.838608 2.970004 
-19.438673 15.896645 6.083026 
-22.737379 -10.544584 9.427778 
5.110192 26.693632 3.301129 
-15.124070 9.286027 -2.576909 
29.694115 2.851198 15.471940 
-12.769489 22.724377 12.321417 
15.875070 11.005453 -0.644926 
-20.888924 12.201982 12.406867 
-7.332051 23.771404 11.167601 
-24.557205 -14.752924 10.964124 
-16.968195 16.330950 13.397150 
-31.775330 -12.403479 4.174406 
-11.248677 25.707134 5.511584 
-18.844810 23.987059 13.008578 
19.338415 0.519809 1.724914 
-12.104455 25.627760 -0.869442 
13.324106 23.704639 9.345780 
30.921831 -5.411215 13.726760 
26.625690 9.328931 11.362148 
7.693554 24.947327 12.925690 
10.593884 21.179552 10.289839 
-28.414471 5.824078 10.887856 
14.238954 24.689869 5.796348 
21.799135 6.040771 12.733229 
-13.339973 19.841854 3.228467 
-24.126165 15.425963 7.707346 
-18.875023 1.412229 12.820793 
7.302697 29.110876 12.609728 
18.935560 12.227786 -0.142751 
9.091070 24.958570 -1.970669 
-28.364532 -7.914247 7.286893 
-5.437467 27.435642 2.148240 
19.226309 14.921964 5.032889 
-17.767143 1.921351 -3.033809 
29.592356 -4.217949 4.112523 
3.713904 21.917986 -1.012376 
18.822096 21.162550 14.411312 
8.969315 22.781187 1.324724 
-26.523394 7.656526 -3.619924 
5.798351 27.548090 2.846644 
-10.646091 27.749249 12.186456 
-18.736801 -0.290281 1.605830 
-16.903376 9.471615 6.134180 
18.297459 5.213341 9.320223 
-26.342817 -0.963240 -1.731510 
28.765591 -6.904405 7.493528 
0.270983 28.454666 5.088270 
-20.909826 7.646631 -0.869681 
11.144794 20.533096 10.330195 
-11.973877 20.275612 0.184136 
-32.824440 -10.958319 9.820541 
-19.305374 18.938585 7.594370 
27.054689 -14.970865 4.080266 
-26.853621 -10.829375 8.268226 
-16.324984 23.513834 1.858953 
-26.788845 -7.336119 6.860103 
-30.806776 -12.351261 15.814060 
10.138700 27.403893 15.810672 
12.304701 17.744890 11.771106 
31.276539 -13.069612 3.945823 
-9.309652 26.832615 -0.273970 
8.735535 28.096584 13.836188 
5.385149 23.652670 0.174914 
-23.780382 2.834381 -2.368806 
-31.254749 -14.306289 17.208021 
-18.422731 0.728589 4.116556 
24.817389 -3.604901 1.486477 
-6.796279 31.989906 7.608697 
-26.097757 -3.531069 13.217842 
23.640827 -5.832124 1.537726 
21.727365 14.229464 6.156987 
-22.298458 -11.608383 16.374949 
-26.530336 2.133566 5.978463 
-24.486292 14.136942 12.180766 
21.132645 -0.814377 12.504805 
-0.871236 23.667889 11.544568 
10.207995 17.388821 -2.977072 
31.134960 -14.393653 14.214622 
29.072554 3.892444 -4.186005 
-22.770908 -13.275402 14.397377 
-25.598558 4.202728 7.019803 
-18.947414 6.500291 9.632653 
9.155382 27.273655 1.692015 
-11.709410 27.080770 7.683155 
-17.291515 11.602434 10.466128 
-13.983222 16.435356 4.935974 
19.550444 1.737121 -0.170670 
17.945438 8.648076 -0.219585 
2.362701 26.955151 5.019374 
1.452528 23.657114 11.310571 
-18.181370 0.245243 -2.268090 
5.119933 27.968117 3.084984 
-13.325124 25.558268 8.360047 
-15.570222 14.614803 6.384368 
23.885866 -5.141343 4.666416 
21.861927 2.852460 12.024801 
-20.037613 19.284966 7.819383 
-24.466400 6.521944 12.885930 
23.512741 -6.115772 6.638386 
25.304359 1.343180 7.728482 
-22.001102 -4.347609 2.677872 
-9.919818 24.039398 15.495062 
-11.594751 15.172261 -2.917293 
-21.196056 19.584320 15.544731 
1.343051 22.878567 0.292622 
-19.424330 6.897289 6.345970 
25.571899 -9.262209 7.495270 
-22.078381 6.015092 -1.413208 
-1.937096 27.650530 16.011683 
-27.728613 -4.901335 8.591109 
6.707821 31.995316 8.368271 
3.944973 30.061455 7.531657 
5.236543 27.542437 14.605494 
-22.932404 5.732968 7.348349 
-24.958014 -15.665256 11.343719 
-29.588060 -7.290172 7.095096 
-20.865103 12.029464 -1.702861 
-13.971766 12.283806 15.721776 
16.042522 19.611397 4.835632 
15.893763 11.825827 11.537970 
-18.373100 21.914026 18.588957 
10.823627 26.836988 16.658463 
30.447346 0.843211 14.642041 
-7.641916 27.568657 8.711391 
-21.108208 14.028252 2.137186 
14.492099 24.311369 11.472754 
-20.642826 18.199360 12.285169 
-26.347446 -16.331917 12.067124 
-25.326044 13.153315 12.813704 
-5.070693 19.676992 -5.808688 
-25.737728 -10.341085 15.630982 
7.624789 23.871248 11.410912 
19.150711 -2.528074 10.930161 
-23.062992 10.104859 11.143929 
3.892438 29.092424 1.691932 
29.685724 0.541585 2.604629 
30.060619 -1.055791 11.604798 
-19.941719 20.217525 1.421512 
29.786791 -12.449310 16.565594 
-24.837299 12.971802 11.500452 
-23.695402 -2.153848 6.187270 
-23.126314 -11.685737 9.333762 
21.947105 -3.081988 4.973540 
1.790516 27.374317 -2.796986 
28.712729 -14.257518 15.967898 
-27.911016 5.076458 -3.622998 
20.502089 18.913990 12.732963 
30.017635 -0.896147 12.424211 
4.811931 27.146898 9.672272 
-18.344048 1.697371 5.132353 
-14.432670 21.345921 12.228426 
-15.600430 18.358513 6.578232 
14.620343 16.433495 -1.109315 
-6.744461 30.537201 7.248579 
-21.302116 8.637922 -1.494905 
25.522430 -14.945703 4.091327 
18.617222 14.437564 5.428024 
-6.757254 30.420427 11.692143 
4.790227 30.178198 7.452290 
30.331240 -6.269209 0.847108 
31.388876 -8.523349 6.715321 
26.373899 -15.649147 3.369121 
-6.592572 26.710749 -2.898202 
-13.669301 21.609594 5.815834 
-14.492522 24.822872 5.970865 
-24.084166 9.961463 4.301103 
4.534238 28.431606 7.702779 
-7.438470 27.744534 -4.643903 
17.239336 13.092541 9.346483 
-10.760417 27.027563 0.215085 
19.672464 8.694979 5.655385 
-10.676043 25.371674 14.209524 
1.930697 26.406267 9.415812 
29.610275 3.376065 9.697689 
-17.696692 2.100213 -2.038537 
27.135431 7.900421 -1.482393 
-6.831730 22.650120 1.227793 
27.463696 -11.718336 8.420866 
14.896523 23.742451 18.928438 
-25.101702 -7.572885 7.984900 
25.736971 0.613782 7.751053 
8.121361 28.170408 14.490607 
7.575508 27.409725 7.266583 
20.808506 14.782109 3.705085 
-23.761805 -0.907757 -2.170052 
4.044327 19.425484 18.686798 
20.183929 -4.648037 17.973257 
-31.784351 -12.938848 12.543983 
-9.325999 27.546495 7.796352 
17.356237 11.088784 11.744802 
8.367284 25.708815 9.154920 
-9.679222 25.683462 6.260720 
2.462756 23.675747 1.533089 
5.225233 27.834610 9.320179 
-25.124249 7.216799 6.750837 
-3.355757 24.586052 -1.828571 
-22.573179 8.502152 -0.402525 
-27.961233 -15.380908 -0.846339 
-15.167782 13.356614 9.594521 
-23.632135 -7.334950 14.193607 
6.068782 28.542793 0.174639 
23.322771 7.092841 6.779579 
10.503321 28.639763 11.324567 
-28.434593 2.410300 6.611251 
-23.989120 9.880221 13.574655 
18.656052 7.471234 8.190009 
29.441475 0.269638 -0.236423 
-26.718431 -10.218882 15.895644 
17.871683 18.000137 8.490535 
-17.929485 14.820227 -1.216478 
13.140267 18.702389 1.288263 
-30.934023 -7.354531 1.086308 
1.043639 26.851046 -2.238309 
25.613390 -11.631313 15.472060 
6.189270 23.855492 0.905388 
-19.998867 -1.469691 12.307771 
-1.435591 31.794310 9.550645 
21.236073 4.162431 10.554416 
-16.104139 20.722065 2.876442 
-5.869191 19.588743 -4.748562 
-22.788563 -12.036971 1.307100 
17.782818 17.155882 8.536967 
11.042288 24.886925 0.717213 
25.301037 -9.389967 5.391644 
1.356395 21.231482 -3.585191 
31.782173 -12.661241 3.288605 
-29.886812 -6.890680 3.031284 
-32.398945 -12.770750 14.994643 
15.662909 20.537979 7.452446 
18.267523 16.199657 5.483869 
-28.602859 2.799923 2.929786 
-0.281584 31.203852 10.177186 
-13.185808 22.810211 7.366676 
3.310033 22.612783 0.272179 
-2.718056 31.250019 10.677767 
29.702026 -15.575695 12.779484 
1.542542 29.536678 14.357980 
-24.233332 -1.648874 -1.941119 
-25.585434 12.196496 7.757742 
15.417311 18.084965 -1.957851 
-12.933036 23.417576 11.901199 
-26.516573 3.515566 -1.798391 
19.980125 -5.866530 14.936830 
-2.431026 28.712008 6.872549 
27.558676 3.256468 6.723927 
-14.001584 18.524174 3.387038 
27.533188 -9.215072 -0.725628 
-11.012068 15.722050 17.047319 
-21.748281 9.439953 6.706204 
-23.880493 -4.965896 6.736049 
7.106956 26.455717 -3.010253 
-20.301868 8.437587 1.552310 
20.583061 -5.015489 -3.371734 
-15.161354 22.403715 16.635496 
-26.879271 10.500475 12.344286 
24.983402 -16.564911 14.828788 
21.352085 8.647532 9.537963 
-22.003050 3.241914 6.362890 
-5.472892 21.705017 -0.596724 
25.488417 11.474447 -1.314683 
23.365496 6.419563 5.703599 
17.198841 19.652445 5.659048 
-16.865532 6.839841 0.320029 
3.774633 30.412584 12.422605 
-6.183956 26.556408 15.420007 
18.541828 16.491835 13.560191 
-3.601098 20.603809 -4.503136 
22.422125 -9.630912 5.355506 
-13.651834 17.061451 -1.243641 
-14.313721 11.741078 18.264597 
-8.810027 23.851826 -0.421773 
-31.364132 -0.889648 14.093300 
-21.705381 -6.704584 2.279391 
3.209737 21.040564 -3.341567 
-27.313288 -5.858164 8.617641 
11.594213 26.915049 14.837811 
-5.054914 25.752750 3.745139 
-17.233885 21.193996 2.915841 
-18.264881 24.427547 13.589353 
-28.017389 -3.803511 9.624111 
-13.642699 26.111971 -3.422289 
29.446257 -5.680634 12.316931 
-8.272777 26.785345 8.391933 
22.594234 -2.392543 -1.427604 
-31.144735 -3.283148 0.562746 
29.453045 -10.878605 10.138341 
0.793489 28.786190 12.868901 
0.825213 29.205462 4.975171 
-6.798502 28.512642 5.714212 
-28.483181 -5.609158 6.843925 
7.523320 21.721474 -0.709683 
-20.185360 -6.035534 -1.241591 
-23.103493 -4.976121 11.694798 
32.728271 -10.017230 13.500690 
0.720453 25.353075 1.094660 
31.989086 -11.437572 2.768861 
-23.648540 16.951820 8.000422 
-28.343254 -8.013263 12.851024 
-21.708094 18.809340 7.916461 
-14.101708 24.118338 -2.346000 
30.038429 -14.608419 15.069757 
-24.487146 -2.993934 -0.375380 
6.703712 23.819786 -2.683186 
19.815308 11.774021 13.248797 
20.667686 -2.571174 12.010711 
-16.624336 11.838044 9.895870 
12.860019 28.480001 7.904872 
19.465900 7.396988 11.978984 
20.127560 -5.998673 12.704483 
9.038344 23.860958 10.707235 
3.950783 24.856434 -1.745781 
21.963636 1.177509 3.790381 
-16.860294 8.110536 4.134621 
26.639668 4.631062 11.394091 
-26.530025 3.783489 4.700503 
-28.585493 -1.100532 13.546705 
-27.221428 -3.744180 4.812703 
6.924011 29.765724 7.422390 
1.778084 21.185514 14.909327 
-2.890386 27.963705 7.822329 
16.405691 22.726900 2.614532 
-23.154930 17.873625 10.209353 
15.841619 24.736204 6.620391 
-24.050581 -7.936902 14.610736 
-28.149412 2.278052 4.434222 
-18.796131 1.223852 13.811850 
-5.628013 24.566648 -2.277245 
14.961009 13.165375 9.427262 
-6.356458 26.621233 12.601939 
-28.075268 -14.931102 4.214264 
28.558928 -4.417297 2.304906 
20.627380 -8.930155 13.497040 
12.889152 28.297140 8.841643 
-15.997179 24.072372 -2.406273 
-33.179741 -9.669000 16.780792 
15.153230 24.329746 7.148154 
-16.674696 19.637310 8.485615 
-27.661335 5.781438 2.497003 
-8.784522 27.777134 6.782833 
-5.934566 24.661995 3.164210 
-32.729614 -11.071471 -1.566439 
-22.224121 -5.530504 2.765293 
23.058601 17.191599 11.555867 
-3.540628 28.738909 9.240786 
-24.196129 -14.427676 4.127043 
-14.551951 20.105879 -0.462194 
-32.898426 -10.081187 15.086867 
-4.829507 31.476767 6.525102 
-17.937302 0.753575 0.044040 
26.763540 -2.680480 5.725737 
7.633852 27.669615 5.828864 
18.574415 13.280600 2.788305 
18.410551 17.137558 11.075051 
-1.664641 25.710299 3.856119 
22.643108 -9.514314 0.491965 
22.071127 16.482193 -5.406291 
-14.032003 25.001490 17.061899 
-14.865798 24.173922 6.637830 
-12.275872 19.188721 -1.286246 
-29.538059 -2.091599 10.506588 
-19.640118 20.266554 0.525506 
20.966831 8.912953 4.636532 
24.133007 -13.557637 0.656998 
-8.943662 17.483568 -4.674220 
30.694052 -15.605875 13.450391 
15.225228 12.605083 -0.300742 
-16.225407 14.007082 13.188237 
29.786278 -9.252785 8.335701 
9.432878 24.697001 11.536876 
11.588056 16.649908 12.552099 
18.172180 15.559092 13.691058 
-17.936443 15.467995 10.971165 
19.144543 5.090286 1.464001 
-9.360633 20.348652 12.233314 
-15.284761 25.314722 0.283081 
29.309971 1.306223 -0.782739 
15.394496 18.366377 -0.822976 
5.327149 28.634752 16.023560 
17.285528 13.427511 3.634886 
22.190508 14.113515 11.936975 
27.555925 -4.090258 5.720307 
21.188524 19.935453 1.244210 
17.592411 4.142483 13.621669 
-29.052832 1.475496 1.230179 
-15.161194 13.953858 8.713534 
14.346380 26.717472 9.571250 
18.575903 19.044954 10.983397 
-5.312998 28.300783 16.604385 
14.002120 20.724588 -2.713749 
-31.659637 -3.466192 -2.391329 
20.821714 -7.217774 -2.060997 
21.995346 17.452614 -3.694698 
5.238836 24.000237 -1.819786 
-8.668119 21.956404 13.259530 
-27.348581 5.741847 -4.567776 
-25.653334 6.256849 9.383579 
-27.919889 5.529956 -2.153686 
-29.804743 0.732828 7.529443 
1.807094 27.146984 8.960631 
26.517441 -13.864070 6.962223 
-12.068823 23.491491 5.764834 
19.766727 3.253342 9.508401 
-11.583229 19.144072 11.234950 
-17.214075 18.475861 13.798414 
-22.268661 15.265024 -1.074644 
-12.818648 26.485521 -2.086136 
23.096590 5.165759 9.310692 
16.103113 22.768719 -1.280589 
27.552893 -13.938726 8.640440 
20.851564 7.175392 -0.399981 
21.753235 -9.865646 12.336572 
-23.034399 -12.473582 5.378688 
21.408770 -6.155189 10.149992 
-32.025585 -5.991200 -3.471479 
-2.161456 27.122261 13.613941 
20.706551 8.649728 12.536533 
-16.352083 9.240330 5.375040 
6.906088 26.238863 14.392610 
-21.551819 5.444996 12.393130 
-4.622154 19.298983 18.610672 
-28.617300 -2.488498 13.201468 
-8.954453 27.303139 15.838055 
-22.599426 0.862000 5.410748 
-30.290131 -4.387013 3.088752 
-6.633854 25.563465 14.330419 
-18.954058 15.085907 5.745878 
-28.332712 -1.631786 6.587766 
14.657724 26.737682 8.798150 
8.482432 25.067413 5.448420 
-0.751804 27.204079 14.254006 
-26.229799 -15.234182 4.935221 
24.405499 -1.823564 -2.026895 
-19.333233 14.173400 4.148952 
32.204464 -14.326335 12.357348 
13.207094 25.405577 5.374591 
21.777878 0.517557 4.549561 
22.775515 5.548646 5.999962 
-24.138741 -9.728758 7.441195 
-23.116924 1.814274 5.647653 
12.300135 14.701406 -4.084230 
-15.606866 15.015175 12.020774 
-9.337154 18.026136 15.321129 
-13.358803 24.302134 7.560604 
-30.101540 -6.634517 6.589774 
-20.584616 -5.625595 16.068634 
-16.533552 23.028503 -0.815271 
16.735830 11.810703 1.338545 
20.869200 2.041861 9.414718 
29.251825 -15.317420 2.963136 
6.836268 24.269016 3.604192 
-22.618338 -7.894206 0.691298 
-27.056641 -11.735172 0.084820 
23.900423 4.571065 7.692657 
-23.298750 4.608909 6.749957 
-27.707968 -12.490923 8.954280 
-18.527056 24.301407 6.568978 
26.362167 -14.977472 2.770722 
-24.829008 -14.582465 12.058358 
-19.402357 13.898642 7.397765 
0.904007 25.823326 13.104081 
18.810841 18.889709 -2.468853 
25.638548 11.286279 7.113020 
-15.812362 19.665380 0.176484 
23.482309 7.983816 13.363783 
11.667992 20.276112 -0.599791 
13.332320 20.893574 -0.365989 
18.513556 23.655682 12.492340 
11.581347 27.686426 6.732593 
-27.107065 -14.034082 14.823789 
-27.208574 1.880658 7.216910 
22.174479 -2.364312 12.921839 
25.579815 -8.767549 5.854526 
29.105556 4.939733 1.375924 
23.645084 -7.415565 12.469919 
-18.441568 21.659304 15.936457 
16.699457 10.910270 3.459627 
15.792299 14.128038 12.520229 
25.360935 -5.585955 0.734684 
-21.248714 4.716237 9.507047 
17.364840 16.239576 12.021471 
14.572124 16.984875 12.573541 
24.322012 -0.175314 5.770938 
21.552898 -10.408346 -1.239311 
1.981556 25.684696 0.394038 
-23.894316 12.413740 2.880732 
-16.240469 16.967590 8.985683 
-1.638501 31.102587 6.659915 
-16.320299 6.099187 -4.561365 
-30.943876 -5.039732 3.849614 
-11.144237 23.038511 10.868406 
13.585535 15.838306 0.239876 
4.890570 28.613831 3.783918 
27.424223 -14.445496 6.420921 
-26.995380 -4.494466 8.528807 
-15.876721 20.007906 8.617228 
23.275103 13.735111 5.662987 
27.390839 5.102707 9.165048 
19.798185 7.395060 -1.121871 
-20.729811 17.369492 -5.646970 
-13.289282 25.745071 -2.231012 
32.800274 -8.183719 -1.862611 
21.533056 -9.811859 1.114594 
0.278937 29.761145 10.260603 
-16.293482 13.113873 13.012290 
15.910510 21.945724 -1.246871 
-18.737913 2.074618 13.538866 
14.010202 24.176060 -3.131667 
16.250490 22.455307 -0.468249 
28.525570 -4.012157 12.183102 
-2.465815 21.085968 -3.647421 
24.382164 16.021904 6.628109 
15.184688 10.058751 -4.821923 
-20.329391 19.535820 0.454640 
22.933573 -3.559458 3.718461 
-16.928967 25.823595 8.652779 
-19.091677 23.138498 13.499016 
-24.052555 5.853153 -1.530495 
22.745144 -3.078501 0.365166 
24.115616 -2.729907 10.750350 
32.037895 -13.522024 14.273649 
18.875727 23.739607 5.650605 
-16.810015 20.516939 16.490904 
19.374575 7.843704 5.564850 
-5.741745 24.355946 14.500894 
-27.291424 -4.156724 14.044238 
22.472530 -13.030219 17.697262 
17.032036 7.549602 -0.960684 
-24.496552 -14.557443 5.208674 
5.890980 22.759378 -1.797287 
-7.154850 23.448761 12.369940 
22.918961 7.983276 4.880878 
-15.585622 9.852275 18.187622 
19.629786 12.551579 -0.517958 
-26.613569 7.096628 9.400872 
-14.923263 25.738411 -0.372204 
8.904606 29.383696 9.419303 
-32.316849 -7.875788 9.864912 
-28.226849 4.038599 -4.409359 
24.928770 7.249058 4.884076 
-29.856619 -1.080020 12.226794 
-25.029545 -15.113655 -0.030414 
-16.050541 16.103067 5.443427 
-15.331246 24.074404 15.263441 
6.128985 28.219606 -2.750004 
27.366201 7.205691 -0.612935 
30.786924 -12.532184 16.621660 
-11.984560 17.772575 11.912743 
-25.682190 -11.829476 15.501565 
-30.576715 -13.907499 -2.714975 
28.575171 1.554754 -1.239460 
25.783199 -0.640358 14.129761 
-27.332853 2.071815 13.823034 
-26.353905 -4.689133 7.963696 
23.754145 -14.166448 3.894215 
-24.738129 1.813579 5.545451 
-25.600969 13.186149 14.600724 
11.054743 26.914557 -2.014449 
11.129719 21.222206 2.575163 
-6.073516 28.383266 6.778551 
23.362534 4.210261 8.357420 
-1.170697 25.262506 3.303455 
24.416748 3.383752 5.645817 
24.557053 -14.672766 4.071378 
-19.116545 21.613003 17.925247 
-18.599056 11.748199 7.983778 
4.275627 28.421343 17.043856 
7.779726 23.018568 -2.263671 
28.644991 -0.362927 -0.998385 
1.532369 27.027252 5.253875 
15.592464 22.787672 -2.869001 
11.917722 27.553061 12.018675 
-13.684257 16.588974 4.065808 
6.740790 20.219393 -1.819515 
-15.213973 15.281136 7.560982 
29.437990 4.638010 -0.893199 
19.028215 2.712915 1.442216 
24.059406 16.253197 10.857523 
30.232201 -7.887614 7.613487 
12.368291 26.336124 16.027395 
26.069841 2.373716 6.357317 
8.657564 23.845066 0.688119 
-21.537745 11.028967 9.490745 
17.171633 17.891899 13.544456 
25.299864 5.429928 9.743371 
-13.538177 23.045080 -3.893833 
-26.324066 -3.873894 5.460133 
11.302127 19.595867 -1.877352 
-28.562872 6.770007 12.294824 
19.675831 19.733192 18.826902 
24.458067 11.512687 8.407031 
17.919891 4.902664 -1.276224 
22.054323 -2.943133 6.479306 
22.123882 -5.701775 11.233929 
-12.412641 21.669615 15.103258 
-19.938705 18.756163 -5.775664 
21.762075 0.417054 0.745483 
-16.788271 14.586103 13.499723 
21.328899 12.999998 13.834650 
-5.770389 30.805281 6.985141 
15.711855 23.645830 17.952621 
22.913612 13.918382 12.842661 
19.269701 5.549636 7.689551 
-11.104672 25.676847 3.249115 
-23.428623 16.373165 17.360710 
-11.186056 19.121355 -0.705886 
-18.629192 2.698627 17.910751 
-1.073604 28.419199 17.522017 
21.420111 -3.214267 7.012106 
-4.929214 23.936344 -0.333030 
-8.497451 26.556484 12.818282 
-5.541606 26.569574 13.420138 
17.063307 16.372583 10.208991 
21.689968 -2.360063 -0.180996 
-9.733817 25.274431 5.532637 
29.434082 -11.638004 0.665998 
25.984831 9.064970 12.553946 
21.951792 16.377337 13.684373 
20.272127 6.348752 2.103904 
27.514116 -2.489935 1.192744 
-13.187082 19.736004 9.489934 
14.521991 25.424255 -2.191910 
6.880471 32.145897 7.416969 
-23.537283 13.338748 -3.303120 
16.603294 11.409407 9.144571 
-30.376101 -7.512582 6.718481 
-32.499783 -11.440083 9.248197 
-25.006048 -3.156622 0.636599 
24.103016 2.590837 6.504494 
-6.588550 28.576157 4.898369 
25.189651 11.229966 -4.896486 
15.913322 23.071125 6.490610 
-6.291176 23.370640 1.841500 
-9.393823 26.006208 -0.373663 
24.515594 -8.880631 5.238055 
23.761490 1.850791 4.164393 
1.346502 27.698475 8.538874 
-6.316098 24.030226 13.178839 
-13.323247 22.846697 14.977667 
-4.627802 27.762156 -5.214502 
-30.091982 -15.190231 12.871670 
6.714715 25.556967 14.879487 
-25.577650 -15.178490 10.916506 
22.584042 14.806412 0.228461 
-27.507208 -14.409221 11.489753 
2.321918 29.299854 15.182417 
17.988607 3.638008 -4.202382 
15.084989 11.771854 -1.563993 
3.628044 21.456879 -2.008702 
-14.024743 26.231567 11.285813 
-21.359716 -1.093140 1.329419 
4.600535 22.697355 11.349864 
-28.287350 0.116281 4.439383 
20.359791 -6.052897 11.845630 
0.032573 26.381685 9.502100 
-15.184318 14.208960 4.672379 
20.649464 15.017056 14.310145 
-4.331282 22.836380 11.679055 
20.607082 2.993255 9.023824 
17.920523 23.615156 13.433059 
17.525152 6.071579 10.408753 
-19.089708 1.262516 10.812701 
-16.707243 23.744452 -1.923649 
24.630205 11.603166 7.518256 
15.075674 11.965405 9.948541 
28.304724 -15.428516 9.161012 
-27.527475 9.685596 13.721764 
7.971178 29.149755 10.211440 
-0.285333 27.765356 12.183492 
-21.843412 14.674028 2.031254 
22.531374 17.206892 12.190178 
-30.306677 -4.057626 12.005366 
-0.258257 29.745607 13.644627 
17.272367 22.132685 0.255481 
30.516905 -7.348020 9.193581 
-22.741890 7.710576 3.126233 
-20.995871 9.506975 -1.809590 
-23.938662 3.810040 0.501558 
26.407850 -15.521411 4.983158 
2.241175 21.979769 -1.220563 
21.508110 -0.106208 5.005206 
23.451448 -6.576084 9.171975 
25.855425 -6.046413 -0.159881 
16.811060 9.667572 4.685979 
20.664639 0.355001 4.683871 
-19.827734 18.880163 10.154825 
21.239479 14.184093 3.128906 
3.627491 26.640877 -2.638882 
25.680901 1.855551 0.690281 
27.388676 -5.985349 2.561228 
4.291004 24.840916 10.424297 
17.140879 12.450024 6.105469 
11.391494 27.107670 7.313227 
-25.352188 -12.740308 8.492892 
6.185730 25.305700 1.480773 
-10.399082 22.616056 3.341422 
20.992519 -10.790882 12.252869 
-23.318342 -7.857378 9.782454 
-29.783386 2.363715 8.913029 
-12.929964 28.240606 8.437255 
25.908474 10.520249 -1.465522 
20.560102 1.520845 8.790328 
15.325285 9.809288 16.472099 
7.118596 26.134651 13.603928 
-24.107677 -7.506233 8.904097 
20.106884 16.403442 -2.149707 
23.998592 -3.625809 4.365272 
-12.845844 22.232809 9.305784 
18.180660 4.113089 -1.196717 
15.951567 12.431296 0.754302 
7.174298 27.426027 13.605864 
13.079886 14.003178 -3.258573 
-6.386674 26.098335 5.373534 
-17.047085 11.395353 1.633868 
0.216759 30.446962 9.411375 
-32.310379 -6.854342 10.750645 
19.952553 6.481832 12.161806 
18.067112 2.500207 16.236233 
-27.602772 8.398575 18.037088 
-27.694185 -11.196659 16.022205 
-27.422161 6.166348 8.358012 
21.694899 1.376813 9.378108 
-32.143871 -11.707389 4.820866 
-23.817665 12.551634 -4.257027 
-28.390900 5.470364 8.299795 
-23.584211 12.207342 4.642635 
-15.696336 9.139293 -0.389107 
16.959721 17.312181 10.973227 
19.850466 12.351645 -1.349877 
12.166140 17.311087 10.461393 
18.535130 6.517924 8.428569 
-18.001019 10.565319 1.633612 
29.668358 -7.701371 9.396626 
23.868973 17.153042 8.237992 
-2.678703 27.912014 -2.595997 
-4.972411 24.436483 14.962222 
20.827061 -2.603509 4.859220 
21.531315 -5.263506 11.660047 
24.253508 11.877702 11.269799 
26.943298 6.828146 11.105824 
-1.250579 24.038147 1.432188 
-4.894937 21.155546 -1.878383 
-27.715172 6.005427 -1.014619 
27.204988 -6.856473 11.023033 
-9.672848 22.640808 1.600391 
24.201683 -10.451485 7.453639 
25.247522 0.842120 -2.448771 
-19.749531 21.605402 12.591125 
-27.105509 6.238682 7.541368 
14.279265 21.504881 7.681135 
24.465776 5.080991 9.374376 
-22.515812 -11.472694 17.379993 
25.322874 2.013994 -2.445774 
-18.904018 8.578987 10.819054 
-7.601820 28.550625 4.087614 
-9.775670 22.536362 -2.443007 
-8.811740 19.846148 -0.527573 
-26.088350 -3.023794 5.649292 
23.304649 8.546181 -0.512188 
-3.056956 25.654037 16.063246 
4.863869 22.323442 0.296760 
8.162364 27.532713 -3.928421 
27.457315 6.215340 11.385880 
2.690622 29.732906 7.879239 
-12.080046 14.313319 18.373573 
-9.691303 26.855757 16.678366 
18.099113 16.729855 9.695832 
11.479453 25.518871 2.995100 
17.245787 21.902725 6.156617 
18.047085 3.913770 -2.102281 
24.799053 7.217728 2.051259 
20.272106 19.982363 4.314657 
-3.060266 28.001041 9.585858 
-0.788359 25.712717 3.956932 
-32.584473 -6.483538 2.174681 
20.738501 -3.830269 0.614393 
28.774441 2.725590 -1.044808 
18.376736 3.286348 -1.166832 
22.315495 7.382899 0.892881 
20.939047 12.072600 5.701887 
-27.669838 -3.950092 8.587219 
-20.098286 8.982391 10.156410 
-23.911976 4.469430 6.018972 
32.221764 -4.437050 0.061359 
-12.711395 19.754618 -2.893971 
28.063404 -10.927849 16.376675 
-12.237103 28.279182 9.429797 
29.072069 -13.882190 6.923930 
23.776268 13.056411 3.490372 
-16.922327 5.838355 -0.493045 
-22.261927 13.010403 12.088569 
12.603502 25.834223 4.899227 
30.576303 -0.357503 17.305298 
24.567841 7.393178 2.939239 
28.300692 -3.894290 4.946057 
29.065563 -13.186441 1.275312 
-17.489016 7.773285 11.930314 
28.344177 -1.161002 6.750071 
-2.585475 28.521120 16.944798 
-29.213114 4.520873 8.016591 
0.028668 26.581745 4.669865 
28.655767 1.575361 4.962305 
-21.544781 3.899201 10.370792 
5.032758 28.529768 7.051729 
-22.205250 -2.891639 -0.926219 
-21.692284 3.330391 5.290351 
-0.447206 25.523766 9.964992 
26.413250 8.533148 11.933739 
13.358123 20.750902 3.947287 
23.985563 15.539335 11.487788 
-14.238841 13.329294 0.747856 
-15.965290 13.582129 2.231798 
-3.480046 28.747240 15.326855 
-23.387129 14.492016 12.126956 
-15.142764 23.486599 -3.642438 
-28.241364 7.958273 15.599800 
27.547251 -12.934955 8.331143 
-5.072248 25.114721 2.851730 
21.342981 9.518094 9.054162 
-18.919506 1.015520 16.314030 
-29.069145 -1.984157 2.022201 
0.615937 21.833488 -2.098262 
-13.264751 13.618162 -0.773152 
-27.521893 5.147000 6.152054 
-10.473183 27.024294 3.914114 
-20.836332 -1.732471 7.409574 
-16.481153 15.212602 5.458096 
-18.137918 7.880293 5.676813 
-7.537718 26.807886 9.097405 
21.688025 12.592552 13.144932 
20.596149 12.947247 -0.672717 
9.290624 27.384689 3.478974 
24.785685 -14.037899 8.159638 
-19.528580 0.319549 8.431249 
-0.506475 26.337793 -0.543386 
9.188103 29.444086 6.622216 
25.074736 2.562139 11.237988 
-31.295565 -10.217439 1.345078 
-2.814649 26.956945 -2.672547 
32.272209 -10.467841 15.031257 
24.275955 16.445955 7.690051 
-26.580231 11.293297 10.058988 
16.416731 22.472425 0.394187 
-17.599220 14.247242 13.762836 
31.218819 -15.101197 12.239532 
-18.464462 19.575310 11.751697 
31.208452 -1.337629 -0.273044 
19.366755 20.260962 6.697572 
-22.609171 4.158593 6.664301 
24.561783 10.501818 -0.382551 
-23.515894 -5.252773 5.116205 
-7.180935 27.495552 12.968440 
24.981979 5.272600 -1.772796 
14.695627 15.338047 3.898212 
9.865142 21.803518 1.257171 
-18.293736 4.419392 12.885658 
19.952118 5.074270 2.117518 
26.001926 -11.476862 12.263847 
2.431792 29.001579 -2.359754 
32.517422 -12.429100 1.955026 
-29.510857 -4.589930 5.190562 
24.242008 5.053422 1.119734 
23.373285 15.987324 14.028976 
-6.557673 28.654835 3.925445 
-20.462334 2.392092 8.455914 
18.772459 -1.473184 12.315390 
-26.181566 -14.823512 2.149636 
-30.640100 -10.151438 16.004766 
10.536308 20.150209 1.151539 
-23.758541 17.024363 9.151185 
-6.139953 27.691576 -0.580575 
-20.656271 -4.500598 17.640684 
10.977740 22.696083 9.484338 
-33.222004 -10.992570 17.308344 
