-19.582996 5.842341 -5.779167 
-22.727098 -6.996629 3.958302 
24.010847 -6.160216 -4.056243 
20.350969 16.302176 1.149989 
20.308977 -0.797985 7.054979 
-8.727007 31.502783 2.415098 
-16.846066 13.019077 4.700506 
6.425852 25.107506 11.675984 
24.483313 10.056582 -7.511983 
25.934706 9.867975 2.917937 
1.131722 34.968609 6.924148 
-20.409349 -9.163068 0.590937 
-19.468637 -2.972075 2.637853 
22.403835 -11.326649 1.046247 
-23.387104 -8.771190 6.504226 
-15.304545 25.191994 -0.057486 
0.243795 34.296043 6.064759 
22.139935 -3.137146 -4.326289 
21.725182 4.707988 2.102266 
-14.417118 12.815440 -1.748334 
-0.438405 35.350552 5.669713 
-25.385765 4.253018 0.956335 
12.893052 20.163960 -2.271584 
17.196817 28.143986 11.969887 
-11.407969 30.700954 2.517067 
22.538330 19.753191 10.870193 
-25.763723 -9.203397 3.250296 
23.292452 11.853666 5.863986 
21.335562 9.459830 9.904390 
6.216730 34.113960 3.733814 
16.785337 8.119383 0.236865 
18.644531 16.223791 7.255250 
-18.815989 26.150799 10.675632 
23.944220 11.207322 -4.372355 
21.304476 -11.207857 0.235730 
25.839117 5.211952 9.597315 
15.067514 30.508564 9.951629 
6.471877 23.320948 -0.477471 
-20.396486 16.092552 -4.180261 
22.293005 9.293572 1.807945 
-27.330832 8.242192 4.748631 
12.935699 22.229771 -5.171804 
-9.024208 29.894665 4.410304 
-14.486058 21.534145 5.724361 
-24.995823 14.168241 4.190002 
-17.963676 15.278491 -0.388681 
-10.808965 21.936014 -5.496652 
-23.173822 -0.980739 3.631179 
10.347853 27.816784 4.389777 
29.018133 -2.305216 -4.016341 
-19.440500 9.387675 4.713779 
23.545624 10.891583 8.831705 
-13.621089 20.986431 5.688856 
-15.257504 30.670185 6.840206 
2.789060 29.279552 4.999032 
8.817127 34.269760 7.282093 
15.997334 22.017723 5.906320 
20.515070 11.959939 -2.711166 
-16.021955 16.468880 9.268472 
4.474654 32.245419 1.273186 
-25.006588 2.748287 7.145641 
9.411225 22.897980 -4.855794 
15.602978 30.163395 8.505728 
12.281703 25.848238 -2.504655 
-4.479412 25.413620 -1.893677 
19.809635 -5.371434 7.393147 
-13.499866 27.772598 1.328811 
-25.753910 -9.151118 10.165092 
-27.110790 2.899284 -4.575469 
-21.342548 8.419971 3.075441 
22.571602 11.388947 3.086658 
24.098894 -6.354416 7.562764 
-18.889170 4.646812 3.172257 
0.709119 35.046703 1.598679 
-16.341473 21.934622 -6.242383 
13.073901 24.661089 4.071550 
25.634800 0.193940 10.220048 
-21.359402 15.796155 8.504560 
-23.057331 0.192767 -4.765608 
-20.057831 7.383764 1.964319 
-26.510727 -6.815195 0.827102 
13.376118 20.882774 6.419475 
17.334532 -5.862493 -2.871259 
-28.712425 2.992012 11.091430 
-1.543705 26.718443 12.657889 
16.810787 1.751373 2.466485 
-16.571251 14.945080 5.723944 
0.992329 23.628685 -2.271155 
19.249571 -2.915421 8.299707 
15.324437 23.647455 -5.472948 
-15.198042 7.523937 -5.763780 
25.523338 2.547868 4.722865 
8.536535 22.832039 -3.575761 
3.859031 35.310036 9.591282 
5.521399 29.330566 2.796610 
15.156982 25.344004 1.416192 
-11.663214 14.178146 -4.888950 
-21.397125 15.057030 -2.566059 
19.802303 20.288042 1.301208 
-7.095784 26.589067 2.047084 
19.743805 1.050913 4.354383 
-6.810682 30.119617 7.650278 
5.406968 33.265785 -2.329822 
-17.941210 23.422815 2.392830 
18.783138 -8.943434 0.451141 
-20.095066 -5.720114 -3.210684 
-1.839642 25.183399 0.402213 
-14.204728 17.800367 -2.074799 
26.846952 9.804470 12.172396 
-24.667738 12.774659 5.575070 
12.166606 13.815832 -7.722184 
16.451393 21.708876 9.567787 
5.377978 35.309582 5.933762 
-18.574488 4.465466 -5.801388 
-6.665569 34.864037 5.063633 
-2.171521 29.007671 -0.861310 
-14.193531 22.267010 -0.864305 
-10.123610 26.450424 0.130800 
20.277922 -9.667712 3.616913 
22.039160 -6.097982 10.081796 
20.466927 6.534467 10.230477 
6.107476 25.022297 -5.829903 
26.003450 -1.422117 0.705176 
9.164536 24.282112 8.824851 
-9.858717 30.567600 8.556727 
14.914810 18.280878 2.147286 
12.822993 18.605246 7.665233 
-9.490108 18.855396 -3.622717 
0.482848 31.219585 4.401005 
-17.097292 10.043780 -2.111996 
28.738077 -5.198637 8.003239 
-21.241964 -3.539225 -2.200963 
20.426420 12.971002 9.444324 
19.878105 -4.296118 4.203417 
11.483740 29.152792 2.396504 
-2.761314 32.055992 -0.417198 
-25.150969 13.958595 9.795906 
-26.851622 2.866470 -7.495113 
-27.178288 -8.318370 4.117381 
-8.582579 34.188911 6.433523 
26.175426 -7.285841 7.483009 
-19.389231 -6.775158 8.732844 
-1.983407 33.274284 6.439307 
17.299643 -2.206617 -1.888599 
-18.322432 8.848888 0.116679 
-19.031445 11.451004 2.418466 
19.869341 5.612020 2.170924 
2.980865 23.858130 -4.281164 
-7.784944 25.480642 -2.354279 
-4.136279 35.420673 8.670680 
29.523689 -7.306474 -5.783691 
-24.614693 14.441233 6.732962 
-22.623846 -1.745287 -0.079030 
25.279337 3.302255 1.656567 
19.163883 -2.688363 2.176463 
22.398411 11.809936 -4.940174 
-22.588743 -7.966966 3.899585 
-19.257820 1.252674 8.308817 
7.981157 24.195761 11.292252 
23.266369 -9.313171 8.193639 
-17.164612 9.807971 -4.487247 
-19.348560 -0.908488 7.984992 
-24.988516 -4.405383 4.946715 
2.696785 27.972490 2.814606 
-26.896027 8.803915 6.281929 
5.176832 34.500935 11.301363 
-12.234446 17.249035 -2.448270 
23.577477 16.660559 7.496220 
-20.164068 -12.524135 -1.053634 
28.351196 -0.839785 3.706584 
-28.836782 -2.694649 5.594604 
-14.187927 30.440559 0.242436 
-28.808252 -3.628820 7.793985 
17.599106 27.946495 6.796470 
13.074152 31.716698 10.575195 
-25.404175 -1.046001 10.682359 
-5.641171 34.145763 -1.374187 
18.612816 13.753833 9.024106 
24.487473 0.841354 3.854017 
14.376639 25.677494 1.473690 
-21.170053 -12.738990 2.481735 
-17.839333 7.352977 -1.141824 
-16.875341 13.543823 -0.943459 
18.246683 20.641081 -6.749405 
-2.934212 29.722837 1.237560 
15.994705 15.643448 6.402443 
-12.274971 17.386471 -1.616135 
10.589753 32.421738 0.243930 
8.491130 28.974737 0.996849 
26.115599 -10.804608 -0.579691 
8.064494 23.628242 -4.140318 
-6.790946 18.481239 -9.669055 
-18.562860 15.899979 6.682079 
-19.661037 11.384342 2.946229 
20.416103 -3.626703 -3.834238 
-7.958929 25.020519 10.542572 
-3.437842 31.560585 1.551246 
-21.383579 21.078398 12.642334 
-22.458393 3.209376 9.855281 
23.704727 17.066935 2.565307 
-1.903086 29.039545 -3.159998 
-20.575516 0.706551 8.028939 
-14.006685 23.547602 -1.194491 
-17.581491 5.567362 5.754246 
3.768418 33.505550 8.370557 
-9.377453 19.006647 -1.572987 
29.767647 -5.518486 -1.224729 
11.859657 19.700439 12.952601 
21.647276 -7.511655 7.911773 
-20.097946 0.316843 5.889317 
7.053776 19.116165 -6.249251 
-14.110398 21.483313 -0.380358 
22.060204 -8.051268 6.878766 
25.192682 11.391227 4.293728 
-17.673422 19.236361 2.687455 
-5.261936 26.194035 -4.557007 
7.548091 22.838417 -2.507584 
-24.762617 -0.566275 -1.245799 
-12.579154 18.778141 0.603847 
1.692587 35.339989 2.941173 
15.635153 6.601618 -3.592515 
13.676033 22.559395 -2.636923 
28.127863 -5.982120 7.840479 
21.170479 11.006262 8.184278 
-26.057154 0.233385 4.490036 
-2.471101 34.633320 5.579873 
-24.880943 -1.812003 0.575305 
23.015596 8.371060 3.114566 
26.046087 2.440913 6.049747 
21.219749 -8.405302 3.986496 
-28.437263 -3.122309 -2.981979 
9.794242 24.720856 -3.326445 
17.644215 1.937181 9.708802 
-28.595943 -5.853231 -0.629926 
26.702808 8.240804 6.170858 
-18.146143 -1.136228 1.369956 
14.301735 30.768536 7.140127 
-5.521188 28.725288 1.536620 
24.481926 5.860880 -5.109242 
-28.167513 5.011772 13.008088 
16.342308 3.310405 1.494564 
-21.888355 0.303746 5.709332 
-14.013521 21.492952 -1.390588 
-19.938805 1.482124 8.693436 
5.018509 29.653326 3.284512 
18.606447 6.573886 -5.837169 
26.242002 9.666668 3.632663 
28.136303 6.188301 10.282411 
20.401953 23.553989 9.005109 
18.588808 -6.777186 -1.964537 
-17.851625 15.647814 6.462707 
-17.354616 19.795897 9.777861 
24.472336 12.562578 6.699870 
9.687271 25.201883 2.057216 
19.268143 -3.686929 6.235249 
-18.729116 -5.395335 9.013646 
17.897846 27.578575 11.091187 
-4.131680 35.230473 9.462090 
-20.543646 11.703891 2.074966 
13.458529 13.654567 -2.815752 
-16.771259 28.549013 4.506528 
7.790967 31.789549 -0.284513 
17.410637 1.212328 -5.635250 
20.048910 9.895156 -4.709019 
-20.672375 17.153290 3.970690 
29.101934 -1.929567 9.060834 
6.549421 27.951519 3.050392 
-11.086852 31.345680 2.099406 
-10.705443 31.171286 6.652334 
-13.524417 24.458426 -1.573744 
-27.201550 -7.409496 -1.650779 
-18.472994 -0.780646 -3.306324 
-17.151098 15.680305 -2.492673 
21.014284 -7.788190 -3.834810 
9.357001 22.770157 0.609025 
-18.200212 19.884274 0.196448 
-0.510067 25.958685 -2.578194 
-14.386720 23.624363 -3.731775 
-20.142574 4.172837 1.739205 
5.319562 27.309994 -2.230867 
5.203530 32.784451 -1.400091 
-20.716759 20.980089 8.568809 
-14.417839 19.035892 7.343909 
-24.530218 2.183935 -2.595010 
7.028766 28.956093 5.770783 
-16.770000 7.615268 13.033731 
14.298782 24.591629 -6.315061 
18.930132 9.098433 9.515091 
15.234621 22.194376 4.560083 
-10.859442 22.796749 2.924486 
0.044992 27.902643 7.576745 
17.597124 26.941679 3.492007 
-18.193068 24.321983 7.286137 
-5.120725 33.198154 8.612529 
26.951391 -7.182355 1.118420 
-4.547678 22.803320 -1.705443 
-16.238420 5.249060 0.480850 
-8.615002 23.331907 -2.171274 
22.520733 -6.751616 9.994488 
-9.739903 25.228653 0.521381 
-9.387757 26.094992 2.858521 
23.856403 -0.402889 -1.389047 
11.719022 24.190260 5.633386 
29.299242 1.378594 12.330946 
6.702567 32.325809 1.609135 
-17.071613 11.128782 -4.753131 
27.319380 0.302170 2.340847 
-17.007700 20.771572 -2.434004 
26.177916 4.721240 8.851931 
-27.353180 -0.259863 9.994955 
6.831934 19.700819 -4.943224 
-17.318995 19.105928 3.361215 
-16.871372 20.864904 3.101240 
-18.695543 24.518883 4.665961 
-16.093273 10.369042 9.745676 
19.402294 21.669708 9.600072 
14.567123 14.995916 1.381242 
2.078929 28.492371 -6.562082 
-12.955946 13.535353 -2.820362 
-25.902954 8.661872 9.214852 
13.696012 18.767435 7.676439 
21.508913 -6.186618 2.381839 
-13.975170 19.130898 2.621267 
12.611385 25.775949 -1.758653 
19.973532 18.396719 9.003656 
-29.153788 -5.433099 -2.209240 
-14.486596 16.417120 6.611728 
-22.047207 -8.874942 5.513368 
13.131247 26.451492 2.284867 
-21.893522 12.905424 -9.309148 
20.228159 23.422636 8.019113 
18.336660 -0.312525 -4.366309 
4.593085 34.761902 7.885069 
-10.493716 33.468361 4.403636 
-23.757633 -2.646541 -1.594902 
-24.115906 -8.598772 6.823971 
-22.576498 -1.474529 0.660677 
-20.986839 0.887290 8.691923 
-16.193592 0.053613 -2.897298 
3.767490 29.188593 -2.969004 
-26.522465 -4.602727 4.284913 
-24.867619 7.724366 -7.707960 
23.256687 12.791829 -4.017831 
-22.341251 1.772721 3.199970 
28.950468 -6.173012 8.758965 
-27.066080 9.308010 3.712548 
18.001503 20.911232 -3.880178 
28.494205 3.256757 9.051286 
3.092127 28.279715 -3.060724 
15.503989 17.780117 2.528255 
24.658924 15.187019 12.278856 
-18.046324 6.044510 -1.082159 
15.957373 24.877790 6.858956 
10.448073 24.205568 -4.988060 
21.251337 0.736775 3.064968 
16.835592 17.094545 1.856818 
-15.214451 20.702627 4.004802 
-25.389565 -2.118894 3.103091 
-15.182542 20.783707 6.363877 
21.272337 9.230053 1.810191 
-16.771370 -2.141325 -4.966232 
24.975159 -1.858271 10.824710 
19.251879 -9.702765 1.882273 
2.592587 27.481829 7.770704 
-19.834513 0.521881 4.739983 
-27.975838 0.402811 8.205394 
-13.873562 32.266453 6.697240 
-15.041079 25.925381 -0.613173 
11.000234 17.078186 -2.683373 
19.689644 13.502812 9.436963 
-26.538565 -8.598984 9.064456 
16.945864 24.584320 6.399278 
7.707750 30.213238 3.135388 
17.931904 1.103973 10.273429 
-16.997616 1.886669 -4.782831 
-26.689457 9.377261 7.292593 
-21.053606 9.922957 -4.820049 
16.004211 15.893372 -4.434096 
-13.552171 16.570486 10.779875 
-25.974646 -9.022513 11.060201 
-16.684458 2.192686 2.206422 
-16.370539 3.208859 0.417239 
21.482325 -1.260871 10.036200 
24.728775 8.267565 2.684152 
-17.860535 -8.716450 -3.459171 
-19.342474 13.579391 -5.470791 
-6.850878 32.862122 8.275835 
-17.228012 17.305565 -5.121317 
18.210192 9.491028 8.304942 
17.056368 8.282381 4.650824 
-21.730547 14.262877 -5.784610 
4.556119 23.299345 -2.926122 
17.280518 12.800990 -2.883938 
10.512500 28.146915 7.905437 
18.607832 17.191458 4.146307 
26.477783 5.154284 2.905763 
-22.984217 11.579505 6.351117 
16.162764 9.741418 11.827852 
1.732012 28.717571 -1.865537 
20.353201 17.586023 -4.750312 
18.190933 11.623165 5.276886 
24.220543 16.640224 10.134458 
-8.961662 24.465557 -2.468709 
13.958713 23.965151 2.825097 
19.656414 13.799929 -5.149267 
-21.059855 5.510280 2.144793 
23.815985 10.491801 -3.153062 
-11.022812 26.354290 -1.839431 
8.575696 27.573702 -6.995815 
16.840794 -1.617975 -5.249783 
0.183244 31.040411 6.353782 
18.265703 15.024341 5.820521 
-15.983412 2.274255 -6.158816 
20.885881 -7.238332 7.461796 
23.561436 12.236642 5.119459 
-20.656818 21.734133 3.639752 
-11.866309 22.260351 6.456516 
-6.386885 29.260584 0.931470 
-18.832403 -1.092633 2.260052 
-22.971151 18.610544 9.552913 
4.337648 35.278801 1.396414 
24.616360 9.600604 -4.451547 
28.741577 3.297923 9.937591 
-18.549780 10.727715 4.446318 
20.211250 -1.487141 9.507217 
-15.093666 19.439198 8.512578 
-25.725340 12.464541 9.955492 
11.635207 26.501328 8.685933 
16.618496 11.883739 -0.116656 
27.702360 -8.373579 -1.444041 
6.720541 33.271015 1.265746 
-19.545618 11.282363 -5.584788 
24.188843 8.462387 -2.155174 
6.004801 34.657043 10.039664 
9.957910 32.324871 -0.298878 
-20.417398 6.457044 -5.682823 
26.007458 -11.402214 1.487260 
-19.848213 10.185933 -5.246569 
-27.651615 -7.088242 7.857506 
24.062059 -1.810742 10.772446 
-26.698750 10.273563 10.687668 
-13.378607 19.363680 6.473815 
19.754917 -2.393788 9.423579 
17.916561 13.038465 1.750802 
-10.798819 34.120525 -0.070487 
-18.689930 -2.868353 2.020849 
-23.239443 1.038329 7.887959 
17.113140 28.928398 9.761358 
-18.143217 -1.792554 8.415163 
18.861382 9.940629 8.597355 
19.170668 17.274584 -0.111861 
22.974270 -6.181070 2.865042 
9.230141 25.430920 -2.461595 
-19.001621 8.822404 -0.378007 
17.431376 13.181684 3.771338 
28.482115 -9.594533 -0.677504 
-19.711740 9.578827 8.143264 
25.272051 -8.587426 12.210226 
-12.623618 26.827501 6.497183 
16.645369 7.613068 6.441388 
16.353596 5.188648 -2.727329 
-8.396443 28.885145 1.191798 
-26.476538 3.517097 -2.362832 
20.338257 -4.050818 2.042852 
-21.864447 9.973705 -1.090869 
15.860226 3.677038 -0.972554 
-24.530275 -3.818811 -3.253953 
12.901101 31.489861 1.824328 
-15.009752 20.021650 7.481344 
12.760359 13.776465 -4.075664 
-24.161882 16.101471 10.101072 
-6.867769 20.285328 -3.259260 
24.893183 -5.135454 4.260894 
-15.792515 16.206158 1.069490 
-2.499808 27.467237 8.013004 
23.552607 4.183805 2.959853 
-18.674568 25.428545 4.265575 
-14.507977 31.533394 7.376541 
18.010529 20.314922 7.625189 
24.770302 10.801716 7.141647 
-8.225512 27.990036 -5.642809 
20.340839 8.875749 -1.064016 
-7.856582 23.539066 -1.184378 
12.452495 31.216047 0.220069 
-16.259052 15.791807 3.957911 
-26.728945 9.461164 2.895250 
-11.052930 15.248636 -4.349657 
13.447497 18.293091 -0.952545 
9.473449 22.509136 12.859208 
-25.739515 12.467970 10.817408 
-17.352617 16.852800 -4.270461 
-23.082314 5.401305 3.782367 
17.701580 -6.294334 -6.170435 
-21.886448 -11.939739 2.452028 
6.209569 34.847542 7.909814 
26.348824 -8.552243 -2.290992 
23.408195 17.876673 12.049060 
2.276252 30.173325 7.665597 
17.657778 15.421217 1.131161 
-19.326090 22.186199 2.340542 
21.341610 -1.866247 2.723244 
18.364988 6.903645 -5.026093 
-19.675285 8.453547 -0.420470 
20.239050 18.110052 4.762250 
26.184458 6.574713 -6.425456 
18.321636 -8.129276 -1.119047 
-20.656065 1.878395 -5.681026 
-15.359246 22.937778 -5.258193 
-22.002298 -1.736201 -3.306906 
12.702385 29.887482 1.030814 
18.568682 -2.605095 9.017946 
10.863090 32.694443 1.321958 
-10.708611 34.323433 1.007432 
1.933528 29.928055 3.325127 
22.923153 10.884742 -0.075335 
20.131517 -3.373267 2.364136 
20.324677 8.105869 -4.410069 
-23.415762 6.339486 10.163017 
-22.612906 -8.977833 -3.033537 
-23.223837 12.212044 7.038366 
-22.476954 3.998318 -5.709668 
12.025018 21.641741 1.621614 
18.311811 -5.955359 0.350396 
-19.283381 -11.009869 2.083366 
-17.015816 28.855011 8.067721 
15.400538 13.200455 9.878112 
-19.327913 17.464373 9.314084 
21.268364 13.140406 2.121866 
17.095377 10.332079 -2.397589 
5.206295 28.887049 -1.458024 
-2.559606 28.943331 -3.919669 
-6.786117 31.595484 1.493681 
24.708181 -12.032869 1.624433 
-1.371698 23.821518 -0.618466 
22.152464 4.899575 3.187505 
-21.741598 -8.098766 7.556346 
20.769751 5.736410 10.247708 
14.162815 16.135195 8.731441 
20.307129 0.789889 6.127233 
21.523554 -4.320772 2.137788 
-14.066466 16.948029 2.835907 
6.460442 25.686146 -6.048551 
25.613207 -4.641983 8.006475 
-27.073336 2.950007 -5.838835 
-18.184479 2.110271 5.924067 
-6.885496 26.927368 7.632097 
20.213444 -2.037734 -1.943809 
4.472875 21.010878 -4.471879 
-15.799487 11.760508 9.260328 
28.151558 -7.276473 2.668299 
22.580986 8.213286 7.083254 
-28.967039 -4.907080 10.441066 
-17.019476 22.586649 3.089643 
-9.056850 17.350554 -4.802803 
21.972843 10.382551 6.279668 
10.902318 23.314524 7.268932 
8.148176 32.205513 9.025681 
15.446732 6.510577 -6.922026 
20.619379 -2.686063 -3.050235 
0.923955 34.395596 -0.659805 
-18.972218 16.330744 3.344331 
-1.690787 34.176289 2.472180 
-22.859375 -11.424925 3.861501 
-28.403479 -3.504134 5.183288 
-13.599419 21.659296 7.280520 
-22.693415 11.796623 -1.279886 
-20.960297 -4.852691 -3.350791 
-4.106415 29.724743 4.037162 
-10.782027 26.810951 -3.064721 
9.921583 32.339043 7.827742 
-6.568876 34.561714 10.276051 
21.762753 12.269976 -3.419881 
-28.268801 -9.196743 2.342629 
17.596941 2.077263 10.470564 
-6.461483 34.845245 5.821555 
17.760176 10.408369 2.318729 
12.762643 31.383701 5.189095 
19.643274 8.777056 0.987000 
-16.153721 29.201235 6.129109 
6.182013 26.637154 -10.265188 
17.895481 1.219789 11.216360 
2.421468 22.807716 -1.506462 
-16.850691 12.991785 -1.556374 
13.133148 18.922165 6.791477 
-17.590954 22.133242 6.208621 
14.776413 10.958838 -3.926195 
17.157537 14.372091 6.145822 
-29.063086 -0.006119 12.242681 
27.061148 -5.925628 -2.860664 
14.092509 24.048227 -8.896370 
-12.447118 16.885084 -0.272606 
-20.152811 -6.290331 -0.412404 
-2.609262 33.901737 -2.367862 
27.372417 -6.854924 3.983584 
-23.858158 15.302256 6.725441 
20.300676 -10.562201 -2.175019 
-28.037706 -1.201032 -4.052009 
22.163708 -5.199580 2.046427 
-6.693289 23.304960 -1.863408 
-5.782216 28.713333 -2.406446 
-17.812624 11.509169 3.574066 
-18.021418 2.132399 2.549911 
18.304689 2.893971 -6.165762 
0.603359 27.034952 -10.341732 
26.045742 2.718169 0.243368 
-19.979380 -1.576296 4.405086 
17.627991 27.660789 5.899848 
-1.800331 29.543100 0.590052 
-1.904945 34.145721 -0.782176 
-8.193618 34.589787 2.564183 
-18.059317 8.906664 -3.554941 
-17.773769 27.639732 6.697958 
16.629679 5.210035 -3.564803 
-15.797324 2.411864 -4.370046 
21.544130 0.225699 5.404041 
21.799173 -10.576664 -2.231853 
-4.595701 26.430294 -1.923030 
12.892009 17.764265 11.176514 
22.180037 8.904095 10.082211 
22.537466 -6.742246 7.468873 
-22.990372 -2.118909 2.266505 
-23.826660 13.388647 8.934577 
-27.476025 -6.165952 3.574071 
2.624574 24.665571 0.106914 
-20.815830 -0.244377 -4.959222 
21.195837 8.465938 3.860500 
26.514769 9.110480 5.136359 
-14.361141 31.560936 6.554005 
18.323996 -2.292540 -0.159686 
23.457993 -9.148002 9.887479 
20.238783 23.610579 11.970090 
28.436214 -8.664330 -0.568812 
20.234573 11.043160 3.615454 
22.940029 17.113199 3.078188 
3.933097 35.503613 8.824995 
17.091818 14.277668 4.603038 
11.552181 32.400848 1.534846 
14.841595 24.103191 -4.558605 
3.216969 26.964521 -4.737581 
24.826992 -6.314055 -3.810418 
12.298485 23.714970 5.312011 
-18.439098 -0.862662 8.091249 
-16.549707 26.488852 -0.558021 
13.445872 25.239542 -1.679049 
-9.723466 24.261589 8.533305 
27.800934 7.254224 11.319673 
9.408766 21.535847 -1.916057 
-25.927727 6.023672 9.697168 
-24.779884 6.267480 -4.067629 
-3.015191 30.802589 7.889779 
25.396214 -5.393604 4.781954 
-6.476492 19.151150 -6.515026 
29.295830 1.424233 10.247444 
26.654821 0.201660 6.887914 
24.697437 -7.111173 -3.648748 
-26.062365 2.838454 -4.199238 
20.477539 -4.904954 2.065638 
-17.915737 -2.287295 0.307059 
-23.478468 3.090378 9.817883 
23.812387 12.824533 -0.521226 
20.965731 20.656176 2.954235 
12.527283 30.020929 5.577709 
-22.735306 -5.748928 8.428504 
14.196656 17.288319 8.333447 
21.483820 9.767393 -1.099618 
-5.781466 34.996426 5.487561 
19.138140 17.786245 -1.483999 
21.711149 12.953030 6.901028 
20.733219 2.638580 2.176717 
1.431612 29.588482 1.311893 
26.262350 3.322943 -0.449995 
-12.044045 21.912235 -3.012730 
2.770075 24.378443 -1.132658 
-18.877384 -4.267768 6.237562 
-16.751678 21.492945 -5.601589 
13.196210 17.251532 1.584484 
-21.904388 10.043588 1.697425 
12.443857 28.787119 6.390403 
-21.719557 0.361532 -5.123757 
21.584064 11.622923 4.678107 
20.424192 -2.744155 3.016358 
20.156301 -5.606703 1.930155 
-9.470029 27.689770 -4.873504 
-28.402948 -6.444350 9.751360 
-18.192499 3.640206 4.058066 
-23.548025 -2.634304 11.091799 
8.905171 27.083197 3.789095 
-1.495649 28.933992 5.381876 
21.093346 11.266352 -5.199798 
-21.248566 7.193853 9.913009 
6.624662 26.183016 1.274202 
16.214085 7.575318 -1.713724 
27.543566 7.253958 13.408594 
-14.988515 21.265985 0.571963 
20.705290 7.282857 2.505833 
-19.258459 15.926765 1.623332 
26.706303 -11.583385 -2.643531 
5.142836 34.466595 7.176193 
1.399082 26.481209 1.359792 
18.375637 12.657779 3.000487 
22.435783 9.754854 -1.288122 
28.054832 0.728211 8.868880 
-18.010500 25.437445 8.466412 
27.445740 -4.173131 7.968284 
16.965605 10.524506 -1.498453 
22.940969 -10.532673 -2.149454 
26.957468 -6.488228 4.537210 
3.807078 27.705805 2.492143 
-20.239788 -9.960254 -2.392845 
-27.305178 -1.415971 10.483313 
-8.590554 33.871025 3.347378 
-17.901211 9.132942 -2.211061 
-12.192403 26.065109 5.422386 
4.778674 28.837507 -4.641675 
29.313625 -6.135447 -7.294597 
29.132866 -2.475566 -5.019097 
14.751026 14.666938 -3.602733 
4.648924 26.015934 11.181206 
20.250807 17.554153 -3.846842 
14.220155 21.529860 1.973714 
-3.136908 32.628582 -2.025568 
4.474214 35.464817 2.382389 
21.158796 16.279922 -6.812926 
-3.095833 26.971737 9.303489 
19.272749 13.952829 -4.459633 
26.969618 9.918652 10.220009 
0.577171 35.360977 9.931100 
-22.227783 -3.165688 -2.166180 
-17.135225 -6.309339 -3.114395 
17.597322 26.586561 8.323174 
-11.044785 25.241390 -3.861882 
15.253503 14.333228 8.542935 
-23.888441 3.532120 3.172490 
26.428194 2.918760 -3.783840 
18.665352 7.795684 1.002447 
-19.010750 -1.346027 -2.048245 
-17.810534 11.076227 4.735907 
-17.127235 20.804583 -1.380150 
-22.466803 1.020226 3.418815 
8.619685 28.814474 4.773321 
1.004510 35.955070 6.155022 
-21.459831 13.567356 9.556268 
-0.600513 33.081398 3.874359 
-20.140848 9.590209 -1.544121 
25.059269 -8.880363 10.852118 
-18.863853 9.111424 7.733213 
5.065776 20.081560 -7.138073 
-21.736452 0.884734 3.054615 
16.747906 14.851035 -0.203986 
-22.319807 2.546871 3.123135 
19.706591 -5.215578 8.220894 
24.672934 1.262364 1.522463 
21.799843 16.711329 8.277398 
-19.238192 24.799339 12.562363 
28.531391 4.206408 9.902280 
25.876902 0.299761 -1.176103 
-25.067875 11.663927 6.954700 
-26.237579 10.016987 7.421186 
-24.120287 7.777383 0.255706 
2.183124 25.193262 -5.218652 
27.198118 -8.099981 8.740013 
-19.239363 9.460868 -4.903597 
11.666744 21.105511 -5.072922 
-18.699953 -4.984643 -1.011027 
-25.924162 4.762929 -8.645818 
19.419556 3.621969 1.199127 
-3.101864 33.084728 -2.830575 
10.762890 21.743364 0.982787 
-24.135626 -2.673935 -0.084120 
16.158621 22.912081 5.728732 
23.377029 -6.901890 10.107851 
15.859186 1.944342 -1.114316 
8.307939 31.249086 9.178874 
-11.540784 22.463234 3.626507 
13.069666 19.790766 6.467177 
24.972300 16.374811 2.730046 
19.720594 8.961052 2.641767 
-9.625490 24.400702 3.066144 
17.016207 -1.634765 -6.424764 
-23.664156 -10.390450 3.607583 
20.589668 -0.444670 -4.904018 
23.797438 -0.416936 1.083776 
-18.318001 -2.999817 13.299574 
5.919312 26.792614 1.491807 
-7.106797 24.941788 0.731137 
-23.440350 -11.996696 -0.554039 
-15.502982 22.276457 -3.469033 
8.450214 25.342812 -5.012485 
-25.688261 -2.433793 4.036499 
23.998652 0.385470 10.091666 
9.852561 20.469242 -0.473462 
27.808489 -6.769353 3.284416 
-18.265491 2.632063 3.744747 
-19.706385 1.285180 2.652184 
-6.427681 18.889446 -7.991745 
-27.503944 5.936301 6.728215 
-0.744129 26.910980 -0.932418 
21.499741 20.845877 6.416727 
5.264766 35.469070 2.514148 
8.785100 25.229563 7.800731 
-6.887043 27.208899 2.692184 
24.947968 4.038348 1.937047 
-21.246353 6.534604 -2.075136 
-25.337173 13.198023 11.850502 
12.992397 23.662016 8.729192 
1.447704 27.642670 -3.590749 
-9.462018 30.313763 3.829259 
-3.362216 35.315941 3.145597 
-0.134160 27.648670 0.514687 
-4.834471 33.773922 6.210429 
27.424824 2.283856 -8.026762 
1.862535 27.476662 -4.332921 
26.026962 -6.629587 -3.263334 
-23.546051 -1.935881 -0.502065 
-10.827627 26.836851 -3.951039 
13.107772 18.904459 2.015675 
-4.866088 28.602545 6.950318 
20.025450 17.121655 -9.348209 
20.296078 8.676910 -2.804051 
29.104435 -2.654435 -6.201810 
-15.012861 15.917266 5.361260 
2.351953 33.625065 -2.368146 
29.634878 -7.221162 -4.517733 
-4.345556 28.846716 -4.227279 
-4.785222 27.724720 6.286546 
-18.725708 -4.946682 12.494000 
18.682676 -1.573537 13.567222 
20.014019 24.275188 10.074930 
-20.294514 -11.466551 -0.395580 
12.418459 20.148787 8.342289 
6.660642 34.120876 0.998731 
23.950924 -1.522102 3.966953 
-13.918751 26.793205 8.675933 
-28.495230 -5.856163 4.630466 
-13.737671 29.247391 1.636196 
-9.125750 23.283037 -4.814776 
-14.150812 26.110596 0.869037 
0.451247 32.546059 -1.913086 
21.122118 21.854010 7.472643 
-28.498886 -1.679643 3.944664 
24.917362 -12.151870 0.562442 
-18.545210 -5.218002 2.274401 
20.511028 19.091805 9.018888 
-17.437252 26.304535 0.824793 
2.198995 29.636871 1.124280 
17.022596 -0.187306 0.433226 
19.068035 -7.604282 2.832483 
23.212271 7.364018 10.271175 
-13.203222 28.408102 4.382426 
-17.695601 -5.371950 -0.546278 
-17.245548 -5.930739 -1.733549 
-27.644268 -1.760052 3.826522 
2.448394 31.539808 2.226509 
28.634640 4.325947 12.126511 
-20.595572 -8.420115 6.235818 
-14.679614 10.401078 -4.136338 
-17.721605 5.039228 -5.391306 
-21.144773 -7.942786 9.693042 
21.638981 15.386228 -1.547299 
2.449339 34.631046 8.210356 
-22.181427 20.507845 9.591020 
0.136761 31.840261 -0.133156 
19.208261 23.333200 4.399632 
11.712021 27.640755 7.342356 
17.312338 20.527676 -3.915677 
21.683113 -0.291203 6.993989 
-10.635964 30.932560 8.944832 
22.369705 -8.318041 6.224230 
21.804604 -7.945483 5.859193 
-25.287712 2.502142 -4.574146 
25.445749 10.367972 2.415138 
-13.375555 28.529675 6.500309 
-9.964964 20.734522 -5.116273 
-4.665871 25.114624 -3.606142 
-13.017756 29.610771 6.164108 
13.817182 31.221487 7.778993 
-18.703728 16.359926 5.550622 
0.297887 31.460531 7.431742 
28.464998 2.431978 8.375907 
15.987344 20.848078 -3.653810 
-12.516866 22.657202 5.817773 
20.280283 -10.693178 -0.464952 
13.314262 27.276848 9.387335 
-18.329172 5.414947 3.026810 
-25.407686 -2.707213 -1.000680 
-19.593067 13.732681 6.562039 
17.329729 13.864292 -0.253695 
12.309629 32.095215 2.232246 
-27.962620 -0.583071 9.374019 
-23.702587 8.055770 1.279437 
-18.718203 11.741429 6.476654 
-23.658688 2.580470 3.954365 
1.631905 24.276379 -4.547236 
13.693473 25.758778 2.332231 
11.156946 26.249750 7.623595 
17.128347 20.628311 3.671579 
12.803325 19.357965 -0.679220 
24.181213 -5.002782 3.672870 
23.294806 10.657649 6.301507 
-21.484644 4.799508 10.048653 
19.493376 7.682002 -4.842549 
3.856694 26.667946 9.774333 
-23.766296 -0.817360 4.138343 
-18.833759 10.643870 -5.363039 
-9.962822 33.659912 2.392189 
10.992307 17.827230 -1.922022 
24.121742 -4.190638 -4.158397 
21.346483 8.598659 -3.158061 
17.118401 4.325695 11.591621 
25.922689 4.059364 8.235168 
-28.436846 -2.506679 -6.428234 
-7.036610 29.513714 6.719387 
-15.593463 11.801330 11.877688 
26.111063 -6.317830 10.366223 
23.020874 13.638605 9.562780 
-16.097017 15.490284 6.433516 
-14.785825 17.581299 9.348303 
-21.767206 6.632801 10.077027 
0.363663 33.847816 7.105694 
-14.184174 27.310511 0.288675 
17.909592 7.182786 -3.977799 
-23.443182 -1.536717 2.575249 
-27.960836 -4.417912 -0.446308 
28.206341 -4.153463 2.833302 
16.474794 8.319140 11.928019 
21.433393 13.856901 2.446747 
23.765388 -5.112196 8.052513 
28.270119 0.550045 -5.279125 
-13.428930 15.066567 1.199911 
-27.548433 -5.110493 3.773983 
20.316072 -5.996842 6.318974 
-14.711982 30.388369 11.322072 
22.031364 -7.717196 4.147425 
29.936399 -1.811387 11.875168 
2.195677 34.455486 12.485653 
24.328756 7.034580 1.855990 
-1.912040 21.898396 -2.966848 
22.206749 5.840118 -5.932652 
17.305094 15.373286 -1.147218 
22.317945 10.313068 -3.494038 
26.155428 3.750715 -4.127256 
-3.041781 21.900694 -3.153315 
17.802517 15.466594 2.583521 
17.438833 21.312475 2.863067 
-1.093849 21.041903 -6.548392 
8.853777 22.737371 -0.037681 
6.321908 22.706045 -1.042799 
4.867048 24.763327 -0.614723 
-10.719371 25.407297 5.904346 
11.738358 27.765150 5.662845 
-26.366865 3.135132 2.224836 
-21.394043 -11.177217 -1.625937 
15.887366 11.146239 -1.481588 
-4.919085 26.235510 -0.065470 
3.773813 26.611395 -4.198410 
11.514885 14.780310 -6.546465 
24.377775 -0.136616 -2.135179 
-13.918794 20.203291 -2.284281 
28.389277 5.256682 11.064751 
-28.847706 -5.377938 5.321216 
-19.949158 2.828981 1.762027 
-27.414751 -9.683513 2.212622 
-9.939092 22.272814 -5.361386 
12.665772 19.969505 -1.305373 
17.709696 8.975882 3.873574 
23.863134 -6.262485 3.860565 
27.209528 -6.509521 8.311759 
5.971512 28.510225 3.697551 
8.398761 26.813627 -9.034203 
12.695959 28.713610 4.736217 
-26.984812 -0.443833 3.732192 
-17.805632 6.233241 -3.381739 
-9.327209 32.678291 3.451044 
-14.876438 19.811695 3.112828 
-17.049814 27.606035 12.506742 
-27.673376 -0.053362 8.854746 
19.434805 -4.325522 6.833430 
-20.486300 0.532477 -5.292767 
-14.995044 16.135990 -5.267080 
-12.740673 32.694405 9.703659 
-16.405378 9.031952 12.999555 
11.289595 31.998846 12.625114 
-8.709564 23.591970 12.680863 
-19.581690 16.100845 7.088049 
-1.888391 21.615713 -3.779893 
-25.557518 1.382719 -4.152294 
15.397469 16.739302 4.069863 
15.758401 10.388891 -2.017735 
-12.307743 16.020746 -2.260827 
-19.973244 2.619364 7.327922 
4.482260 27.189970 -1.895309 
-21.849052 19.977943 5.378117 
23.792990 -2.045564 -3.005188 
21.201271 0.378505 -5.223737 
20.100569 -1.153861 0.507976 
-0.997232 28.594540 6.162964 
28.514099 0.492075 5.138748 
10.525622 21.397535 12.897058 
-10.268750 25.291653 2.722863 
28.890255 -4.083362 9.128233 
15.407126 14.951381 7.568453 
26.228281 -9.016068 4.193343 
22.659447 9.267887 0.563000 
-5.350808 34.714268 8.249118 
14.303943 17.649549 -4.905239 
-19.258530 -1.652936 -0.038875 
-22.592737 -0.493796 -4.574234 
-9.739122 19.992523 -4.735900 
18.458866 16.976614 4.999297 
-10.368854 19.858612 -2.304781 
26.936348 -11.556270 -4.587976 
-0.036429 27.678425 1.337495 
-12.892034 27.484182 2.461932 
-12.042949 17.724352 -0.775803 
24.718622 9.790472 2.119164 
13.304699 18.699818 5.718771 
-21.205948 9.149997 9.340010 
15.471184 8.533736 -3.701688 
17.102293 13.012757 -2.103782 
-13.970157 32.795616 4.748787 
-16.932449 28.504044 10.656681 
16.495968 10.750937 7.999469 
-27.182356 -10.418684 2.660137 
14.651818 20.650684 8.466801 
-26.039764 -2.445963 1.176459 
24.491905 4.704862 2.175186 
-24.311676 3.401365 9.813294 
-12.807061 18.932573 8.353770 
-18.901875 -2.839689 0.393271 
-20.989674 -0.878200 7.141249 
29.135590 0.681028 7.503929 
-18.633356 -9.713298 3.276748 
17.231070 26.971725 9.200743 
19.867599 -2.969557 -0.903778 
20.698158 8.474674 10.074852 
24.791414 -4.538136 -3.992319 
-10.912663 29.706314 6.319952 
9.210391 22.054947 -0.042301 
23.224281 -11.292798 -1.373913 
-9.070700 26.829679 6.463496 
-3.954643 30.409866 3.064901 
19.751242 -3.295964 4.142938 
3.726397 34.710197 11.427747 
24.270174 -12.542472 -4.569654 
-20.644600 15.746614 -1.287704 
-20.489399 1.982467 9.094880 
20.753059 -1.031268 0.969890 
9.912765 22.314299 11.789279 
23.192677 9.120234 9.970351 
-5.223418 20.355436 -5.056305 
-21.676718 17.275719 4.391218 
18.713627 20.171625 -5.043715 
25.709108 -8.910028 7.245862 
-22.521723 0.310536 6.861849 
12.592700 21.947012 6.664696 
5.769317 19.808937 -6.714760 
11.437422 21.945274 8.044868 
22.706240 0.139194 -4.712806 
8.909640 27.422359 6.909298 
23.199320 -1.594126 -2.249163 
18.657846 8.247428 -2.924660 
-10.788461 23.957438 -5.256193 
5.070290 29.983854 6.306457 
16.801340 -0.493325 -6.637489 
-22.164227 8.759983 0.428307 
22.528645 -4.535733 -4.400221 
-15.029212 14.431719 -2.274933 
2.190428 25.462519 -1.426570 
-18.116425 27.125908 5.802654 
15.946383 2.225312 -1.899759 
17.421642 15.279359 3.259986 
29.156839 -4.477358 7.624669 
19.494711 1.017796 6.419576 
-0.006289 22.003290 -3.472317 
-19.032446 12.081281 -5.591231 
18.250044 23.394222 6.052564 
-6.765744 29.091673 6.055733 
12.372981 15.229145 -2.114909 
-9.088921 31.492487 4.520430 
-25.679115 12.445654 11.777165 
-5.725632 27.273476 -1.536546 
-22.447506 12.415510 -4.861760 
-21.412092 14.769977 9.361128 
-21.486427 -0.431725 4.624333 
0.012367 28.321289 6.642512 
6.801895 28.493315 3.999253 
-13.652769 24.710546 8.848166 
-13.394149 18.068504 4.055546 
-16.641148 5.350708 2.197261 
-16.453068 1.295387 0.700208 
-20.054380 16.092052 -2.652711 
-24.638275 12.520952 4.037237 
-18.283787 13.865265 -3.580274 
-18.967962 -6.254592 -1.981415 
26.749350 -3.962412 -3.170438 
-19.321363 14.943016 -2.829834 
21.715162 17.577215 6.553155 
-14.322838 24.544693 2.286448 
6.818088 31.326513 5.845268 
-20.612770 13.480700 9.544724 
21.352894 4.828933 10.201040 
-19.956976 18.783144 1.121139 
3.635553 26.116886 -5.031506 
-27.781895 -9.933415 0.425916 
-21.774380 15.414226 6.725759 
-5.966627 30.988556 2.443882 
-21.173708 14.686872 3.375068 
-8.946798 17.176445 -5.763942 
-11.729618 26.188864 -5.498993 
-5.188706 27.737473 0.438706 
26.449886 -3.658456 2.975551 
17.782097 2.367164 12.338601 
-22.716320 -11.836886 2.680019 
19.986835 -6.194184 8.235175 
13.261208 19.536489 5.589152 
-21.020559 -5.710939 10.363215 
13.138860 22.890940 5.628284 
22.865625 11.168270 7.976465 
17.698652 16.866049 2.122946 
24.204851 -11.439536 3.445272 
-28.317987 -5.735572 0.969062 
24.150137 -8.782594 4.807374 
16.472614 15.267965 -3.184272 
12.612288 31.952690 4.444541 
-15.339237 29.785784 5.098762 
18.729488 16.983967 -1.633894 
24.842350 -2.019802 -2.721769 
25.706329 6.658957 -0.326453 
-6.059567 33.642597 -2.330323 
18.399269 5.185150 9.566703 
25.454958 2.311779 7.291926 
-5.515188 28.421932 6.264744 
-21.165478 10.181715 7.128633 
-28.781578 -8.395196 -5.938637 
25.842812 -4.062299 10.862206 
-0.184243 34.508770 0.083501 
-21.788101 3.583381 9.888991 
-17.777540 11.587838 -5.167758 
-26.086626 4.407733 9.565666 
-20.375759 21.775179 2.916534 
-14.370729 29.890587 6.355245 
-12.274683 19.319967 12.763593 
-8.315637 27.512772 4.116794 
-8.703418 33.720715 -0.677601 
-15.727340 22.119772 -8.642757 
-9.711193 22.385794 1.434159 
21.181501 11.946545 2.404775 
8.346560 21.312588 -2.044419 
-12.672318 25.225855 -3.203294 
-0.404986 28.462065 0.382844 
-20.300232 -1.802017 -1.686522 
-19.272022 -6.696885 7.848447 
-23.801485 -1.140126 -1.174472 
11.362179 23.394783 -5.412221 
-18.635050 -3.876439 6.861754 
-23.128447 -5.074919 3.474198 
1.457716 21.202703 -5.586566 
25.968185 12.129804 11.994541 
-13.722323 30.322018 6.628019 
19.250641 -5.799277 -3.670960 
21.765726 6.226625 10.359988 
17.473347 27.373039 8.481402 
19.560194 17.895805 8.139494 
-21.162733 10.016286 2.534384 
-21.637518 -2.844527 10.647058 
-16.832081 6.747809 8.112047 
-5.067306 28.426332 5.624575 
-1.034197 23.641794 -1.691792 
-17.090895 0.827311 -2.974037 
-10.637819 27.766760 4.695411 
9.871593 32.627121 12.596931 
4.716709 28.406349 5.923663 
24.556995 7.583200 -3.161266 
-1.793827 35.576103 7.455138 
-8.912729 23.401766 1.764476 
21.150373 -9.802687 -2.808534 
-9.778463 21.465912 0.806762 
17.468866 23.560789 3.962637 
-18.143257 23.245033 3.208075 
-15.308921 28.261269 8.329069 
-20.327507 7.855711 -2.286578 
-27.234148 0.651927 -3.179003 
-24.817156 -9.197940 -2.376756 
22.344765 8.284250 -3.683442 
2.781821 32.455872 0.012927 
28.249722 -5.013117 9.470168 
21.625750 11.449671 5.659353 
-4.962049 34.672066 -0.006450 
16.170187 16.576891 -4.750245 
-20.551332 23.049360 8.126168 
23.486813 17.910017 10.230521 
5.809162 31.136089 5.743417 
-17.728712 20.409681 -5.683209 
13.222369 18.392473 4.625075 
1.589787 33.389576 -2.350426 
-26.668369 -7.664921 8.343309 
12.779011 13.010023 -7.390632 
-17.269415 -6.604292 -5.047625 
21.100031 16.465029 -4.730603 
-17.073563 -3.309313 -6.285303 
18.259247 1.822167 6.731365 
-27.304182 1.670018 -3.963257 
-16.213186 21.109919 7.491020 
13.840771 11.267715 -7.208011 
3.724569 27.395914 7.879499 
16.541420 17.684023 -4.989007 
25.095280 2.920478 6.941363 
-20.436192 16.922989 4.791738 
28.644735 4.279830 10.933105 
13.340128 12.171087 -7.177042 
20.093178 -6.713055 -4.054824 
12.169059 28.544159 3.734178 
18.712982 23.291540 3.401869 
-10.416441 21.881563 1.577843 
14.472273 23.310047 -2.088442 
10.009104 24.634783 3.101395 
-17.480162 0.815161 -5.046885 
29.367939 -8.512164 -3.981435 
-10.375799 25.013973 6.628573 
18.723351 20.084366 -6.222189 
23.404953 -12.344751 1.194280 
-2.488883 29.564138 6.462484 
-10.911098 32.790489 11.439284 
-0.846917 33.734974 -0.134822 
2.491568 29.673525 4.389585 
-19.292614 7.880047 6.677799 
-0.968601 29.005648 0.002308 
-16.582146 29.299187 8.767792 
-28.876732 2.015347 12.068135 
14.931129 8.340374 -8.638553 
12.341315 24.504356 8.838216 
20.400904 9.262942 1.127895 
-25.720509 4.253027 -4.504230 
22.116547 -8.509844 3.780529 
-19.020689 -10.443677 0.512933 
-25.660709 2.554953 8.595579 
19.181719 19.134077 -0.817357 
17.932800 26.531830 4.069272 
-8.287621 19.408920 -3.130494 
15.582960 2.808542 -0.487322 
-18.991186 18.187359 -7.619272 
-11.095954 32.076027 1.182445 
9.344460 33.209866 11.741567 
21.945122 14.992972 -7.152309 
25.450094 13.612793 10.195811 
7.088104 31.845209 6.430905 
23.723082 1.962945 6.673666 
-20.120153 14.702393 3.514489 
-20.518400 11.225456 3.303369 
8.600197 26.001873 -4.582603 
24.584490 -0.840240 2.780561 
-13.287209 14.732112 0.385664 
27.998333 -8.536186 1.786548 
26.629614 10.644360 10.987216 
-24.338867 -6.219101 11.050857 
-6.303153 27.563766 6.801148 
-15.903616 22.340239 3.545364 
-24.453054 15.658445 3.685430 
17.464096 27.822268 4.855639 
-22.972580 -1.154762 -4.112039 
-8.828779 24.943687 9.094579 
-29.090309 -8.082991 -0.161698 
-15.613167 4.064902 -4.770932 
16.659523 8.727448 8.755477 
18.836620 26.169186 9.843871 
1.751813 28.910976 -0.996097 
-29.096304 -1.034552 12.367859 
-1.967741 28.141949 6.668177 
-17.768124 -0.177132 10.947932 
-21.419550 21.132645 5.895263 
-22.084269 1.963940 7.067024 
-22.802534 11.109530 1.396342 
-12.411144 24.770319 -9.097013 
-15.348961 30.642311 2.320722 
10.164323 24.879740 6.632511 
-19.452770 -2.392691 1.801289 
21.311729 13.451425 -5.252260 
-26.065191 0.870391 -0.782118 
27.613571 -9.489841 0.488726 
-8.156335 27.474977 6.338184 
-20.457125 3.617222 9.623162 
16.265347 0.490407 0.226154 
13.026577 25.613100 -1.058242 
0.519476 26.571140 1.368230 
23.210342 12.818483 -7.238883 
-25.020107 9.881237 7.665008 
24.567652 12.882135 3.329644 
-24.051048 -3.266253 11.237585 
-23.545732 6.174771 7.721395 
18.570295 5.776797 2.251912 
20.220322 -0.709551 9.282385 
26.205887 3.819840 5.244897 
-22.037895 12.084174 9.160567 
20.957811 -6.550572 9.552082 
23.415876 -2.268255 10.754655 
-20.340622 -1.159941 -4.512879 
-4.059896 24.080296 -3.886852 
-15.048505 28.324724 5.571177 
4.928148 35.471996 7.832589 
-28.322016 5.039665 12.070922 
20.179495 -9.581280 -2.860865 
21.887779 12.831584 2.518401 
-22.551199 1.986019 -2.181062 
17.422716 14.690040 2.757042 
-21.225796 11.845182 3.072149 
-27.156866 -4.076653 4.260005 
19.931620 12.462556 9.078552 
-18.967094 -0.087735 -4.974388 
-4.213135 20.651976 -5.643318 
-16.642212 19.831102 2.720102 
23.163982 -11.969970 2.585483 
-20.222891 22.144688 5.864809 
-12.112325 25.932001 4.476677 
2.541073 29.045853 -3.165330 
-19.668352 -7.408248 7.976178 
7.329955 29.750679 2.626698 
-7.606675 27.755306 -6.978590 
26.751701 6.176523 3.389404 
10.766834 29.734859 2.380205 
12.199427 28.275780 7.635878 
5.533307 35.112553 8.222715 
-11.517250 25.666016 1.435885 
-17.717478 0.775196 10.919507 
17.634340 25.448551 7.512604 
-5.325458 19.347799 -9.731727 
-15.887903 10.436545 -1.700953 
-5.667378 28.890987 7.154401 
15.691505 9.591838 -2.496938 
-19.764065 6.248441 9.616373 
-18.479061 -8.852045 -7.428266 
-23.826553 1.755792 -5.044977 
3.992503 26.714939 1.296940 
-11.014970 21.260265 11.410988 
-20.188446 12.188375 6.786459 
-1.627083 33.248581 -0.163358 
-17.890543 8.081379 7.478962 
-18.810841 -7.225199 3.163894 
18.799007 11.595995 4.794379 
16.817387 10.965986 -0.813553 
26.411161 -5.456930 10.569026 
-16.849739 7.228642 8.954027 
-18.438622 26.119272 3.885491 
-16.872889 22.651937 5.153963 
-12.799947 18.241291 10.487685 
11.831447 27.680933 2.923935 
-4.352077 26.706799 -2.660213 
-25.770460 -1.967580 10.951010 
-18.081009 4.632181 -1.345375 
-18.936270 0.229381 -0.860769 
27.263252 9.100132 10.413221 
-4.225901 32.209267 8.574650 
2.929029 22.227846 -2.068242 
25.421806 -1.070715 0.250886 
14.116784 26.739758 0.272801 
3.046919 27.614029 -1.835360 
12.744161 20.817205 -1.221440 
9.947128 26.448477 -0.467569 
-22.040293 -8.502565 -3.266304 
23.468094 12.400085 1.413401 
-3.261046 35.692020 7.510531 
12.956390 25.345711 1.995857 
-15.991520 17.120083 6.759462 
-24.877733 13.418357 4.056150 
17.112104 28.809435 6.729658 
-16.149935 24.027357 2.088689 
18.552216 14.750868 -2.122626 
-19.120163 -4.068818 5.433089 
0.287087 35.650490 6.162822 
-17.354391 14.616410 3.877007 
18.333740 17.447361 2.524402 
22.570839 3.918473 3.967369 
-13.237583 21.996725 5.647331 
24.604580 -5.391363 10.687754 
-16.506010 2.998529 -2.615298 
-13.913611 24.510132 -5.725671 
11.578843 16.192598 -2.555674 
-22.342779 -9.925684 2.107152 
-22.639612 -6.008005 -3.775117 
10.832782 33.544456 4.572456 
-15.300138 23.234255 6.185785 
1.474400 31.775698 1.523301 
25.668844 1.649730 0.277997 
23.150194 -1.760764 2.506882 
1.266860 34.750927 0.422936 
17.694441 26.351807 2.905638 
22.367609 -5.457524 -0.936854 
6.491928 30.050768 3.040347 
21.256903 -3.589199 2.187718 
14.586658 17.139267 9.079703 
17.898346 7.289268 9.420865 
-25.244030 -0.251134 -2.806875 
22.312208 -0.777595 3.077381 
24.487556 15.550575 2.173958 
26.609951 1.707144 9.351482 
-9.558656 28.421606 2.900117 
-23.655197 -9.362158 7.429599 
-12.639282 27.872841 6.305488 
21.368477 0.525365 9.322301 
24.205425 7.560025 -4.061013 
-2.258893 23.616114 -0.618314 
-22.145510 15.963819 7.611551 
8.100421 26.950605 -4.878801 
-17.391365 15.720969 8.727469 
23.847094 17.285915 10.506390 
-6.436188 24.223595 -5.310609 
0.688023 28.252520 -1.272704 
-12.592157 15.249113 -2.592427 
-16.953682 -4.113564 -3.559932 
7.346695 24.531544 -2.010779 
21.100491 0.308251 8.535514 
-18.859245 16.918652 0.347125 
-18.373171 16.015944 0.237703 
-18.789278 -1.822502 7.923258 
-17.396746 21.226469 2.675358 
-16.452124 15.506084 5.040257 
10.630095 21.490284 11.642544 
-20.620892 -7.526786 4.162909 
-20.055336 16.708460 6.620614 
14.453263 30.946980 9.640567 
13.285432 18.315289 3.650729 
-9.887948 27.256847 6.693944 
-7.111277 27.029741 -5.282696 
-17.309458 9.959450 1.335055 
-12.704654 18.819702 -2.251942 
17.551208 8.262101 2.989318 
16.593140 13.008456 6.587451 
-24.905672 7.170390 -1.125951 
-26.271128 1.188096 -3.120415 
17.043802 13.488550 7.242087 
-17.781067 -1.130746 10.988408 
-17.010258 -4.294873 -4.787879 
-17.311758 9.842336 -0.019135 
-21.160448 4.442598 -5.892618 
25.897945 1.373416 -3.110722 
-14.832340 11.869976 -1.982801 
13.644327 21.081221 -3.047337 
20.443562 10.432769 -1.769930 
-26.714548 -2.244784 8.831051 
-13.214190 33.295483 6.039804 
-20.661983 -0.419600 5.885322 
-16.346737 2.823517 -0.248679 
25.990782 -7.398562 6.450731 
-15.716029 5.154548 -3.533208 
-18.159447 27.438457 8.345112 
-10.001305 18.390003 -1.950416 
-28.367163 -6.616643 1.480170 
18.032635 -3.215826 0.696254 
-23.931044 -1.301186 10.762943 
7.383718 33.586071 4.495616 
-25.301512 4.961604 2.443704 
21.518053 -0.875771 0.657099 
-16.383057 19.950279 -5.006755 
-17.111065 25.648466 8.861901 
23.806479 7.532582 2.205225 
-16.048325 29.799229 6.849967 
-13.672788 10.843953 -7.387506 
13.252776 17.928955 2.233955 
-16.884048 0.077733 1.032496 
22.095825 -10.493378 3.417539 
-16.985874 13.420803 6.705018 
18.216625 7.709097 -1.287529 
-10.064066 25.167824 1.287970 
19.223730 21.718134 0.956832 
-15.723031 26.902525 8.935973 
-17.678827 20.412294 -0.106063 
-23.676800 3.473468 7.353776 
-28.987686 -1.826942 5.963977 
-22.878653 8.160606 -1.042298 
24.626059 10.939378 6.312706 
29.239048 -8.639340 -7.081715 
-17.414488 -7.502189 -3.334864 
-19.341028 10.023449 6.510156 
12.494579 28.876093 2.910133 
0.046315 34.091274 -1.289664 
-22.572971 11.416146 8.614195 
-16.916662 12.163370 6.578106 
2.987489 30.085361 3.958316 
26.788883 -10.249421 0.199571 
14.731822 9.214511 -7.314116 
9.890256 27.550266 -4.464476 
-0.184255 33.109158 5.745935 
24.374018 -7.299946 6.889792 
-5.841396 28.740345 0.488999 
21.617994 1.024811 4.527293 
6.222456 29.024117 -2.772022 
-5.594343 24.572523 -5.065819 
-14.596449 19.352707 -2.253199 
-19.474747 16.438961 4.799259 
25.390711 -2.533554 3.670175 
-10.514524 26.357515 -1.188994 
-3.571098 29.796255 1.899835 
15.578497 26.787674 9.632988 
-17.892914 1.422813 8.293926 
23.710686 -3.481439 -0.974851 
-18.128742 27.449184 9.183446 
-13.586749 17.721392 4.778548 
23.062862 13.307201 7.254626 
-16.831390 10.424729 0.627770 
20.888420 11.722795 8.645316 
-14.266335 27.983845 0.658713 
0.917084 33.739235 -2.115936 
-13.001273 27.261848 1.646935 
21.922258 15.260289 -4.798134 
-16.034233 1.223184 -4.909625 
-19.018141 14.033016 -4.316155 
-24.803345 10.833798 4.634301 
-5.925417 28.264780 -5.975130 
19.885616 -2.142968 4.593033 
24.479033 -9.623665 4.477913 
16.296560 9.882668 9.509210 
-13.113759 14.561353 -1.160430 
-14.486132 29.312227 1.982313 
14.107477 24.159397 1.381001 
-3.331301 29.405807 7.260042 
23.472046 17.262022 6.404954 
29.391577 -2.365735 5.686215 
-5.728374 34.581612 -0.191701 
-7.101413 22.263086 -1.266087 
25.767128 5.601535 -4.430032 
-20.498653 -3.246643 7.908951 
20.060753 14.712098 1.710016 
23.121870 -6.422018 -4.162489 
8.143496 34.207062 9.459909 
-0.076631 34.264347 5.073153 
-20.681694 -2.824793 -0.998550 
24.206968 11.483485 5.471147 
13.998034 16.599920 -1.527969 
-21.935974 4.624554 -5.795840 
-24.279009 15.429500 8.285119 
-21.200140 -7.170128 7.876376 
20.374695 11.333493 8.162498 
-12.491861 24.159721 4.023605 
21.317129 14.320208 -4.002175 
26.331581 2.634470 -1.035239 
-9.123803 26.287088 -3.292075 
13.664470 17.110674 -4.630593 
-27.578972 0.724081 -6.998301 
24.475241 15.167192 13.175601 
-20.903000 17.737944 8.632770 
23.986401 16.596643 8.407745 
-16.126072 25.455986 9.114617 
-24.761095 -8.449476 -2.752924 
-18.806208 16.199327 4.340050 
17.539804 20.690430 -3.182673 
-21.009928 -0.382944 3.357666 
12.638671 18.574362 -0.740294 
-17.277344 6.800495 -1.327237 
-17.106897 6.191968 13.068309 
-18.705984 -9.272564 3.943971 
9.694609 25.227129 1.040992 
-6.468353 22.711296 -4.160163 
-26.347307 -0.850782 8.228585 
10.236756 33.692291 6.985413 
2.326328 33.861950 8.367702 
-18.509308 -7.907596 3.455643 
-5.375591 28.751406 -3.808604 
-14.722992 21.096834 -0.891984 
20.482746 22.014690 3.264284 
15.604188 19.052029 -2.417392 
-1.932767 27.886751 -3.651324 
11.293812 20.632500 11.493678 
27.349407 -2.452083 -1.150061 
22.879934 -0.645156 -3.582914 
-26.345144 2.650064 -0.022636 
-19.204643 1.049605 3.567358 
5.552008 28.218939 5.955756 
14.591938 29.707430 7.441367 
-8.741800 32.313343 3.862150 
16.798321 24.052601 2.662507 
-21.323307 8.399212 -1.104460 
-26.700657 -0.319814 -1.737619 
-14.834291 19.668659 -4.980707 
