-12.555102 18.202499 2.479023 
20.463905 -13.132053 6.914169 
20.374149 17.477928 0.899327 
-0.528859 26.883347 12.059342 
-22.619015 -3.450132 5.066589 
-26.919592 -17.405708 17.717052 
14.657907 23.527472 -0.162320 
10.641014 27.622807 12.317345 
17.116011 21.293203 19.777880 
-29.639307 -13.215611 15.350367 
28.277409 -8.817361 11.034424 
12.132739 26.789345 3.487781 
3.779088 31.135332 8.048934 
-16.634867 9.012569 10.411282 
18.022135 21.627462 13.019146 
-21.973860 1.987382 0.689512 
24.818779 0.840230 4.212880 
-15.864931 8.518584 6.105254 
12.918474 12.307157 10.974364 
-17.450928 23.892229 13.643805 
27.076651 -14.495713 13.170110 
20.319872 -6.188033 6.648417 
-2.095459 29.911768 -2.090257 
-0.962759 27.701790 11.002271 
17.139820 7.087828 5.461851 
-13.380640 23.414875 9.437844 
-5.983314 27.626842 -0.035791 
-16.982752 1.337390 13.242915 
-21.107040 9.159309 10.014653 
-9.994863 29.066446 1.068509 
-18.988129 -7.381256 13.093188 
-26.570827 4.967376 2.195642 
18.032722 18.296415 7.648732 
-5.527249 29.918325 -0.708117 
26.644051 -0.039860 19.898512 
25.633339 4.262226 5.919288 
4.946146 30.179325 15.264968 
11.477792 13.725062 15.425797 
-22.598978 -16.425411 19.238745 
19.490776 -3.151905 0.705751 
-17.196321 16.868505 0.258694 
24.385273 7.737266 -0.360851 
20.358660 10.172405 1.089659 
18.800169 -0.158803 13.790230 
-28.349386 -10.746593 -1.336540 
27.925196 -6.509962 6.395549 
28.478775 -10.796789 -1.376001 
10.175183 27.868067 1.646603 
16.179276 15.421119 0.510440 
-24.688026 7.354368 1.417724 
-17.376226 20.013306 1.323382 
-3.006309 31.214817 12.621874 
26.014639 4.531048 2.714391 
22.793886 -4.120716 8.638257 
19.216614 -10.627409 6.882415 
20.544271 -5.441669 6.896466 
-27.779852 -1.459704 11.508530 
-12.633470 26.296177 19.769884 
-12.703025 16.507353 1.203598 
-18.960436 17.667595 -2.260562 
-9.862517 20.867220 2.550253 
17.730049 18.257671 10.788468 
22.610579 12.742610 16.750471 
-18.901337 -12.207947 5.161787 
15.120689 0.217740 16.257263 
5.871210 21.165689 15.711130 
-15.103452 5.895859 2.169066 
24.008173 -6.181176 4.406682 
-18.193363 -10.262504 4.526462 
15.680970 21.360504 4.391997 
20.172155 13.253204 2.948919 
19.453440 -10.979424 14.346818 
13.044936 26.490599 6.165880 
16.630110 22.844345 -2.287912 
-2.568820 30.416548 -0.595513 
-20.304426 15.215298 -2.162942 
24.626677 -1.819808 15.227966 
7.579597 28.744507 16.541262 
3.546367 31.096327 12.751659 
-21.280849 -13.208373 3.637722 
-13.905572 12.388681 9.844311 
-8.872713 28.213039 14.739792 
-18.270319 -5.108597 7.124214 
26.538378 3.081739 -0.084838 
25.316526 -14.074831 7.378531 
2.207393 27.337494 16.951410 
14.820813 8.875206 5.860340 
-18.639549 19.084160 2.759535 
17.027006 22.447556 17.788862 
-26.076427 -4.377189 7.844563 
16.821064 -4.817531 10.777696 
-20.726521 9.297765 7.856476 
-15.564322 6.230899 3.206650 
-18.202650 -6.716405 4.379538 
25.101768 1.054195 1.428632 
-24.528179 -13.714160 17.578243 
19.507694 -8.510097 11.545149 
-10.895505 15.660558 -1.583453 
1.308700 28.141287 3.959999 
-17.243914 4.573652 11.425935 
-9.210915 29.408421 7.126561 
-8.213708 26.287066 16.028440 
-4.277182 26.968967 4.490229 
-26.744419 -6.156916 8.288051 
22.093065 15.020676 13.070347 
-9.916263 21.749681 4.404753 
17.902586 11.227705 11.568144 
24.258547 6.944571 20.113945 
11.804060 14.082816 -3.213923 
20.535841 -5.943077 3.279651 
-25.298100 1.676483 8.261256 
11.988894 24.827354 9.570320 
-17.692753 -2.920481 5.071760 
19.738075 7.971903 8.861643 
-20.111893 -12.800258 13.417459 
7.872375 20.561302 -0.069490 
18.865940 15.515957 5.070334 
-21.722301 10.081813 5.178051 
-28.275650 0.590183 17.330717 
-20.529318 2.319843 9.408122 
-16.874041 -2.923627 11.922681 
-11.646990 20.997932 0.423935 
2.957872 29.802229 18.725845 
-18.742489 18.415592 2.333172 
-26.904099 2.189605 -1.662474 
-9.770162 24.275379 15.786314 
23.692064 -13.984473 3.632578 
-17.204496 -5.328261 12.729121 
27.017466 -1.704170 -3.384709 
9.654393 22.075064 13.923027 
-6.395149 24.824043 15.740123 
-21.360386 10.482134 1.356286 
-20.851671 -1.814646 1.371297 
15.351286 25.699366 1.197504 
-8.865993 26.249910 4.331129 
-23.701485 9.362935 10.110643 
22.243633 11.171427 4.723550 
-13.240429 27.198189 7.750168 
18.772827 -4.321170 4.703331 
-18.089655 14.522668 4.383752 
-13.623734 16.868464 12.397860 
6.914049 20.086849 -3.178972 
2.515970 27.227192 5.542110 
-29.057953 -3.060671 18.510845 
25.332956 1.800860 8.011018 
-17.291647 -4.831336 -1.833757 
-4.312760 25.487391 3.386449 
27.053896 0.706560 -0.545333 
-16.775341 10.106853 14.060804 
20.488670 -2.310452 -0.207197 
18.865053 -2.367451 6.578172 
26.503426 -1.862265 14.992257 
-27.506866 -12.618830 5.237742 
5.878582 26.334221 11.464622 
7.203122 28.213007 10.026271 
11.288541 25.856762 0.803758 
0.251720 28.825764 5.682836 
20.538511 -7.496642 0.775091 
-4.081700 30.670088 16.992785 
13.575093 25.861221 0.013886 
-16.603571 24.731066 15.266302 
12.451759 10.323247 14.984152 
23.088327 10.381850 3.144757 
17.439627 13.728603 4.327883 
16.120003 24.449617 1.647746 
0.648510 31.192009 7.612340 
-10.929860 26.209620 3.072303 
22.329382 5.433877 8.382195 
-26.085577 8.132357 13.440835 
18.446434 -9.197081 5.535105 
6.921997 27.108843 12.168853 
-15.065053 4.482514 -2.108142 
-12.803447 12.246574 1.539105 
-11.871743 26.907080 0.696306 
-8.005488 26.587955 7.561495 
-18.248030 3.024301 12.603971 
-26.769764 6.355761 15.680652 
-14.046943 25.179012 -1.913041 
26.737694 -15.746167 12.124658 
-11.901680 19.468700 5.894174 
-12.283079 16.514694 13.661115 
-17.345057 6.983138 10.574360 
19.706242 -5.249717 13.875147 
27.078178 -4.866915 11.439361 
-7.164514 28.719538 15.266613 
-19.332500 13.558065 4.965190 
-13.733292 18.083549 0.554519 
-22.397188 -13.710307 4.618128 
-22.461809 11.559147 1.244081 
-14.451516 8.338543 3.414947 
21.841515 15.740154 10.709221 
14.985158 8.741640 1.887989 
5.219841 22.421225 14.139704 
-17.178999 21.354280 -1.336748 
6.130029 26.774376 3.659327 
25.950480 4.126690 5.170361 
-16.185429 4.417018 13.333513 
-19.520212 -12.814086 8.238699 
20.706217 -9.084231 9.245882 
23.539171 0.392877 8.742625 
16.803686 21.870640 -3.548434 
-10.176195 20.488827 14.260861 
20.962830 4.293007 8.423611 
20.913321 12.661664 6.390164 
7.530608 23.793159 4.354967 
23.209892 -14.049798 16.182760 
-23.224998 -8.011587 16.859722 
19.372726 -0.884825 -0.769649 
-1.593521 28.934027 8.274381 
7.761108 27.290966 2.594295 
-12.038223 23.317884 12.326753 
14.713787 19.845604 1.453397 
-16.783718 10.791939 6.789774 
15.232443 10.250830 6.636429 
29.138725 -6.987447 3.074873 
-17.322126 13.076119 11.889146 
15.465375 12.295856 7.032782 
-18.041412 -10.555192 7.802561 
-6.532434 28.201458 -0.218545 
20.347397 -12.354003 6.914720 
27.005472 -7.469260 13.388640 
14.999031 21.340509 7.860785 
22.095568 13.811925 14.829770 
16.388475 14.543736 2.992347 
17.257397 6.756199 3.723538 
11.813498 26.187181 14.625464 
-22.944307 -12.419935 9.265197 
25.530787 -9.000545 9.192512 
18.618587 -8.695498 -2.103051 
-17.079710 -4.856269 0.281557 
-8.595033 24.619604 3.504271 
-4.740150 27.624214 9.465263 
-15.734985 17.504488 10.085946 
-20.362186 18.981789 14.559215 
-21.245253 -0.390344 0.938461 
-13.376368 20.265263 3.874899 
26.079664 -13.878243 0.925080 
22.216324 12.141105 -2.314553 
20.427090 3.236316 9.275460 
-21.397840 11.373554 1.494530 
-26.534725 -4.026680 15.401956 
-9.753838 26.321421 8.160017 
-3.106526 30.627333 0.339635 
19.298847 15.220253 14.307573 
5.746408 25.906763 3.561918 
-11.045771 24.348406 2.447289 
27.804668 -10.107188 17.924591 
26.954617 -4.136648 12.785411 
-22.909857 -14.031222 16.868320 
18.122427 9.188903 0.515958 
15.248866 -2.135356 15.662052 
23.402010 2.716488 0.454158 
20.161026 2.835354 10.469110 
-15.196463 2.661767 5.718857 
-24.514565 -0.454029 8.578096 
-22.494059 -6.560729 9.636827 
15.520555 0.554731 13.596087 
-18.222624 15.629958 5.894287 
20.722359 6.370416 3.889274 
-14.132834 23.366730 12.050781 
24.213017 7.833953 9.329627 
15.419455 23.940271 10.594368 
-10.899618 27.335150 13.481359 
6.512950 27.641537 3.735872 
-14.180560 16.732449 11.496257 
-17.481323 -2.456152 4.294165 
-26.589985 -13.631598 4.586865 
12.559097 23.280397 9.492293 
-19.645903 1.151405 0.506443 
-21.267214 2.193462 11.530725 
24.846857 -13.844266 5.772769 
-24.158325 2.827871 9.857537 
21.140940 14.610529 20.348995 
22.744715 10.201029 -3.497033 
-16.250162 22.631578 14.197531 
-23.105747 8.463573 13.844520 
-24.398769 12.541065 14.668630 
-13.868797 26.461077 2.241896 
14.238132 15.260076 13.518066 
-18.842888 -0.216581 3.079321 
-16.771099 -3.864108 16.620279 
-27.080877 -11.386728 8.080979 
-12.740534 15.839958 13.302898 
7.607857 26.710480 0.263487 
14.878326 18.483641 12.754141 
22.451181 2.355320 8.694803 
16.212749 6.465405 13.428104 
21.745079 -11.108863 15.684427 
27.090065 -5.205144 9.624751 
2.320759 26.864916 13.703316 
-27.304228 2.406332 0.371760 
23.033836 10.317530 -2.072966 
17.115381 7.968194 6.685866 
21.329729 5.270638 0.208245 
-19.983038 18.029316 11.754196 
-20.535130 20.628025 12.938937 
17.152344 17.887217 13.008286 
13.570436 27.051298 3.426015 
25.340836 1.850578 1.619644 
-18.179098 -9.330126 4.193657 
4.250894 29.029369 9.882169 
27.727999 -5.527574 18.535126 
-0.257060 27.634394 1.307741 
-14.297218 20.305708 3.109293 
-22.487734 -2.306588 9.605246 
-16.096722 13.010757 14.337407 
26.934177 -8.270026 2.579483 
-26.799686 -2.652873 15.310072 
21.022507 -1.281065 7.399362 
11.912747 22.876028 11.827049 
19.377279 16.976219 14.076758 
9.007014 26.670643 14.860740 
-15.951174 9.944930 8.158689 
12.137823 26.480492 16.060184 
15.029120 0.897250 17.958311 
15.792798 6.907083 9.764679 
17.064304 14.138587 7.330894 
-24.029396 4.588959 1.554027 
17.996531 13.777024 7.341457 
24.558920 -3.738133 8.038716 
2.132081 27.744598 9.305155 
27.754728 -5.562339 16.417217 
-30.969135 -13.023140 19.323397 
-13.323442 10.837376 16.098745 
-18.044754 -8.713287 16.691555 
21.504604 5.298775 3.193102 
-23.259249 0.498685 1.239964 
-17.677914 -7.595191 15.842549 
-14.187663 10.526833 2.880695 
8.201168 28.043333 8.375308 
-24.927540 6.747969 4.199404 
0.425538 27.987076 12.876550 
11.386000 15.115107 14.381720 
22.419504 -17.805933 19.321547 
27.492867 -7.563919 14.769104 
-22.601664 -2.922126 5.836399 
11.933462 13.648222 13.657482 
-2.321502 31.239101 11.372872 
-5.309058 28.500341 6.840333 
-20.382767 -14.082323 2.961256 
23.383047 -0.701508 0.535746 
9.333779 18.143059 -2.066691 
17.560266 -12.470320 19.477575 
-25.402967 -7.169175 16.942068 
-15.960291 18.563257 15.994044 
21.453945 -12.136579 6.834031 
-24.203669 -12.518480 3.161591 
-16.534739 24.049456 11.903693 
-4.137484 23.664286 12.845780 
-17.619856 -3.821284 3.308104 
14.871441 17.858870 8.650977 
15.887653 4.650490 0.512482 
15.909834 3.215284 -3.118269 
1.754557 30.366488 6.072081 
25.303907 4.804151 -2.015189 
-22.331980 -8.920896 10.674627 
-23.338110 2.645799 9.787181 
9.643905 25.554855 16.857674 
-9.514910 21.462648 14.065088 
-28.010328 1.421819 17.128288 
20.241652 -12.245359 -1.964976 
27.374397 0.524419 2.482562 
27.656179 -1.569754 1.392070 
-18.653242 -9.810914 -1.681327 
17.189711 0.304945 10.754154 
25.518312 -1.075707 8.988285 
-17.139870 -3.854035 1.939536 
-16.442417 0.603557 2.560782 
2.455742 30.268702 0.640840 
20.124022 -3.510406 14.481146 
-17.676067 21.178104 16.145950 
-13.036570 18.972256 11.649857 
25.408386 -17.224659 15.548755 
18.457640 10.477888 13.392493 
12.490842 14.914071 2.081964 
16.786108 21.457640 3.616038 
17.356030 13.500074 3.540935 
18.477972 -5.845846 4.412646 
-15.387104 25.723097 15.324389 
-11.939755 27.630989 15.566809 
-5.977291 22.212120 -0.762084 
10.305210 23.204386 16.111023 
26.456215 -3.133306 8.180190 
-24.057659 -1.422013 2.142003 
-17.185461 23.594845 9.673926 
6.623770 26.354578 13.653418 
-19.534349 13.484434 7.237290 
-25.781706 -12.096743 3.733505 
-28.088789 -1.120561 -0.053012 
27.795694 -8.708237 16.058432 
18.755219 -10.255318 3.093423 
-16.972151 -3.834410 -0.782102 
17.483543 18.826971 14.458183 
-19.073471 6.935686 10.453543 
-9.507771 21.741318 3.668730 
-18.375601 -9.867333 15.583309 
-13.118900 13.775697 6.399050 
-18.158232 5.381642 7.163043 
-24.196571 7.678245 -1.870899 
-19.330408 20.670496 8.231750 
6.374684 23.822973 13.967875 
-22.838310 11.563798 7.745688 
-9.380779 22.110743 1.556856 
-28.096876 -9.989400 10.182384 
13.895522 24.761898 -3.513072 
-18.972057 22.137903 10.035156 
24.213299 7.591094 -1.805149 
-24.836407 8.563766 11.671591 
14.520478 15.955769 7.322449 
16.478159 15.132601 15.950158 
-9.013875 20.429789 1.358036 
-17.007610 -0.110993 7.794430 
-19.195509 -3.740194 14.939780 
-16.616165 0.912863 19.807051 
-11.893311 24.020763 11.035501 
-18.028154 -11.339367 5.786066 
22.001947 -15.322011 9.801515 
-19.164164 12.341409 3.515228 
-1.418574 30.544016 3.760702 
-13.166764 18.198402 11.817813 
17.583338 17.753010 0.568483 
23.673357 5.368238 7.871567 
11.648309 20.380190 2.608871 
11.526032 21.627302 15.017432 
-28.021860 0.276886 19.754719 
-15.804920 4.960787 14.683873 
22.015821 14.730518 9.330194 
-18.573124 14.426797 8.833977 
-15.386143 16.295315 10.690625 
16.432066 -2.993929 9.572973 
8.668125 24.001822 8.166168 
26.568119 -16.087248 18.140005 
21.696381 -7.671087 7.208100 
-26.430990 -7.138565 16.546810 
-14.015291 14.597799 3.222533 
24.028770 -18.036247 13.445485 
11.771787 12.824818 13.874684 
20.588566 -18.094368 15.952810 
-29.790211 -11.503325 15.561672 
-11.532304 22.942244 7.150108 
-26.091982 1.942409 12.382210 
-14.091230 12.456442 11.775407 
23.098106 -3.887099 7.488379 
23.657284 6.487547 13.145820 
21.090836 -12.986644 7.353417 
17.977285 -12.615469 13.210962 
8.751693 27.119469 5.254011 
24.896950 -7.496399 14.046271 
-16.494432 15.765266 13.454214 
-28.974649 -6.929314 3.197842 
28.910156 -7.335122 -0.229166 
22.789087 -13.392543 5.724393 
-19.869186 9.028985 8.287770 
-19.472101 -7.355650 8.321627 
6.692816 28.095869 12.583317 
22.093237 7.343393 12.626512 
-24.310797 9.377803 8.961206 
-28.056267 -7.567412 11.136919 
13.586336 21.188406 3.479276 
16.902864 -5.596748 12.085121 
-22.397444 5.152339 12.202600 
-19.281179 -3.187943 12.770150 
-19.280403 13.972073 14.690910 
19.576574 18.075176 3.181313 
-20.714697 19.825542 15.125781 
14.852290 17.164497 9.113379 
-22.954189 -13.947747 5.668897 
27.494194 -12.622748 4.586636 
18.068920 17.670359 12.334325 
24.802967 2.209032 8.493827 
-15.227889 16.054817 11.473000 
-10.801184 25.895329 13.244247 
21.079182 -3.046074 0.206052 
-23.113876 -14.093616 16.046701 
14.105132 10.895992 5.504433 
-0.276027 30.891479 2.173916 
-19.795382 12.930175 2.918241 
1.639145 24.242456 12.891341 
-19.867533 17.652832 10.977732 
-0.773099 23.500765 -0.670419 
24.535383 -15.515199 14.074903 
18.612131 20.821348 2.917504 
22.002846 15.061888 10.203184 
-18.419424 19.174793 -1.443061 
-4.835427 26.878605 11.033606 
16.296652 11.271726 8.065144 
-16.253912 13.583801 4.426512 
-20.151787 9.392406 12.555981 
-8.643869 26.645376 3.010672 
17.177139 -5.651009 10.943782 
28.433149 -4.855359 0.051370 
-24.935469 1.452988 4.428392 
26.551523 -13.331901 10.724064 
-2.823116 27.314100 7.634944 
-24.896189 6.835593 14.127054 
13.793936 17.935591 12.026570 
-16.802258 2.765929 12.459977 
18.496380 -13.131910 9.610178 
-27.307405 0.807517 9.229918 
11.701558 24.633368 14.747830 
-6.644865 20.068819 20.444397 
-19.130659 -7.428814 9.236936 
-20.407001 -12.665204 3.368747 
-15.945323 19.195389 12.987284 
-16.927940 -2.262616 7.351288 
12.183329 26.008152 -3.482469 
12.248260 16.960876 14.646307 
-11.923874 27.502270 12.983300 
-23.513227 -16.816990 14.512716 
12.330292 24.470484 13.154409 
-17.088310 7.608332 3.991515 
28.823599 -5.746861 2.262609 
7.107156 23.917072 11.689969 
-29.270060 -3.934187 17.411066 
-24.775072 -14.238606 0.484645 
14.689870 7.696989 -0.467960 
-15.102557 3.610728 7.177507 
-22.838850 13.407382 7.782984 
-29.460274 -4.860743 18.391769 
-13.178026 14.199105 2.455688 
3.278858 24.884623 11.918070 
-24.905315 -10.351140 10.102819 
-1.833188 27.326216 9.753987 
-8.117393 28.880377 -2.045009 
-19.227200 -11.453626 8.999740 
20.484783 1.172375 14.133512 
20.002632 16.378757 3.455048 
-28.607292 -5.821974 0.016398 
23.854172 -13.168723 6.686121 
-11.872129 18.545929 13.258041 
28.438313 -6.184258 -1.590564 
23.212477 10.690270 18.734503 
17.676399 19.303133 3.225842 
-11.822760 16.696367 3.556539 
16.028982 -3.044654 19.773062 
-25.680643 -17.668362 19.190536 
19.646349 18.391947 4.482230 
-13.421803 18.306662 7.687559 
6.361815 26.491545 8.906323 
22.116594 5.789543 14.495035 
-13.392860 19.105099 8.025741 
-26.668083 6.231192 18.674616 
-13.475272 20.239775 6.959838 
-15.981894 1.312637 3.209206 
-10.368981 28.091898 -1.749384 
-0.306403 25.501318 14.677943 
-11.928439 26.692389 19.699512 
-17.129993 -3.804393 -1.861202 
15.283738 -3.048531 14.923370 
12.009343 22.003983 11.662059 
-20.097927 1.412473 9.392277 
-14.071134 8.489869 5.382425 
-9.595421 25.387646 14.213715 
27.907160 -11.532506 6.971212 
23.103289 -7.066012 11.396418 
4.384897 29.474482 2.279082 
7.354359 26.759771 12.772457 
12.046147 23.220602 -0.627599 
18.585701 15.656608 3.715843 
16.039167 14.081372 12.566442 
26.110106 -7.424276 10.882334 
14.185092 4.947644 15.147839 
12.861060 24.131470 9.457887 
-21.900669 9.934176 4.408204 
-19.244633 16.890057 9.604172 
11.648433 22.026812 10.391503 
-15.901882 23.496075 10.487383 
26.675541 1.629369 14.426466 
18.512253 19.071606 20.483488 
-2.324500 30.874762 15.789153 
-15.945701 20.723640 9.032962 
6.032296 29.432531 -0.785718 
-24.842724 -0.136577 5.016175 
-17.229155 21.777716 7.142983 
-16.736881 -2.860802 0.813339 
9.795092 26.371361 7.591717 
-21.412193 8.313386 13.776357 
20.488321 -12.184954 1.641893 
-13.862676 23.185497 11.263396 
-28.287079 -12.129705 18.715584 
-22.119839 1.903397 8.732025 
12.854883 25.131096 19.546654 
27.109613 1.897325 1.215956 
-14.753315 23.571083 7.397878 
-8.111092 27.819098 20.686779 
-18.539797 15.305746 13.311531 
7.658607 19.147287 17.062124 
-19.651096 -11.000521 14.812078 
20.385817 -17.075344 10.129205 
2.905106 22.670975 -1.745765 
-29.429466 -4.843247 17.318720 
27.618681 -6.644423 15.487940 
20.438366 -18.206392 14.641666 
18.966690 18.260712 10.364501 
-24.333044 -6.214042 12.649273 
26.287762 -0.251625 5.128769 
3.800450 22.917107 0.405452 
16.969635 14.975743 4.469777 
-22.705763 -1.309989 15.600082 
9.635974 27.713430 17.044384 
23.371622 -5.877666 1.205622 
-14.512158 8.321176 16.708263 
8.624549 21.908312 13.921389 
4.913737 24.014990 3.432158 
17.812706 -0.815162 7.558911 
5.429646 29.348482 17.877764 
8.248949 28.552919 2.449456 
24.900681 -8.544404 9.025558 
14.793876 15.615867 13.971475 
13.533931 13.911213 5.861418 
-13.009058 18.224953 3.182176 
-22.594843 8.972937 12.303802 
-25.808834 6.091896 12.739387 
25.861063 -14.775984 15.817910 
-23.393581 -14.444649 0.328433 
10.985403 25.521832 0.156161 
-12.116577 14.887403 3.499416 
-14.120502 21.600317 1.390849 
26.196539 4.175383 0.091631 
-18.323795 -8.162218 3.630333 
21.775063 -2.802862 15.014457 
-23.454599 -11.595938 18.294170 
-9.757120 27.756584 19.564974 
-27.942165 -9.583077 18.288723 
-20.424883 1.564174 7.653964 
24.651442 -5.670941 12.241032 
16.765617 -8.311879 19.607603 
15.375533 14.605073 2.257519 
18.719326 -9.041434 11.627774 
19.739815 -9.293975 13.841111 
-22.849825 14.995975 13.239583 
19.399828 8.684131 7.676851 
14.265475 5.016433 14.236334 
7.996254 24.366152 16.543314 
23.585636 10.085170 17.505007 
5.387295 26.593048 8.338306 
-21.525137 -3.155083 5.526165 
24.402435 7.988543 16.933901 
-13.267983 25.598955 20.601648 
-16.351887 2.484390 19.857779 
-23.353924 -5.054758 10.107816 
13.977193 15.719402 11.557835 
-29.542173 -9.260618 16.679976 
26.276289 2.994910 -1.095524 
-13.023595 18.680164 7.099279 
25.259136 -4.552908 14.836710 
0.676743 28.390434 1.254680 
16.132364 18.024073 9.682171 
-27.852493 -10.506790 6.852624 
27.314932 -4.646874 10.506576 
19.975567 -7.929942 1.256765 
-13.257000 10.929208 15.055906 
-27.911119 -2.455303 11.569893 
18.565741 10.891115 10.862741 
22.829231 3.756593 10.168129 
16.962366 -1.278894 1.387569 
-3.773849 23.702881 0.512415 
-16.525038 0.161620 18.047228 
-16.883865 -0.657838 19.756340 
-19.489031 22.118084 11.346611 
7.432345 23.062307 3.284127 
15.117345 22.585182 15.476125 
23.761150 -0.138556 15.074461 
14.614633 21.216406 3.288756 
-24.271399 -8.709121 17.647646 
-19.708071 3.478404 7.535720 
14.531010 24.370022 12.398278 
20.005203 18.174654 16.192680 
-6.041042 28.899927 9.072356 
22.818048 5.953840 7.980140 
5.782793 24.607765 6.061259 
-17.157160 -1.558020 11.706606 
-26.208376 -9.749646 9.863858 
-24.485588 11.819686 14.129142 
26.867788 -11.324699 8.349866 
2.841702 31.317410 13.200292 
-26.901764 -9.584420 9.297657 
11.992987 21.614285 9.656770 
-18.037319 7.724324 7.446593 
-18.443771 3.591144 0.529596 
-17.384212 -6.319813 17.093107 
-14.764663 24.862141 4.969876 
13.284397 11.607547 13.862083 
-4.451777 29.411455 7.512405 
18.477545 20.102287 18.573217 
8.526690 25.861622 14.129928 
0.220850 29.520784 19.763525 
22.866116 -6.205027 14.277994 
12.354807 25.777708 18.654455 
-24.900463 -13.820550 16.146441 
28.301519 -9.299972 6.377702 
25.815643 2.698980 2.089899 
-16.237568 2.640207 14.628587 
19.251759 -11.782920 2.986896 
-22.621836 6.369188 1.545092 
28.123507 -3.641382 1.573110 
-25.456697 -7.352708 12.321582 
24.892868 -7.506853 9.270737 
-13.118402 11.761747 14.727651 
-17.047495 20.091600 16.276005 
27.102306 -13.259510 14.440123 
18.465607 8.900460 3.306119 
-24.312721 -10.424338 6.058038 
-18.532665 1.238208 2.621199 
27.331478 -2.827649 -3.371122 
-2.369951 28.947699 20.738834 
-13.267894 17.338316 7.562212 
-18.789484 18.437767 -1.474262 
18.733334 8.254131 3.766011 
-29.616419 -10.145787 10.428014 
-10.746029 28.955200 5.227631 
-22.671783 -15.089360 5.474190 
-16.826378 22.173515 -0.425410 
-16.546875 -1.795685 -1.040697 
-15.407675 15.953449 -0.287274 
-16.077845 19.035885 9.354733 
-24.336716 -14.825554 3.362333 
17.809692 -6.503908 10.173369 
-18.627390 19.446993 16.161524 
-27.088724 4.654554 16.030298 
9.789491 24.514902 16.744257 
19.401943 -4.356966 3.970688 
21.610052 16.238531 11.614653 
6.733465 24.067719 4.806706 
-20.155285 -8.088978 4.018721 
18.512367 20.099119 -2.350391 
0.154519 27.756699 8.097033 
-29.358269 -13.532662 12.894878 
-23.999516 -10.439887 13.126049 
-18.675146 16.453495 4.778939 
25.864258 -9.377617 15.640384 
25.638397 -5.649677 5.231163 
14.477502 9.104618 4.201446 
25.259638 -4.296351 6.601389 
-20.441525 -1.626364 15.212995 
-22.284712 15.459187 11.056118 
-21.470007 -2.634193 12.869339 
-20.339235 -2.904436 7.897616 
-18.726637 17.651918 1.943145 
5.304851 30.029800 15.990996 
-11.604973 17.597095 3.850284 
5.425785 25.952396 13.360715 
-16.782246 6.029572 4.492655 
-14.762214 24.721737 20.569542 
-21.047100 -12.924592 11.243844 
27.850388 -2.613014 1.491900 
15.948195 7.333883 2.618312 
-8.090382 30.621399 12.951788 
20.220369 7.895115 11.980651 
-17.776501 4.670097 7.774139 
14.313378 10.332115 1.700461 
5.045365 22.559841 1.304430 
-14.285298 25.577206 4.713346 
1.191532 27.521120 6.557756 
-25.439354 -13.308890 7.003573 
22.092381 0.021590 14.874836 
2.426282 23.616463 0.897996 
27.199619 -12.378514 5.348181 
17.640759 7.043440 4.835700 
11.052188 26.086626 7.038700 
9.492458 28.214901 -0.334439 
-25.248531 -14.076669 13.413388 
-22.149761 -2.978904 15.785333 
-28.993673 -8.305658 3.165086 
-27.006239 -8.068748 13.107902 
-6.550176 29.976725 16.393625 
15.129174 22.817289 20.593103 
-29.621151 -11.263220 16.657145 
-9.160456 24.286306 5.588420 
16.466293 12.840590 12.671480 
14.345929 15.494324 0.209961 
-13.595022 9.748828 1.655618 
21.064449 16.014290 14.448385 
-8.480174 27.224813 12.663885 
25.910116 -11.869093 10.307081 
17.423517 -2.938012 -2.203562 
24.412958 -1.041061 8.066676 
11.162066 22.935055 12.107371 
-1.741861 27.787567 10.692585 
24.030111 -11.419393 1.187437 
-8.872521 29.241566 16.199671 
19.116308 -15.382728 8.877588 
17.434988 -15.001770 12.059269 
9.708648 27.540644 14.953197 
16.275984 -8.452157 14.756061 
13.677795 6.639462 18.265844 
18.229956 16.209311 4.155862 
5.669797 24.526962 9.089472 
28.557447 -11.162429 3.046633 
16.143049 -2.103792 10.073255 
-17.335705 19.681477 13.962161 
-24.976158 6.903602 2.544129 
-2.428710 25.955837 1.000337 
-21.555111 -12.474499 10.614561 
24.945536 6.204914 17.530962 
-15.912194 22.345034 12.355186 
21.937864 -6.575706 7.601408 
5.199610 30.533646 7.356161 
17.049456 2.680897 0.308888 
19.968084 -17.079205 19.337763 
-26.373272 4.401159 5.046157 
-11.682649 15.170029 18.653065 
-20.678024 19.890379 18.556595 
19.561716 -10.678226 1.943232 
18.974518 8.310377 1.511639 
1.345021 31.247166 7.956065 
-17.561636 14.782515 8.607166 
-18.299017 0.205139 13.575265 
11.850178 20.580809 1.158383 
19.677889 17.474930 12.791732 
-23.574314 8.767688 7.563706 
-6.860264 25.588230 12.164397 
-8.941345 27.230196 14.086400 
-26.520174 -11.941483 14.688019 
7.979602 24.021057 5.065334 
20.537428 -3.742114 6.752274 
12.860786 13.822727 10.309925 
-7.701483 24.393963 3.034389 
-22.650366 -3.246717 6.601574 
15.994687 4.236927 12.702806 
1.710540 21.486719 20.513014 
23.833750 7.421810 -3.473878 
8.244498 25.938599 9.105659 
21.148350 15.577992 18.576662 
-0.778206 29.026279 14.374269 
19.887083 17.627110 13.562173 
-29.465836 -14.417697 15.755659 
-16.903540 14.384459 4.010811 
-3.762458 29.250414 3.723044 
-15.166752 3.141269 5.002246 
19.189695 11.129472 3.454326 
6.338806 21.686308 0.374793 
10.129692 22.474524 12.820380 
-28.683451 -12.653893 12.726160 
17.130781 -6.816556 11.284030 
15.587657 -0.697769 19.846466 
-16.685244 10.316816 11.452965 
15.954580 -6.402436 15.061275 
-24.156248 -14.974541 4.422875 
21.809641 -18.432808 14.712570 
22.251707 -13.281289 1.518877 
-24.398893 10.449002 12.698728 
21.215063 -2.930038 3.547537 
-3.072622 31.449322 11.159606 
20.133108 12.764499 7.523703 
23.246117 2.469120 8.807393 
8.257054 23.751677 12.881895 
-23.159046 12.350032 8.533388 
11.454828 15.305200 -0.774351 
-9.162208 23.180990 4.739970 
-27.539885 -7.183413 4.359157 
9.723738 20.187157 12.945473 
11.743558 23.916788 8.236340 
23.851671 1.829532 8.868849 
-2.495231 27.979797 9.672245 
-16.192537 22.283134 15.192412 
6.256787 27.519646 12.183679 
12.471731 17.569923 3.211946 
18.287659 10.259378 10.326478 
8.133487 27.630764 7.487351 
-11.760614 24.412258 13.305228 
-14.056174 24.049574 2.116529 
-23.844969 4.545636 12.423006 
17.611813 -2.917775 7.731177 
-18.084158 -10.090147 1.831881 
22.807148 -3.132824 12.698151 
-17.515598 6.498739 4.849244 
-25.874521 -12.124882 9.280818 
-25.840927 2.335816 9.150062 
26.522160 -12.365965 10.519158 
15.346712 11.662239 7.842673 
-19.649742 -1.185047 1.047235 
14.755736 21.919315 1.748367 
-10.359715 19.622055 2.323164 
-28.796251 -2.092212 14.266455 
-2.412314 29.553228 19.673763 
18.471634 8.597432 8.144738 
-13.571619 21.180710 0.698350 
27.336721 -11.628467 3.613712 
-12.344784 27.278198 7.917985 
1.332250 30.615374 3.984545 
-17.450239 -5.858826 -1.806402 
6.387921 23.521715 15.144624 
-16.481791 0.247024 16.544353 
25.160873 -6.254130 8.961636 
-16.089771 17.521093 2.741155 
26.796137 -15.411487 15.323601 
25.100044 -9.752795 9.668157 
23.130335 -2.843905 1.000413 
23.419779 0.340171 0.413652 
2.001887 29.279354 19.935862 
-19.395248 4.549170 0.612814 
5.547697 27.483034 15.498940 
-15.585414 22.407331 9.166554 
-21.574091 14.394654 14.368928 
-10.491065 27.440191 19.552898 
20.874317 16.869774 11.648463 
-17.923639 -6.044738 7.354283 
16.115944 14.886203 1.902095 
-10.895347 26.385345 0.672826 
-18.760178 21.454720 20.454376 
-13.450282 13.503906 13.102673 
14.800252 19.003464 3.109077 
27.276754 -11.508532 15.616358 
12.610791 18.670549 4.219429 
25.826082 2.572667 19.979303 
-11.845244 19.413582 3.312679 
-22.486347 13.670994 14.037395 
-27.500141 -5.092029 12.833044 
25.703075 -16.912596 17.877539 
14.662006 9.867387 3.383201 
18.006441 12.485643 9.235789 
12.611564 24.807144 20.649307 
-30.333199 -12.430019 15.885005 
26.902115 3.195324 3.770833 
-18.379875 10.292422 14.324926 
24.031292 8.694542 0.845516 
-13.794546 26.205975 -0.632750 
11.463421 25.949474 19.714773 
23.179169 -9.734180 3.304607 
10.278806 23.294641 3.197546 
-10.393529 25.216076 12.309242 
-27.807354 -12.191882 1.896765 
-20.129818 -9.501730 15.678864 
-19.027878 18.835188 7.984134 
-8.962091 18.559214 -2.614524 
-22.884239 12.534523 7.677895 
15.375693 -2.194185 16.890360 
-25.984947 5.646245 1.070207 
-16.663910 -3.869955 15.801592 
-3.277281 23.353334 -0.528259 
-19.053596 17.978626 13.196061 
19.233606 -9.810652 -2.950120 
14.169034 11.901890 6.203804 
5.710894 26.949137 14.581373 
27.875500 -11.749327 4.359772 
25.695484 3.825352 14.776088 
-10.191895 26.542749 5.118543 
21.742172 15.477654 8.468736 
-20.659767 0.579634 7.962219 
2.447828 30.520584 16.062000 
18.042110 2.730113 11.639044 
-19.815079 11.953612 0.635552 
5.363487 25.039604 3.485372 
23.690979 1.228016 0.517083 
9.500050 23.711483 5.276757 
-18.776217 0.715220 7.834946 
22.168207 -18.095707 17.523050 
22.279705 12.957914 13.955795 
-1.559174 30.065166 18.610777 
-21.967188 -14.040966 6.333987 
13.802511 14.337577 6.485254 
27.901779 -9.882916 16.564035 
-3.401884 28.939140 13.727995 
-23.080158 9.230712 11.152776 
-28.963179 -8.315818 2.201144 
4.773151 21.908943 -1.300444 
-18.623043 2.957570 9.376129 
19.799143 8.546869 1.375875 
19.655369 -2.178714 6.418394 
15.045316 3.408126 4.697417 
17.861937 -6.283141 9.163395 
15.450620 18.014885 12.209343 
-2.526559 23.311924 -0.916422 
-20.382734 -9.599501 4.009726 
-8.606845 25.504915 1.284518 
22.666075 -4.846973 2.157467 
17.271080 -4.177359 12.837500 
8.020154 25.895981 2.860024 
-0.178301 22.373682 17.311312 
-21.576323 15.280101 12.997995 
-19.599751 2.253083 10.049035 
5.446965 25.101316 0.617096 
20.330183 3.331762 1.980278 
25.009039 6.232971 16.460674 
-12.404976 21.698490 2.687857 
24.676289 -12.168190 1.777481 
-9.293815 25.481268 12.351060 
-29.255520 -3.962950 18.451389 
13.902828 23.856089 20.622690 
-30.726637 -9.244698 17.607611 
-2.588602 25.939365 14.134874 
-11.660437 21.924242 0.029326 
-5.965126 29.883171 16.923441 
12.071650 10.838662 17.534609 
-20.727551 13.681668 2.553919 
-24.544592 -9.981601 2.402058 
24.338701 -12.101971 6.127584 
-23.963076 -12.807098 18.488411 
-21.300486 -12.931123 2.861506 
24.667252 -2.454331 6.146348 
19.951435 12.377279 4.103611 
16.138985 10.821136 0.619767 
0.722995 25.747307 3.914389 
9.342214 24.718346 10.856629 
9.005841 27.609974 7.737530 
-12.740446 25.017399 9.933246 
17.516253 -6.001004 12.358816 
-8.403612 19.820213 -0.946881 
-20.046955 -12.444640 -1.578149 
-14.661343 8.390321 6.033947 
27.875666 -11.043801 16.068380 
-7.808021 30.820675 9.969405 
22.229393 13.408729 18.135244 
13.004820 24.041014 1.663583 
17.458803 -1.388624 13.176105 
22.353790 -0.102649 12.482949 
-10.081794 22.236635 0.346265 
-15.560810 14.952438 8.114346 
-2.140097 27.200996 6.087191 
27.449240 -5.620444 6.349960 
-22.528950 -9.941259 17.518473 
20.368330 16.939091 13.804801 
-27.926291 -9.522299 7.295500 
-10.780656 25.321581 16.380007 
5.393207 22.876799 13.390062 
-3.937637 26.352264 12.208852 
14.730443 25.805742 -0.827667 
23.929937 -7.212306 0.956585 
7.400400 28.357248 18.504923 
12.949115 11.802240 -3.203341 
15.889399 -4.088422 18.221354 
23.505705 -10.333004 0.733777 
-21.136480 -12.308777 4.850585 
18.380230 16.008799 2.252652 
-14.397613 22.143169 12.499688 
-15.707702 13.728918 11.210633 
19.992769 -6.585994 10.821097 
-16.418982 23.557629 9.415741 
9.619656 21.321888 12.448418 
-17.114841 11.299939 7.626701 
23.548052 -4.649805 14.879398 
-10.035353 28.504417 8.999618 
-21.467041 8.505920 8.228106 
18.053717 1.811015 6.408852 
-18.147816 12.601871 8.771419 
19.508295 18.731100 -1.522904 
9.776860 21.851439 2.737984 
-22.222940 -16.318100 15.848130 
17.583422 -14.072143 12.112976 
9.153070 23.741198 11.765316 
-28.501890 -0.270197 17.517738 
-25.334335 6.130643 13.466704 
-12.196487 24.151222 -0.247930 
-17.536093 -7.954435 0.112142 
19.010563 -5.970369 13.266994 
20.607159 -0.847834 -0.514022 
21.458845 -6.135638 7.158869 
27.740255 -3.250707 16.064764 
-18.498299 16.406263 12.624805 
14.261827 26.817072 3.097782 
25.828779 -16.704397 19.366179 
-19.871544 -12.132800 13.809915 
-15.972478 1.086393 -2.004893 
3.948961 23.574478 2.117704 
-19.984682 15.340941 1.857951 
16.378777 7.849661 3.077943 
15.652178 4.112123 -3.128881 
-22.804789 -1.900925 5.296041 
-22.128138 -7.726040 4.647425 
-6.516373 22.936111 13.512897 
-13.256627 20.600605 6.177614 
-3.491029 31.275049 8.618176 
18.680420 2.364254 9.941826 
-20.436552 2.193287 11.914220 
-21.212332 1.607171 8.586904 
-27.821127 1.696006 15.091696 
-14.616735 11.279005 2.623428 
14.394323 12.027738 15.188375 
-26.442255 3.996801 5.792734 
-26.849758 -11.692964 11.191969 
-12.510695 25.973862 16.564404 
-15.298130 14.391837 3.924689 
19.227743 10.943505 14.670071 
26.138325 4.203578 4.358092 
18.291779 21.042084 -1.143538 
-15.851967 25.002258 17.521479 
1.761898 31.187613 2.329619 
25.196142 3.706717 -3.439799 
21.477167 16.208033 9.569612 
10.455020 16.820375 14.418852 
-20.850868 -7.164657 1.834977 
8.007094 28.544889 -1.556966 
27.207302 -2.735157 3.536194 
19.916910 2.480361 9.312127 
1.488357 30.660612 15.763042 
14.486658 3.211351 16.842501 
-15.021603 26.789570 11.633161 
27.625643 -6.762241 19.687458 
5.121761 24.275213 1.629577 
4.353637 21.986410 -2.053099 
-15.924870 14.386543 7.522984 
-18.960728 -6.595935 2.903493 
20.983709 -0.110315 2.054672 
-16.809683 15.650773 10.481932 
15.251618 16.795019 13.025428 
-19.096621 14.936245 14.392567 
-27.485922 0.670845 10.014934 
-18.218273 -5.757000 8.195404 
22.232494 -0.826605 15.043832 
19.575975 -11.759066 11.312837 
27.887449 -3.600982 2.697155 
14.829141 19.179619 10.189619 
18.858797 20.781425 1.947380 
-20.358452 -5.285222 4.784727 
-4.751381 25.752584 12.371509 
21.220549 1.796748 -0.514276 
11.821007 17.715820 12.452374 
2.389653 25.571798 1.448856 
14.132083 18.383364 0.315528 
14.774927 16.829449 11.887302 
-12.541845 26.679651 7.272635 
-13.024231 17.296251 13.604424 
21.946518 10.148515 2.330386 
13.569135 20.023666 4.636633 
0.869886 29.549868 8.258859 
-23.347157 -2.985419 4.584139 
-28.548214 -0.143446 16.586145 
16.932566 10.161337 12.721441 
26.979662 -3.438406 13.136888 
18.823378 1.273413 -1.015720 
-18.218399 20.444296 1.318671 
-15.717130 23.325985 -1.552314 
3.736671 26.057583 3.051311 
1.087570 28.886513 20.746620 
18.217989 4.411493 1.822998 
20.470419 -5.437908 14.089845 
-22.406801 3.389132 11.715263 
21.550062 -15.585286 11.807190 
22.417706 -10.643505 15.787892 
-21.829226 8.284472 6.610867 
21.110788 -4.967551 11.568469 
-25.944340 -5.839965 3.449695 
14.600161 12.574100 6.348954 
17.082165 8.977597 6.465808 
-14.670689 22.695539 1.259632 
-2.063461 30.165985 12.981999 
15.116157 18.117584 2.727849 
-23.612370 -9.362815 10.645202 
20.057119 -15.623495 10.772809 
15.192014 11.954035 15.477370 
-19.560602 1.280613 13.121469 
-2.732536 22.560987 16.197392 
-19.492523 8.668737 0.527532 
-3.307407 28.023062 12.759920 
-20.598795 19.820694 14.263721 
23.891277 -14.834648 0.661609 
-17.281883 4.640247 9.662222 
-17.257420 17.209955 8.241920 
-0.660223 29.588503 19.675516 
-11.915717 20.177738 3.534657 
14.921320 23.900068 18.734047 
25.743958 0.565349 14.827840 
18.438217 -7.545947 -2.972070 
-19.134518 9.062647 12.247113 
11.681767 12.581626 14.789737 
-18.134102 4.068322 13.067130 
-21.012123 2.583115 8.821609 
-13.059439 19.045288 3.412952 
18.256481 -0.918484 10.997433 
15.910499 11.105815 15.297002 
-25.877836 -9.628036 13.578478 
-21.481033 -13.794098 5.528890 
22.251955 10.427632 4.124375 
-2.226367 30.366400 6.985311 
-19.999336 -9.948192 14.939138 
15.264262 7.818845 5.979396 
14.970811 25.338839 4.138786 
-29.452770 -12.988996 16.100922 
-21.144785 2.126939 13.704156 
-23.867079 14.114049 16.231777 
-16.562685 -2.051803 15.964840 
22.362076 -17.125643 12.098977 
-23.442429 -0.667309 12.631679 
-2.279677 29.363321 7.800581 
-19.477962 3.364499 11.434073 
16.947577 13.903481 5.515872 
-20.665413 3.905041 0.565578 
7.918052 19.993208 -1.188213 
17.294981 -2.614612 13.086629 
-21.079872 -13.593215 7.452291 
-18.791922 17.020647 4.030657 
16.518131 -11.460919 14.161063 
16.552050 -11.507892 15.225722 
-13.456256 9.462809 -0.609137 
-18.455166 4.524290 7.242565 
-20.301561 -0.378501 14.791568 
20.709776 -13.825259 4.611508 
18.977165 -11.803335 8.612314 
-13.682986 8.800145 -0.057728 
25.897408 1.656593 -3.419301 
-24.254635 8.945357 11.235717 
-8.764720 22.154037 2.321566 
28.117825 -4.533030 3.357776 
-24.246111 13.361562 17.794300 
-7.025840 25.623695 16.191973 
11.697192 16.032003 13.117808 
-3.340958 26.251493 4.305354 
24.534698 5.559605 -3.457400 
-22.728161 16.356897 15.443685 
-4.165534 27.406849 13.196670 
16.875021 -9.373122 19.574158 
8.382522 28.167196 9.122281 
23.232803 9.198000 11.648339 
21.032196 -17.240656 10.588346 
-5.030437 29.111980 19.926826 
-8.844997 26.427820 12.981000 
21.824036 -13.175856 7.581025 
-20.628956 12.729164 5.454535 
25.755796 -16.588303 14.015140 
24.735638 -16.886311 12.834113 
20.156475 7.658987 5.160473 
22.807703 -14.765509 15.962098 
23.412630 -12.553457 10.035792 
18.476204 -8.977954 10.816533 
20.048716 -8.732342 10.295655 
27.157921 -13.676882 13.628137 
22.798441 -4.173998 14.952184 
27.353231 -8.815228 13.452045 
24.749384 -10.505444 9.801922 
-24.683777 2.364836 13.867848 
25.756538 -5.613378 8.301722 
20.868837 -8.578817 9.880502 
23.750027 -7.335517 12.331818 
19.623991 -7.574392 12.680818 
19.170956 -10.003687 9.287326 
27.817715 -10.015295 13.771288 
20.905491 -7.694057 12.565123 
-1.220805 29.808580 8.863277 
19.378693 -5.732789 6.647158 
27.081783 0.557768 9.439292 
27.151320 -0.922324 11.848859 
24.072155 2.684092 8.792665 
21.575348 -3.662223 7.392443 
26.448996 -1.085431 14.974127 
23.124949 -2.995602 8.149297 
16.824957 -1.762390 12.741080 
-15.108256 23.481176 11.683244 
22.759535 0.824795 8.939798 
22.008684 3.420914 9.266825 
20.632669 1.592385 7.829512 
22.845928 -0.093549 8.800615 
-2.045611 31.272541 9.904686 
22.900555 -0.331050 15.055125 
20.048403 -4.954016 6.530710 
26.594110 -4.192280 8.404562 
14.152735 24.178236 19.557356 
17.230793 -0.546163 8.167384 
26.063412 1.667717 12.739940 
23.202267 -2.241538 8.660124 
15.156876 6.945195 0.460307 
20.197668 13.799964 7.268052 
18.412781 9.714540 9.058388 
20.185341 7.221469 8.668123 
-25.650595 -4.426003 8.517061 
18.637691 10.639515 8.837985 
13.764205 11.104841 10.857934 
20.405340 6.926179 14.812688 
20.973570 4.103209 13.955454 
-26.148937 -7.546520 17.306396 
19.936729 5.937901 8.994157 
19.976088 6.439376 8.342482 
15.398540 5.664311 10.758970 
-11.268796 27.671673 12.484063 
20.368597 7.638978 7.303236 
22.845596 10.008069 10.045591 
14.937614 12.871889 7.133732 
-5.496077 22.982452 13.556968 
19.288309 17.050379 8.188586 
12.878118 12.463929 11.744125 
19.381374 12.436954 15.981492 
19.126423 17.948898 9.478176 
16.162411 12.568045 15.927244 
14.826499 13.694031 6.485237 
17.015625 17.265408 11.878018 
15.877073 11.076960 7.361380 
-26.584591 7.176887 16.740459 
21.179031 16.556044 10.880034 
17.761610 18.865105 10.245441 
14.671411 15.894968 8.733351 
17.533588 16.727633 14.463305 
13.344173 14.332434 8.440477 
13.090177 16.487478 13.596713 
14.018435 17.060951 15.328762 
18.405195 20.775806 12.722421 
11.077361 19.611877 15.194029 
16.203400 20.843765 8.115046 
-22.534664 -14.667524 10.861679 
16.841408 22.055693 16.858341 
11.119419 20.756844 12.487572 
16.668812 19.911001 8.932618 
-14.967227 23.483995 1.546502 
15.543184 24.056118 16.039892 
11.575561 21.997137 13.561027 
13.272166 24.148045 10.260158 
16.625088 20.202095 16.918301 
-23.188852 4.087605 8.782475 
5.897694 27.326454 10.030604 
12.486478 25.330849 13.388824 
12.832534 25.451460 8.276354 
12.043014 25.702841 8.586489 
9.232512 26.983873 7.325523 
12.928084 26.457508 10.991923 
10.063862 23.376785 12.379435 
-23.934744 -14.089940 11.811829 
-2.385639 31.416662 10.616820 
6.604939 25.734936 9.249640 
6.842404 26.210526 8.306162 
5.799247 25.248056 9.746259 
5.898681 30.914419 11.701443 
3.312856 30.782433 7.524860 
4.021806 24.877079 12.228752 
-23.426271 13.479425 10.552906 
7.153571 29.718092 9.524532 
4.390207 31.025537 12.517288 
-0.335910 27.689520 11.699883 
5.451530 27.525429 9.181953 
-0.854393 29.737150 13.682799 
3.095082 27.547438 17.024372 
-8.252481 24.885900 2.644200 
-1.357580 27.047024 11.257551 
0.602902 29.894884 16.255201 
1.429721 28.368881 9.858328 
-7.613212 30.152714 15.166290 
-1.539967 30.121002 7.439553 
-7.646298 25.474775 11.755094 
-4.978974 31.088268 8.132529 
-4.781951 23.722761 13.477375 
-6.888773 30.369446 6.788854 
-9.670816 26.967062 11.686412 
-6.778361 24.340872 11.843562 
-10.088643 27.142187 12.571680 
-11.766685 27.586361 10.757335 
-12.129055 27.401531 13.739269 
-14.226110 22.593477 13.231209 
-13.190530 27.555658 10.012863 
-14.426821 25.441811 15.382584 
-15.879813 19.182255 8.402119 
-17.756317 22.267054 7.595527 
-18.629051 18.742352 7.306799 
-17.491404 22.762377 8.201886 
-14.872879 18.336781 10.059675 
-17.827299 23.331879 10.229941 
-18.421309 13.683567 4.680662 
-19.316462 17.890089 8.741615 
-13.595142 16.252779 11.900730 
-18.401951 16.256786 11.545667 
-15.049970 19.155748 9.075330 
-17.839499 23.388584 11.994205 
-16.683317 18.560001 9.035707 
-14.453579 11.861844 13.442169 
-14.045764 11.103787 11.738867 
-17.610308 10.127786 14.199841 
-15.092591 9.713664 11.297889 
-15.931940 10.764196 6.497450 
-17.615377 15.536110 8.810881 
-23.353041 12.843200 12.769410 
-17.743309 9.793975 7.650744 
-29.537518 -12.711763 12.562814 
-15.109500 14.706989 9.737169 
14.972228 26.047947 2.820290 
-24.700951 -1.280039 8.703780 
-25.776648 8.138903 12.593590 
-19.378044 5.575836 14.007928 
-23.140709 4.958359 8.865186 
-19.655521 4.257117 7.350575 
-23.833689 2.606170 9.083658 
-24.119627 7.454925 14.186192 
-25.097139 8.637753 8.775838 
-26.220951 4.744677 9.977961 
-18.516146 6.925387 7.511898 
-17.245602 5.165320 10.684378 
-24.801771 2.605158 9.285156 
-21.288322 6.532131 8.283731 
-19.223988 7.291254 7.587930 
-23.795019 7.245081 7.382654 
-25.856539 7.176703 12.631051 
-23.162321 3.473343 13.797153 
-9.581058 26.441729 4.052803 
-25.953341 2.193587 10.730124 
-22.160280 -5.862450 9.229041 
-18.876408 -0.065734 14.029769 
-18.605440 -6.329937 8.628825 
-26.748575 -6.416316 12.708748 
-14.768464 8.367737 14.187635 
-20.522308 -5.828058 15.140388 
-21.359104 -0.132147 8.197296 
-19.602604 -2.556848 7.768105 
-17.943581 4.231403 0.664401 
-5.336553 28.679848 4.389575 
-17.048862 -2.083072 11.135440 
-26.193611 -7.083486 12.462550 
-21.539419 -4.057524 8.872710 
-24.753563 -9.290503 10.221028 
-28.956917 -12.128649 18.318060 
-23.304529 -14.549414 11.743272 
-22.746042 -9.647038 10.819355 
-21.434366 -14.382748 12.109066 
-29.949087 -13.731915 16.018072 
-25.108940 -10.327763 18.468410 
-24.519905 -9.448255 18.053959 
-23.323740 -14.550837 10.665972 
-20.020031 -11.071689 12.727980 
-28.563786 -13.227359 16.646809 
-14.385448 24.344322 -2.557015 
-22.148840 -14.058377 17.619326 
26.244480 2.375404 14.460460 
25.201973 4.314282 20.032942 
24.803299 6.145880 18.738001 
24.310249 7.944253 17.901430 
24.161797 8.754896 16.762777 
24.447422 8.015007 16.067692 
20.333408 16.140072 20.395374 
19.554447 18.795980 17.184143 
19.570906 18.838186 16.194519 
18.508680 18.852634 12.448278 
17.711655 20.638025 19.654236 
17.723043 21.659969 17.383659 
15.519601 23.339800 18.955256 
15.659467 23.726250 17.579197 
13.265127 24.343140 20.636387 
9.844275 26.420961 20.692848 
-3.228967 28.878317 20.734209 
-3.228803 30.586103 17.120249 
-6.573417 28.270159 20.705452 
-7.638546 28.911495 18.973995 
-11.283012 27.403395 18.650211 
24.437807 -4.029420 4.989259 
-12.689879 26.558279 18.997425 
-15.752288 24.816374 18.476107 
-15.983419 25.201809 15.818934 
-16.584909 24.748886 14.430908 
-17.524302 22.655308 20.496040 
-18.422253 22.630564 18.359488 
-18.431850 23.047373 16.527128 
-19.350290 20.803473 20.432001 
-22.526831 16.406298 14.529263 
-24.543055 12.665284 16.456305 
-26.363235 8.021970 15.548352 
-26.304510 8.072521 14.731902 
-26.345219 7.878287 17.532061 
-21.446041 9.019538 2.962756 
-28.292625 0.744206 16.324209 
-29.849380 -6.590906 17.468616 
-29.716312 -6.561980 16.559202 
-30.401804 -12.968854 16.580694 
-30.645311 -13.903770 19.296299 
-20.983274 -15.308695 15.402059 
-16.678709 -2.157984 17.065748 
-16.611467 -1.193530 15.630990 
4.860468 27.100842 8.801169 
-16.069017 3.328486 18.389280 
-16.007738 3.372061 17.056648 
-16.009945 3.416829 15.879752 
-15.965190 4.281206 15.037348 
-15.923701 5.052560 13.732831 
-16.631502 6.091812 11.251059 
-13.487044 10.158148 14.452127 
-13.150906 12.534764 14.396780 
-11.110648 17.164345 16.309904 
-11.546234 20.580687 12.850410 
23.005476 1.067271 0.166185 
-6.759997 23.405687 12.767949 
5.752477 19.864553 19.192266 
7.122278 20.906660 14.916742 
-20.700588 10.083035 10.989050 
11.753711 14.037941 14.330110 
12.082560 10.973974 15.355303 
14.156696 9.544750 12.322733 
15.082368 1.636045 19.919273 
15.225152 -1.139223 14.209572 
16.764727 -9.325935 12.725147 
0.420326 27.027279 12.149150 
-11.265903 23.757502 12.376110 
-22.110712 7.085931 11.635217 
-21.217964 -3.798041 4.845846 
-27.438807 -11.486462 6.368429 
-26.952585 -9.842693 3.815441 
-20.226038 -12.511487 8.444406 
-17.838516 -8.257653 6.251148 
-24.965883 -13.504000 6.314943 
-18.143847 -8.778226 7.269950 
14.052440 25.352243 6.286325 
-17.863911 -6.852111 5.428367 
-19.026949 -11.943592 4.417379 
-23.093451 -10.280530 2.051513 
-25.789820 -3.693764 5.465709 
-23.937326 -0.167010 1.664276 
-21.498718 -1.383466 1.305076 
-17.771889 5.569924 2.501017 
-15.409465 5.125972 6.184390 
-15.064843 4.366989 6.708848 
-24.994745 4.623003 2.034420 
-20.320839 1.882645 0.463322 
-23.878721 7.287232 3.707429 
-19.274977 7.950478 7.071304 
-3.714386 30.158499 3.627765 
-16.726929 -2.032404 5.714735 
-15.452676 7.825690 6.175922 
-21.957401 10.873915 4.115326 
-20.093565 12.891410 6.324827 
-14.346351 12.608986 5.318100 
-14.442601 9.901904 2.425559 
-19.466127 13.985013 3.700175 
-18.294123 16.108639 2.488182 
-18.607382 17.379961 6.324686 
-17.217916 16.070147 0.427887 
-15.849729 15.113387 0.080895 
-13.410474 16.393066 -0.379784 
-18.143414 19.977152 2.679208 
-14.045383 20.673861 5.547679 
-13.242655 19.222132 2.654027 
-13.234852 18.432081 1.708537 
-12.200410 15.282969 2.701391 
-15.688656 24.191900 1.817507 
-12.359355 25.774452 7.104201 
-12.579278 21.555862 0.227652 
-10.306499 26.214079 2.192194 
-11.951136 27.249825 3.618844 
-11.419091 23.039095 -0.186891 
-13.855088 26.329008 0.546499 
-12.415188 26.946062 4.233401 
-15.464130 23.707251 4.661011 
-6.875925 30.062794 1.555429 
-8.822066 29.430775 1.991544 
-5.939433 26.320313 8.443346 
-5.335506 28.242167 6.010112 
-5.135229 29.521849 4.542362 
-8.381439 29.777649 0.405155 
-5.895433 29.756012 0.769339 
-5.051239 27.190063 2.431581 
-1.563401 25.240042 2.222080 
-1.015211 30.314322 4.480801 
-3.711067 26.787426 1.797887 
-1.486778 29.573023 0.569648 
0.228669 28.227276 6.236946 
0.121631 28.089748 7.039889 
-3.086001 30.458120 4.395610 
-2.338799 29.989996 0.681290 
-0.396854 29.494812 1.916566 
-3.231835 26.092924 1.196964 
-0.235984 28.646257 5.039170 
-3.673465 28.415119 0.983808 
1.280191 27.179958 5.760863 
4.674296 27.387350 9.553018 
1.970672 30.753405 4.552568 
1.461615 26.000280 3.908698 
1.832789 25.580765 3.366504 
8.832823 23.768059 4.557658 
9.880776 24.438633 4.799558 
4.863896 24.483109 5.495040 
6.540086 28.373386 4.376121 
7.881891 28.586805 1.722156 
5.045526 24.958853 9.417727 
6.941943 26.179953 0.130238 
4.713700 24.581560 6.388109 
10.058755 24.469563 5.638196 
9.830506 25.969387 5.384891 
9.580898 22.804083 2.824804 
12.809204 26.914959 5.156099 
