-23.753906 7.025348 -2.144875 
12.911680 13.230465 1.369535 
-17.368711 0.632537 -2.122427 
-12.018459 19.007597 7.888835 
-20.386475 8.902326 1.668697 
-17.801016 2.023672 9.266854 
12.388887 21.924723 2.804492 
23.227076 1.149093 -3.284722 
-7.587441 29.482513 -4.291898 
6.440749 36.137394 10.188938 
-11.590331 28.735998 -7.439830 
-20.174706 2.066616 13.438504 
2.955638 37.725807 10.565358 
17.161814 18.385630 7.658749 
18.450373 17.680092 0.982338 
-26.638664 7.729352 9.796802 
-11.522648 24.378326 -1.727424 
-15.364448 33.756725 11.425409 
-20.375940 -3.722158 -2.709332 
17.669138 17.503113 2.125737 
18.553078 5.222550 -3.954843 
1.513987 29.991407 1.034001 
-11.527367 18.829290 10.298384 
2.599871 38.106689 0.621689 
-5.811691 29.111080 2.419777 
24.634239 2.273831 4.152982 
12.305003 17.229282 -1.151199 
5.298741 37.378387 3.580551 
-20.080635 11.178363 0.822263 
-19.914362 17.205168 1.546788 
-1.289143 33.259861 7.363745 
19.616631 4.248967 2.740343 
-14.448652 22.837040 -5.253590 
20.533096 21.244139 5.646072 
-8.117491 20.852608 -4.901756 
0.153786 36.984295 5.270067 
17.573568 16.098207 3.039450 
-18.257168 4.899750 2.213370 
-7.467622 25.163475 1.462119 
-19.320778 9.845684 1.562672 
8.118026 25.391413 -4.376444 
16.005369 16.529772 -1.076214 
-19.988493 2.526091 1.877970 
-14.899887 32.325886 12.221807 
15.328483 17.353737 1.104515 
3.218145 30.212961 1.633527 
-14.168782 11.065886 4.400260 
18.992676 9.105207 2.752088 
-22.280180 1.914836 7.719089 
24.504860 6.989105 -2.156041 
1.085751 36.730350 5.659839 
2.009238 30.341730 -4.710065 
-19.385538 3.073568 7.958006 
-5.029787 37.844540 13.759579 
20.920025 -0.193392 10.243537 
-2.355168 33.929996 5.430406 
22.748007 9.809484 -2.310542 
-4.061313 31.098425 -3.512240 
-1.470317 28.144602 -1.554953 
8.005921 27.357201 -3.005561 
-13.739252 26.532356 3.837658 
0.524749 37.983387 6.346443 
-4.377269 33.289513 8.132656 
-13.218669 12.171647 11.455652 
15.007392 29.212311 5.955458 
-14.477989 10.834696 7.434608 
19.678011 11.096108 5.835029 
4.159121 28.519264 -1.887337 
0.308745 32.667564 2.930375 
-23.504524 14.710190 6.268537 
-21.983591 4.252952 5.770230 
-14.413211 9.339113 9.634794 
4.557174 29.917768 -1.412428 
17.065323 16.397316 5.776366 
-21.248840 13.513120 -11.139797 
20.015783 4.926478 10.983882 
-20.865076 8.610239 -1.062349 
-14.003158 14.270886 8.918546 
17.323854 0.003488 1.952531 
14.272749 16.850456 14.638590 
13.027246 28.244566 -6.180876 
23.235861 18.809681 9.480889 
-12.960881 20.712259 8.620153 
16.479059 22.064207 3.798140 
8.761441 28.662123 15.274778 
-19.780161 23.418322 3.201182 
23.745283 -3.070758 -6.848090 
-16.335012 26.737749 7.650166 
4.160859 38.666508 0.347679 
-15.087740 12.533910 3.713451 
-24.425451 7.823541 0.551722 
-23.077324 8.190984 1.756135 
-6.808321 27.402966 -1.686674 
20.557039 22.778551 2.318758 
-18.595980 29.183641 7.491803 
19.984426 11.467067 7.653049 
11.211061 20.178198 -3.194284 
-22.598267 15.425500 5.095608 
20.950676 7.621235 -0.813266 
16.479868 13.157551 1.138928 
-13.005639 24.774134 -3.638918 
20.105751 25.078196 2.433165 
-23.003023 7.788624 4.958355 
-18.328541 21.142878 7.222228 
-23.820765 -2.606983 -6.572651 
12.539783 28.988802 -3.071234 
17.193764 15.278731 6.355627 
-12.075579 30.932158 5.890018 
13.066050 20.598196 4.205859 
13.558238 24.671824 -2.613635 
23.069912 -1.847515 0.216665 
8.489148 35.667416 7.355574 
20.342838 3.583062 3.663627 
-20.910406 -3.372262 -6.786135 
-10.453571 30.746464 0.350355 
-23.676798 12.767567 5.868247 
13.714425 19.344017 -6.275268 
-16.475843 25.962212 1.173168 
12.101546 28.961233 2.166071 
-19.990532 11.961361 8.798972 
-0.634367 38.975571 7.924045 
4.798212 39.985100 1.301188 
13.208533 18.643015 11.182478 
10.685230 15.759224 -9.843369 
0.930703 23.269485 -12.298719 
-6.512094 35.997025 9.505744 
-5.113162 29.376379 2.814547 
25.491268 9.712543 3.293185 
11.673862 23.817261 9.202244 
-13.379664 17.082546 4.386306 
1.616211 32.424114 -0.398678 
18.419386 1.898658 -3.925734 
-4.705345 40.686131 2.729461 
7.799951 31.618162 0.683749 
16.561781 15.487604 -4.198116 
-0.354280 31.831886 8.811957 
-6.348724 29.216635 -2.850184 
-26.830322 10.251347 7.164145 
23.905933 14.070578 6.070293 
12.070451 28.931200 -5.283966 
-0.166317 24.999357 -2.487618 
-17.448957 21.392553 0.295235 
-8.950916 28.390844 5.657221 
-24.443499 14.891563 15.552632 
-21.302914 10.224407 -0.977824 
-10.526279 25.134523 8.918623 
-11.333453 23.949429 2.348453 
-16.631872 12.259192 3.551783 
-21.089029 4.001307 2.397808 
7.065383 27.855829 9.889481 
6.363313 29.448170 -0.570828 
24.021181 5.610706 3.904663 
10.751765 28.972609 1.739618 
9.271626 36.183300 12.228191 
9.166061 32.968258 2.732577 
8.096574 28.734610 8.442373 
-1.745096 35.308430 5.781669 
-19.843098 1.058320 -2.954482 
-9.253998 28.128195 -4.888879 
-10.135753 22.737312 8.156270 
17.844769 19.887451 3.338584 
4.917686 32.274075 5.998455 
25.948425 9.907887 9.487533 
-23.973663 15.832890 8.067566 
12.294914 14.618137 -2.581591 
10.887159 30.894381 7.017561 
-2.809344 29.648245 -4.095764 
25.328499 13.368761 9.341419 
-16.458494 5.852295 -1.551418 
9.199347 19.216269 -6.318845 
-2.143111 39.873989 7.967165 
15.423315 16.292711 -2.112041 
2.411892 37.966232 8.010592 
10.883171 21.892662 -1.482728 
-14.675653 25.417704 -2.732148 
-15.704654 18.410280 7.650469 
-15.345815 27.236935 6.074663 
-21.639374 13.438865 3.867557 
18.150450 0.068300 3.216575 
13.901774 9.902581 -3.790076 
5.564938 30.207193 -2.333299 
20.730513 12.717088 7.839055 
-17.354721 21.002550 4.893909 
-17.264877 33.037655 7.671827 
25.073244 10.332990 2.934786 
0.671355 31.689878 3.558114 
23.900261 1.713742 -3.125687 
14.348678 22.764446 1.550097 
15.397183 6.828041 8.435195 
-18.303846 20.888948 -7.851720 
13.268501 23.028223 0.289954 
-17.555304 22.658655 -7.193917 
-12.230857 16.458281 7.490366 
2.810111 31.335972 3.528223 
7.668412 36.632183 13.914885 
-16.927345 22.838182 -0.401047 
22.012226 8.162941 -0.818747 
14.982091 25.532763 7.910524 
16.019154 14.768806 8.744314 
8.820044 37.585415 4.462821 
-5.622062 28.362612 -3.356118 
15.116073 8.378437 -2.948318 
20.280867 12.567513 1.477513 
17.094868 1.133912 1.486478 
-6.780739 29.453312 7.823247 
26.521570 9.674272 9.081875 
-18.638977 19.645718 5.956123 
-2.035857 40.554817 6.489605 
-18.060219 11.345700 8.517010 
15.886055 19.998741 -6.256834 
11.162283 19.943436 -2.377840 
-20.247833 0.547350 7.580352 
-3.391399 38.059521 13.826407 
18.652853 18.603022 4.515518 
-14.396493 10.708160 1.653791 
-5.093005 30.958374 1.838868 
-24.096735 12.619407 8.497442 
-19.718994 6.859466 2.478163 
12.230318 26.758776 -5.718317 
-19.571459 -1.405844 1.886245 
-2.327134 31.731707 -1.144276 
4.669643 36.405724 10.767491 
17.816175 23.017349 -3.454844 
-10.098592 22.583769 9.002231 
-26.224596 4.781985 11.131845 
21.769438 0.731923 5.747693 
-6.286882 28.824093 -0.036963 
-17.684980 7.672722 0.403084 
21.570482 14.222180 1.539297 
-14.082697 18.063028 5.243116 
-15.150857 26.495911 7.676813 
9.286774 26.034355 -0.859687 
-20.258041 3.234085 1.916896 
-11.844949 10.551382 -1.227040 
-11.448215 13.112041 0.597632 
-19.436529 9.335153 0.580344 
-17.386524 29.584278 9.979495 
27.560875 8.109756 8.914281 
25.743759 2.874703 6.608984 
-8.712500 36.320267 12.911896 
11.642212 27.184736 6.229270 
-11.986479 34.939552 11.694246 
-20.897350 8.062272 -2.441838 
-22.755424 6.237171 -2.779957 
-15.422073 14.148499 9.155250 
-13.905048 11.766757 5.086114 
-5.916851 40.234245 3.981047 
20.089178 0.889770 2.531005 
-26.234814 0.356281 -0.333659 
3.433525 30.153414 -4.222748 
18.627031 19.293043 4.232018 
23.982141 7.914397 -1.031937 
-11.091866 18.126623 -0.497837 
-16.880610 22.939667 9.139614 
8.374088 25.866447 -0.479837 
20.708679 -1.878445 -2.403722 
-8.665239 31.927444 9.080041 
-5.380540 29.084642 4.628970 
24.530560 14.176934 7.467290 
6.532353 32.276127 6.057615 
8.392736 38.592560 5.865723 
-17.848312 7.526502 1.133582 
-25.847488 11.266532 13.620660 
-8.825277 29.786911 8.324964 
4.447391 37.831356 12.732487 
-16.462263 23.746580 -9.061427 
-21.955435 5.734905 11.394930 
-12.781850 23.227270 2.315195 
-17.393152 11.796474 8.097271 
-20.830042 26.628931 9.313007 
-14.755495 4.469855 -1.730252 
26.130274 4.258541 3.891430 
25.136002 -1.968293 -9.838862 
-15.372297 20.400269 2.602391 
-22.118704 -2.802377 3.096319 
-14.631013 6.982442 -0.943783 
16.065742 5.475806 1.940392 
26.427551 6.510197 -1.211641 
-11.003547 33.059826 2.208435 
-14.424598 10.490937 15.110684 
-20.491520 26.661530 7.700415 
-2.986576 30.937065 8.003572 
-13.666100 34.351860 7.188692 
-19.241795 17.189823 -2.326599 
-14.856409 32.384975 9.793181 
-8.549969 25.887182 -0.809516 
-23.811415 -0.874722 3.837497 
-11.095921 12.181695 -5.448911 
4.306605 27.810886 -3.780900 
-8.868580 26.221191 -2.128022 
-14.859950 19.769522 -2.444555 
13.399111 11.096761 -3.889265 
18.624996 22.073059 -2.826314 
13.895185 10.072485 2.086208 
11.723887 13.074889 -7.733813 
-13.485419 16.011761 8.157690 
-0.185008 40.091743 0.975598 
25.910450 8.571833 10.061514 
-18.577074 26.914131 5.171879 
-4.163025 21.749557 -5.642518 
8.187686 27.867416 4.137984 
12.580059 20.149530 8.889864 
13.314346 20.868580 1.501076 
-20.691175 7.601410 4.098517 
-0.488201 39.616199 7.077290 
18.057133 16.852501 -0.989989 
-19.015202 15.600799 -2.675661 
-6.626850 37.362125 12.795147 
18.491476 1.825472 6.705181 
-22.900269 3.949420 7.883308 
3.792740 27.578875 2.323091 
-20.591549 -2.091268 2.449950 
-12.914643 25.211210 -2.772812 
23.408413 -1.342606 2.929821 
4.849770 32.845711 4.796838 
2.181193 32.801582 2.745701 
4.993980 31.299274 6.702036 
19.995251 20.862555 2.319915 
-15.537809 5.298101 -0.453477 
20.177763 27.144995 6.225097 
-16.428783 33.056492 12.676954 
-4.223527 21.960270 -3.545859 
-10.701841 14.247344 -7.386158 
-23.440639 6.074525 4.340679 
-1.733520 31.523176 3.863441 
13.021730 10.181086 1.757460 
-22.280415 11.732384 -10.948164 
22.359983 9.900315 2.504998 
10.005921 29.446245 -0.762558 
22.893581 12.013632 8.659906 
-17.582405 4.573747 10.325620 
-14.589664 13.122927 -4.639628 
3.784271 38.584415 8.981728 
-10.449194 23.221735 6.456030 
-9.529984 27.895967 8.195073 
-8.772114 30.765541 6.148943 
17.450150 6.353787 10.114991 
-8.241865 29.331852 4.909576 
-19.826828 19.459620 6.035912 
-26.494354 0.509096 -5.146717 
5.183625 37.098663 10.806800 
-25.772137 7.758279 -3.295306 
-15.742838 3.395661 2.024796 
-13.194475 19.931850 1.431995 
-0.654946 37.019493 5.799702 
-22.515232 18.458723 5.785167 
19.766888 20.155113 4.110499 
-26.814110 1.919427 -7.709910 
22.905489 4.054754 4.705917 
17.032562 -1.157838 -3.515478 
9.840859 24.122789 -2.268503 
-26.007360 11.694277 5.982455 
4.247816 24.091606 -1.473529 
21.337336 11.380672 4.804760 
6.336803 34.523560 2.338387 
1.894191 35.989212 2.047503 
12.698273 21.191385 11.623638 
-10.543151 23.349976 -1.259072 
-17.686430 3.870902 10.054385 
-10.221667 29.620647 4.449814 
-12.060822 25.502905 3.692400 
-10.952126 20.829861 1.245630 
14.110246 19.587509 14.757336 
-12.400243 14.293324 10.249066 
11.592871 25.428392 9.486939 
12.724420 11.889405 0.716276 
17.551535 5.941183 3.514537 
-8.719924 30.617300 8.843604 
-11.168973 32.804615 5.572000 
4.240712 29.356304 -2.702880 
7.971986 35.089386 6.902128 
-3.093221 22.298281 -6.566681 
-14.208879 20.171139 4.426932 
17.022966 32.635117 11.528388 
19.278450 26.042253 3.502587 
25.261204 3.595584 9.386664 
-3.191702 33.857555 8.893087 
13.849798 24.831707 -4.503202 
14.794983 25.699680 -10.950745 
-16.824326 3.451392 2.370323 
21.463697 -2.169640 -1.267944 
-24.679081 -0.401673 1.571357 
20.478083 4.457405 1.962097 
13.985335 15.052895 13.233472 
-2.285215 31.490259 -4.776859 
22.232590 23.449038 9.207108 
18.617868 20.125631 4.255731 
2.842965 32.713001 2.987168 
9.404932 22.438931 -2.950019 
25.059662 12.686736 7.262465 
-2.754690 30.144238 11.781122 
18.361071 22.448589 -7.502772 
17.044966 4.909561 4.509161 
11.179380 33.686264 6.358665 
11.996802 21.494007 -5.774089 
5.426009 29.324345 -10.895547 
-15.506248 17.975935 2.274172 
-13.240393 27.016624 7.211828 
-15.012468 17.424892 0.585461 
21.115597 12.859288 -2.920733 
22.965792 6.210434 3.642627 
20.645859 17.116455 -5.149673 
14.102296 27.280905 -0.599341 
24.993914 4.052230 7.613942 
13.321824 18.056561 7.577946 
18.380339 25.493263 1.088192 
-13.849716 5.573548 -3.873543 
10.477323 29.087641 6.374328 
-26.188807 10.747258 7.225495 
-19.533493 28.806757 10.155257 
17.999886 22.937414 -2.774495 
-13.450977 17.080557 -1.555243 
12.287338 18.017288 -5.540256 
-18.995562 17.107788 1.231220 
-13.062284 7.178115 -7.148228 
-3.745379 29.400818 15.627457 
-15.061253 8.925815 -3.130535 
22.810343 20.202118 8.017346 
24.010525 8.098860 1.076559 
-0.220288 28.660213 0.400568 
21.662901 -2.022375 -2.126081 
-17.972994 27.020439 6.290556 
19.405905 10.594550 4.231819 
12.829671 10.300287 -3.542248 
-3.454599 31.989880 0.554576 
-18.424873 18.844954 -2.918399 
-22.395336 12.426085 -5.050818 
-11.173894 30.818012 6.176458 
-16.526381 16.518047 9.000040 
-7.532099 35.353954 5.943922 
-23.307766 0.119194 3.248110 
-14.193225 13.640841 2.802661 
26.070091 0.875288 -1.251290 
-17.373352 2.925673 7.950137 
-13.925047 9.642186 -3.615877 
-24.349333 12.395404 4.030749 
0.724062 35.827511 3.864033 
12.035906 20.675613 7.677361 
-14.328869 30.461292 4.174697 
-21.423357 24.805798 8.903777 
6.345546 21.289284 -9.832490 
11.622240 28.540100 -8.566413 
-16.274460 9.076330 6.965337 
1.213758 35.232502 3.625849 
25.085924 1.653114 3.638573 
-0.214843 36.596012 7.608993 
9.594511 33.017269 3.867313 
-26.363674 0.393426 -1.677659 
14.332964 12.489776 7.057289 
11.834521 18.593288 0.416150 
-2.420935 39.570332 8.601116 
5.016682 31.493969 1.384079 
13.183543 8.997698 -0.535562 
-17.129747 19.741894 0.871027 
4.347109 29.432026 2.395849 
-12.018691 34.895466 14.419888 
16.516726 8.250050 6.496002 
21.290344 -1.346825 -2.675194 
17.006170 21.590063 2.492264 
17.310820 -0.772339 0.512310 
1.513116 39.432930 5.328074 
6.938560 36.229065 4.012283 
20.066181 9.753839 -2.096037 
6.036027 33.007572 7.347132 
24.039236 2.112237 7.947144 
4.090608 22.355911 -5.906512 
21.034084 14.552738 7.887995 
-22.497011 21.065853 15.760994 
-3.716564 32.363914 2.900996 
-22.030317 8.506359 10.988306 
-20.289186 16.400604 -3.468879 
25.890255 -0.209050 1.700082 
0.365656 34.906406 6.361777 
14.958014 16.842827 -1.834759 
-0.670523 31.999596 -3.275592 
-23.270960 6.111383 -0.441652 
18.847519 25.748093 1.697402 
-19.390131 17.680931 1.043860 
-9.507987 25.878208 -2.563041 
-15.208433 19.268717 2.449202 
-11.969707 10.928353 1.424363 
-0.776998 31.797718 -0.633393 
15.934760 1.005307 -7.244837 
20.317110 24.059095 2.063719 
15.536510 17.375879 7.592736 
-18.625877 6.584399 10.713147 
-9.224646 31.337179 8.894378 
-15.672339 26.761419 7.291321 
6.382832 29.145224 -2.859386 
-17.382360 6.627885 10.184160 
15.700929 16.828867 8.257436 
-4.738392 31.746830 1.742543 
18.914955 0.685021 -3.685400 
17.672293 8.570079 4.435110 
21.034361 12.496788 6.727009 
-17.163105 9.644635 -3.990945 
-21.796350 11.449650 2.816320 
10.743538 27.380377 -5.592669 
-0.844769 23.598061 -7.138905 
-17.238277 10.278091 3.976144 
-15.193914 34.396511 8.005453 
-8.072823 31.320869 3.390005 
15.312174 16.016495 6.176947 
-12.717108 32.867653 4.392534 
23.669390 5.127038 2.921758 
14.697171 10.098853 11.546909 
25.930195 6.026227 3.709368 
-17.231600 -0.917581 -9.668488 
-26.513481 4.862700 5.556943 
-20.210461 14.585038 -0.462207 
26.915781 2.515083 -0.808873 
23.577993 17.494263 8.796792 
-12.109460 16.294180 8.200015 
-12.604197 24.247719 -2.715884 
17.252983 23.552198 -9.229972 
21.234943 11.379759 -0.214451 
9.313813 33.602673 6.887145 
-5.709822 21.294258 -12.049908 
18.698092 19.979355 3.511640 
-2.860205 22.636082 -4.004519 
-10.892870 30.761112 4.213452 
0.823101 38.992886 2.502675 
-17.699759 30.079252 6.122504 
-17.066114 19.232433 0.296322 
-17.173822 31.557899 4.873638 
8.198781 26.644600 -2.954593 
-22.313660 2.115343 0.955695 
23.173481 3.257244 4.598915 
1.690760 32.724483 0.826501 
-6.099311 27.867208 10.075926 
-12.136360 17.283638 0.089101 
-20.460686 24.134964 5.171742 
22.008749 12.976560 5.250142 
18.908527 -2.118891 -9.782158 
-16.311707 32.527225 15.059093 
15.044957 16.580633 8.195154 
24.037844 11.857843 4.269486 
-17.184006 9.708058 5.873516 
-9.976201 18.950365 -2.259673 
-17.563395 31.578094 11.544970 
25.360933 6.883766 1.232514 
-11.912610 10.121198 -0.171381 
-10.952448 20.149126 11.007690 
13.989496 16.456839 -0.387815 
19.608078 26.132740 6.910513 
22.563654 18.497757 5.079042 
14.144112 26.749943 -2.849710 
12.383182 11.382161 -9.560617 
20.959480 10.938941 0.265215 
-7.256361 27.030584 5.019504 
-26.331474 10.329581 8.642682 
11.377171 25.116409 0.365696 
20.990313 10.001423 -1.338064 
14.922451 12.988636 8.480544 
18.355673 20.092062 0.288935 
12.630569 22.962418 -2.086000 
11.112632 27.603596 -4.095155 
12.820258 17.337685 -4.614897 
17.338722 24.804571 1.566637 
-20.011574 11.719325 4.461413 
-17.626137 14.796400 -4.054082 
1.012837 34.077534 8.598857 
-19.901680 17.438473 -6.153131 
-11.468169 20.585093 -5.199272 
-21.532600 11.255826 9.633855 
7.619905 28.992020 5.079315 
-20.453081 24.835251 5.970347 
-17.882660 21.952122 -4.523253 
15.072002 17.146927 -4.256223 
-16.231810 19.841885 -4.969286 
-12.919642 28.638191 2.577410 
-0.686481 34.626514 6.386250 
18.528456 19.157257 -2.231690 
-12.130256 15.249090 9.682775 
13.781155 27.467482 -7.999986 
-15.847480 28.609905 6.264290 
-1.188362 31.605768 -5.636343 
-15.770838 10.119367 5.561740 
-1.316727 41.084084 3.216726 
-18.779285 21.038958 2.508036 
-6.659304 33.917454 0.025108 
-7.423730 36.978424 3.628636 
16.699751 14.612063 8.820743 
-10.336935 33.467258 1.990512 
-5.069556 30.512930 2.945962 
26.543180 9.199119 6.033528 
-23.024355 2.299684 -2.944728 
17.997561 1.449162 9.084926 
-17.005219 10.224264 7.701516 
11.315440 23.102049 6.938397 
16.885345 21.061125 -3.843105 
24.766523 13.801412 14.240997 
18.206795 10.463820 2.085590 
2.773114 35.016922 4.580713 
-24.291306 7.168267 4.388144 
10.656475 31.787596 7.639102 
-24.149380 8.455776 3.897366 
-25.546701 6.399044 10.945641 
7.192465 33.916317 1.887228 
-18.616707 21.067728 5.874296 
8.993329 27.587345 3.395234 
-0.228887 26.267756 -0.854154 
7.651548 36.144653 3.569328 
5.453743 33.685493 9.542497 
20.658918 7.639950 -2.051828 
-15.236485 16.127113 -2.547992 
-26.499033 6.059898 5.078857 
-9.424609 29.322041 -5.254045 
-17.757643 11.698302 3.285177 
-5.224144 31.240774 2.758772 
-5.732256 40.406845 3.022820 
-10.990856 23.586573 6.000032 
-5.764855 35.004528 6.357639 
-19.042145 19.309685 1.345372 
10.711307 26.717093 13.079651 
-22.033403 15.965339 4.753517 
-9.658950 23.260315 -1.705036 
-6.058807 28.862177 -11.139684 
6.849183 27.790472 -2.505273 
-21.405041 -2.256372 -0.108636 
5.444125 37.317608 13.776504 
-7.064633 38.562141 6.926589 
25.428434 5.688887 -1.989170 
-13.431549 23.530293 9.292425 
-4.831578 37.049980 15.975573 
-16.948668 13.825462 2.665008 
-11.908935 23.783297 -0.996419 
-8.205747 28.638031 -0.961857 
-18.693933 19.535208 -4.505464 
-16.744677 23.265501 1.226932 
-14.082134 17.926165 2.907661 
-5.338830 28.333414 5.433751 
25.877764 12.503814 10.763766 
-19.460735 9.308552 -0.278190 
-18.682581 18.318945 8.085618 
7.900277 27.443956 10.197524 
8.415401 28.250826 1.849174 
-0.383655 31.661175 -5.825868 
13.464211 27.235924 2.243021 
27.025322 9.976517 11.399937 
-16.741062 6.032243 4.152616 
15.057859 14.038037 1.371214 
-12.301275 21.085920 8.208933 
-10.284642 22.941446 15.525318 
25.955450 4.203320 9.218260 
-17.336205 32.335293 11.205346 
3.961345 39.560223 0.316832 
15.663147 14.322720 -1.971901 
-22.371660 5.095570 3.325734 
-2.903504 26.799137 -2.937756 
22.427538 -0.094499 10.137177 
25.878771 6.543504 -5.484041 
15.406266 14.854722 6.951706 
-25.836666 9.161820 3.989432 
-12.056908 32.736027 4.639356 
-2.551384 36.128986 10.270058 
25.770802 1.002188 2.132141 
19.650646 7.565056 2.587687 
-7.035562 36.652092 6.827724 
-11.904651 13.461934 -1.997667 
26.375484 5.244950 0.624406 
-19.017139 -2.305013 2.191012 
-10.803608 17.485746 -1.625810 
-9.629024 32.738415 8.675487 
13.725189 24.061661 -3.199677 
-7.523753 38.225590 6.334680 
13.993816 14.169542 2.506030 
-18.091162 20.396385 3.462503 
23.065426 10.749970 -3.661809 
7.719171 36.917236 11.103597 
-13.361788 13.983185 3.521712 
15.197712 7.207876 10.795056 
-10.616524 20.900484 9.284322 
-18.435009 2.525275 8.788370 
17.072718 9.318707 8.416620 
-7.813085 24.230352 -1.716844 
-12.828646 29.266296 1.740529 
5.449090 30.776571 8.589643 
-17.703932 10.731786 3.680971 
20.508226 13.671631 8.100633 
9.804092 28.795134 3.286722 
-1.246705 29.637758 -4.874523 
-5.859530 31.386211 8.534670 
-22.581476 4.642993 -3.149948 
19.493916 10.664994 9.180779 
11.554542 15.203251 -4.088313 
-14.288699 9.335319 10.759833 
-23.870888 8.146883 -1.272158 
-0.378427 32.401863 3.074738 
-2.872734 26.216921 -2.376126 
6.060577 36.871323 14.516621 
-15.769701 16.520842 3.054228 
23.848740 11.888486 8.225576 
-11.905139 23.835947 -4.455113 
-11.983664 11.679589 -11.010595 
17.276115 26.537270 6.797042 
-18.583925 -3.210836 -0.958287 
14.987419 17.773527 -5.723407 
15.214639 23.778893 -2.444313 
21.462984 12.267793 -0.633195 
0.875361 31.730604 8.743105 
9.958040 17.128490 -10.209631 
12.129537 18.807615 -5.801556 
-18.892570 12.496346 2.567413 
-24.950796 7.334243 -1.382925 
17.861465 26.418816 7.238185 
-7.927727 28.902281 5.431451 
-0.061142 37.920101 7.084410 
-21.211790 22.299603 6.246664 
14.007512 16.412899 6.359773 
1.415312 24.201561 -5.836719 
-5.242741 30.451719 4.155042 
-11.738217 34.761646 9.654331 
-11.254326 27.332220 1.987195 
24.355770 7.489949 1.875654 
22.500309 17.104824 5.834753 
6.710769 29.174746 2.425997 
12.991631 15.310357 8.387340 
10.732604 23.397215 -0.483428 
-8.082840 21.381502 -4.168259 
-11.596046 21.964268 2.934753 
-5.680989 26.419321 -1.786200 
2.374807 28.930830 0.307578 
1.927140 31.140751 -7.452557 
14.987723 26.054756 -9.476064 
-12.131842 17.473244 -3.883152 
-10.938332 32.076118 6.130476 
20.730425 3.750670 11.020728 
25.082460 1.223179 10.059702 
-15.000206 17.351206 2.524647 
-12.374898 14.835514 5.852058 
26.686893 4.251146 6.722988 
1.453027 24.879419 -3.610647 
-4.715800 21.694914 -10.020031 
-8.137753 36.499863 14.309262 
6.052565 28.373140 8.582982 
9.508054 17.909817 -9.967652 
10.729901 29.874699 -0.124125 
20.294535 0.462166 6.405572 
-7.950915 19.597031 -9.520365 
-21.140093 5.219727 -3.317659 
16.987228 7.970623 2.254822 
11.736259 21.361828 -4.474850 
-16.729208 8.359869 4.800376 
13.795975 13.124460 11.175413 
-24.031599 10.449629 2.263266 
1.408761 36.474751 9.935397 
21.827845 1.313143 8.476101 
-14.381085 11.483302 6.783401 
-7.277341 23.550213 -3.615891 
-12.027175 16.002800 10.020474 
-6.724241 34.315552 0.674132 
15.130183 23.106050 -4.911609 
-23.761299 11.870544 9.166380 
-16.643209 31.998106 3.576332 
16.717327 13.170197 2.202722 
17.423820 23.290794 5.998216 
-1.114954 25.723291 -1.754161 
-3.606410 30.898832 -6.155058 
-6.407063 39.035118 7.107739 
17.786381 9.730597 5.176095 
25.809450 5.987501 1.219864 
17.730282 5.938892 2.070921 
24.252789 -2.768805 -0.817715 
-14.684674 9.510928 15.076356 
-15.999660 16.147577 -2.840050 
-2.827761 22.600285 -9.715683 
22.563997 -2.240818 3.758578 
-20.110422 13.896166 -3.037265 
17.170052 13.852972 -4.759609 
-20.158743 18.596008 1.986466 
24.134504 6.922613 2.569042 
-8.291562 34.199741 1.507431 
20.824005 16.950928 -6.440494 
5.816813 28.645584 -4.211348 
-13.230672 13.328887 13.904611 
19.938459 14.988165 1.656595 
13.753935 22.148188 -5.953876 
12.360382 18.310583 0.801819 
-13.708558 18.274197 1.218651 
18.162167 -2.416178 -4.792159 
-26.172127 2.682281 1.465299 
-17.651007 23.006798 0.975371 
-11.771530 17.523029 -2.766135 
19.786547 -3.052946 -7.463983 
-14.207663 15.258502 8.925735 
24.956268 0.572679 3.242857 
-13.511183 16.986591 3.427355 
-17.867027 9.549885 6.661283 
-15.984086 4.741748 9.459435 
12.062001 14.272055 -3.243988 
8.017215 28.849573 -2.419805 
-16.715330 17.896049 -0.460463 
-20.824524 13.037706 2.072296 
15.489135 9.212913 14.287612 
-12.212864 23.303995 1.574475 
-10.461918 30.273836 3.589868 
25.367147 5.783213 -8.619242 
-15.951647 7.284762 4.988441 
-21.541149 16.650572 3.825112 
-26.632814 11.019908 8.889539 
-0.825133 41.180767 2.176162 
-7.246426 37.199833 2.677953 
2.874559 23.932592 -3.370033 
26.527945 9.672428 6.702809 
-19.586290 15.845252 -0.296278 
-12.409095 20.578735 6.979359 
10.786375 35.124935 10.035079 
6.184159 28.583864 -12.884959 
3.754579 34.695290 10.224875 
-0.468360 35.428429 5.371466 
18.694391 10.254695 5.078231 
19.852436 18.849646 4.382765 
26.931839 7.228540 9.697433 
-5.252283 34.389755 2.532629 
21.455284 13.231563 -1.182058 
-22.142288 -3.428053 -4.313982 
-10.972438 15.266598 -2.458834 
-10.935432 30.253876 10.432549 
-20.842857 10.934503 5.724134 
-23.664999 17.713863 13.922105 
-20.764791 17.353180 2.499259 
24.064575 11.887795 6.465983 
-16.052212 21.204750 -5.258118 
20.055153 17.965979 -9.908396 
8.213492 27.797136 5.787007 
-13.760261 21.512098 2.755513 
8.458124 31.420197 5.992013 
3.594363 39.575325 4.349960 
-17.465322 11.582226 -1.839021 
-16.578571 20.858156 8.439423 
23.059408 7.770692 2.871593 
-16.728306 18.638706 -0.291906 
18.392830 12.439934 -4.710859 
-0.919691 23.257317 -10.393335 
1.834765 33.983452 4.847343 
-12.318933 9.183679 -7.908838 
12.982236 16.303656 7.670105 
-16.619877 23.002186 0.273035 
19.593302 10.009821 2.597531 
-16.010530 23.457561 0.665833 
-18.797571 4.960609 -3.197241 
-12.222642 27.164099 8.483739 
18.326653 22.531637 -2.116163 
-12.188249 29.323526 11.494136 
18.288288 10.421070 7.220326 
-12.618258 27.725965 10.932945 
20.528982 24.967823 7.807440 
-9.673606 24.104048 15.558262 
13.706880 19.715549 1.075644 
7.845754 36.448109 7.776686 
18.093338 3.293977 6.026446 
13.413939 23.647877 -1.128241 
-25.270645 9.178793 3.211289 
-4.565395 33.001095 6.056585 
12.503324 10.803410 -0.421884 
-9.011798 24.899216 -1.698425 
-22.026630 22.587366 9.127105 
20.654579 16.605330 -3.384670 
21.004913 11.834084 0.675265 
6.292393 33.228104 6.076533 
17.020975 4.097404 6.431403 
-14.843813 8.628653 8.761267 
-10.008039 26.852629 -3.575469 
-17.999422 21.917215 -5.693025 
-25.639936 6.421895 -0.110062 
20.732262 19.137653 2.472651 
19.348848 24.249752 0.687740 
0.654415 38.495674 5.687724 
19.548281 6.513521 2.840255 
11.790601 22.582172 -3.753666 
17.275679 4.291048 10.159963 
-26.321131 5.869722 15.223311 
-11.913764 31.926863 4.838699 
-11.853950 20.910963 6.607691 
-19.478067 3.464123 10.831642 
9.173326 35.998154 9.763366 
-21.433153 2.551871 9.513590 
13.132919 22.768148 1.608110 
10.402826 16.368505 -11.644919 
3.411660 23.959604 -2.182868 
-10.220714 25.917585 9.569179 
5.637913 32.900459 6.017504 
-18.247019 9.668895 -3.182335 
12.944767 28.768452 0.323850 
-16.223232 4.726928 13.862192 
18.920271 7.740021 2.653399 
4.857190 31.246315 0.033030 
22.013660 13.202593 -9.830496 
-19.567366 14.527696 0.700876 
13.040121 25.307402 4.993286 
-23.367764 1.379567 9.686570 
-10.480408 33.581570 5.231308 
0.624180 38.726158 4.864522 
19.870504 29.942196 13.094020 
-16.773506 4.139218 8.013041 
-13.328660 27.020288 -3.602302 
-24.452414 -0.469335 -1.247843 
6.406622 35.226345 5.095612 
2.225477 31.188408 2.771717 
-14.808511 28.897707 6.578005 
-25.763311 1.678710 2.143828 
-6.067910 27.584011 -4.096022 
11.368305 18.987051 -5.559149 
-9.086139 35.242458 7.560155 
-7.573659 38.858028 2.370865 
10.726469 30.846159 8.063824 
11.510399 33.022781 5.721944 
-11.676777 14.251232 -1.201908 
-11.218506 18.217869 -3.791683 
-15.711487 7.489166 0.552411 
17.078838 24.696655 8.833551 
23.052362 -1.787193 1.266221 
-26.602577 9.281514 8.106888 
-13.494932 11.893089 8.565616 
27.062801 1.510988 -0.207973 
3.771829 32.456955 2.290118 
11.983375 11.810283 -5.873685 
-22.785789 10.642804 10.063457 
-14.368171 26.648478 6.498881 
11.381899 29.221140 -3.354897 
-12.185132 11.115440 -2.483635 
15.134799 25.954168 4.061172 
-22.327040 3.647412 11.047293 
-22.219297 22.555109 13.799280 
-1.223315 32.208084 4.159425 
-6.154051 27.949337 9.040542 
17.745579 24.356409 5.990276 
-11.923982 27.904161 -6.182281 
12.437531 35.111725 12.231805 
-19.278948 1.117751 9.402741 
22.899929 19.041094 14.508336 
-17.422472 -2.332721 -3.010201 
-16.087299 17.479210 2.027757 
-9.449765 25.912363 -0.317950 
3.946396 28.778351 -3.494961 
-17.072962 25.692541 0.906846 
26.661043 3.732187 0.871590 
-15.024142 14.466560 1.556801 
0.502534 32.129318 -2.013367 
6.526323 34.246799 1.621084 
18.350592 9.095569 9.655606 
-11.536140 25.730209 1.718093 
-12.914473 26.179977 5.083446 
20.957214 4.239621 2.464063 
21.483549 14.928129 1.629466 
16.344429 19.605982 7.302724 
25.918272 -1.127941 -9.931243 
-15.602972 32.071617 1.992371 
-20.434258 19.301712 5.547102 
-16.038084 14.013368 -4.562202 
-12.789358 13.123535 9.438818 
22.597467 21.166025 14.605061 
-13.520806 29.548206 5.172057 
-1.234928 30.984367 11.153933 
7.814792 35.693844 4.159910 
14.318765 13.405142 2.657397 
16.567081 16.432594 -2.370039 
8.118832 28.969851 15.304189 
6.759915 40.013874 1.760388 
-4.037419 22.271038 -12.162319 
-20.397556 12.542830 8.009827 
21.027163 24.710062 5.451236 
-18.075577 25.422573 1.200768 
-20.468290 23.363544 5.191991 
-12.782255 17.266632 0.530764 
-21.095600 4.271564 11.247569 
-1.783928 25.923525 -1.433515 
-13.499042 21.567528 6.515624 
-17.874540 17.209993 8.711670 
23.910170 9.094920 10.305200 
-20.503691 7.487904 -2.707318 
27.013838 7.328931 7.488084 
14.281264 12.838894 0.949506 
-24.552525 14.982650 10.241233 
12.931226 22.414579 0.286965 
10.911133 29.636312 3.371096 
-6.864905 28.590363 1.534731 
8.083284 22.645956 -2.809313 
3.690334 38.788620 7.980964 
9.376441 23.876057 -1.409322 
-9.435576 25.745298 12.399416 
15.940864 24.017626 -2.973772 
10.033033 25.557087 -0.507330 
13.078675 19.675430 0.714556 
-16.145363 13.124524 3.155065 
-12.943892 21.233580 -2.199580 
0.161747 37.247036 3.675420 
1.144261 30.488127 -2.207009 
-5.360850 26.605579 3.029244 
-4.190041 29.368053 11.541521 
-24.132538 5.146488 11.264685 
17.433256 21.347960 -5.702707 
26.705172 3.339019 8.909357 
-3.311102 37.113987 15.939134 
12.750255 27.415525 -10.324514 
-19.742458 -1.393759 3.549759 
-20.086117 28.077032 11.266294 
23.072607 19.221428 12.495080 
21.155476 13.407043 -2.385234 
19.167835 15.037876 -3.813541 
-8.983253 29.240807 -3.479660 
-2.409374 34.787636 5.976163 
21.391840 14.955354 -2.094131 
5.839134 34.330727 1.885504 
-4.613906 29.700214 1.336405 
21.588758 8.510212 -0.356579 
22.141600 7.943435 -1.757264 
-6.848428 39.432743 5.810093 
-11.306025 21.625237 4.239069 
4.677439 38.848831 7.477339 
7.613726 26.105381 -4.293890 
-26.203121 7.669605 5.210098 
13.691352 23.899010 -2.507947 
18.702843 1.760317 13.892991 
16.028559 9.852550 1.228650 
-1.578450 38.439888 8.322340 
9.109112 29.139097 -2.748288 
6.528875 29.190454 13.425108 
-18.001287 20.521078 4.862680 
-21.174702 18.756651 5.308936 
3.964062 30.154749 13.442831 
0.792780 32.695744 6.762372 
-17.660254 2.506281 7.447609 
-16.608469 18.647860 -1.614545 
-17.383905 20.838654 2.335990 
-18.465582 13.068549 2.985687 
-25.951597 10.538272 4.202214 
14.887146 20.796906 3.093480 
8.859716 28.591915 8.276128 
20.892271 1.062734 -3.833201 
-11.922868 25.077126 6.128878 
3.357592 39.313995 5.727446 
-24.715899 9.086396 -4.954700 
10.589766 17.197315 -4.445251 
-10.411492 31.674765 1.119150 
-24.503624 6.538302 -1.942886 
-18.908621 2.050124 -3.077715 
16.444153 4.851140 6.516324 
12.544924 21.565763 7.873986 
13.707970 20.842548 -2.938292 
-18.274769 11.179184 3.299920 
25.638794 2.758321 -2.128599 
25.138563 7.422072 0.714538 
-15.292212 5.623688 10.979919 
-15.273231 10.884182 1.333992 
-14.445168 31.297714 12.274361 
-25.686552 11.498257 8.437696 
0.038299 27.296377 -2.065598 
-8.875375 26.456909 2.410664 
11.794593 24.416880 10.099845 
-10.147061 27.956963 7.714540 
12.887814 20.527042 4.905233 
-12.865888 19.403568 1.029793 
13.662636 23.327200 5.342870 
-17.928591 7.327320 2.723201 
-20.059748 2.373688 4.164412 
21.180134 13.927415 -0.363816 
-12.232119 29.002071 3.412089 
-15.450157 12.204182 -2.128411 
-16.999111 17.802258 2.579744 
-19.701532 18.398144 1.401563 
13.636168 8.624015 -2.012533 
-0.879533 29.782763 -10.914005 
-14.292643 31.978622 12.183480 
12.795255 17.429218 -5.346739 
17.945839 7.665597 -0.594167 
23.490349 7.368342 4.121397 
3.279816 32.385780 0.837157 
17.788708 21.136288 5.626920 
0.996724 28.028456 -4.120399 
-13.437791 20.991131 3.412370 
27.441542 6.516961 13.867274 
6.957509 39.419983 5.982462 
-13.022238 8.664242 1.411676 
-13.420938 15.809159 2.579601 
-19.420391 2.661206 -3.286224 
-17.998133 18.115088 1.094254 
-3.280832 28.225876 -3.580052 
-10.366917 30.504002 -1.508403 
-11.563634 31.391624 10.057297 
6.735645 38.134506 8.777205 
-5.543756 39.329273 0.306888 
26.684404 4.281758 5.037588 
-17.467422 30.429241 5.154517 
5.447582 38.346397 10.104563 
-24.093361 0.227101 3.848162 
21.989614 8.889784 3.322023 
20.582588 24.111109 2.771981 
-5.818734 29.141705 1.523885 
22.995762 2.468890 5.451101 
-25.035488 11.299459 9.338364 
13.790122 23.071278 -3.942544 
-7.981343 26.104006 -0.312330 
-5.460248 40.006023 5.262377 
-13.706786 26.594908 4.633200 
0.567863 27.445574 -3.134216 
-17.878386 17.195665 0.149811 
-16.512438 18.828947 7.514062 
16.982637 13.543710 1.618581 
16.252808 6.115300 9.579309 
-8.774757 18.797102 -6.555011 
-7.927792 29.297171 -3.294433 
21.206678 7.427717 -2.681224 
9.082896 27.909100 6.962376 
-12.340606 29.814796 1.647799 
14.558590 26.636505 -4.319377 
24.223413 8.637523 -8.664958 
1.783576 31.771500 -2.194741 
-3.773146 24.723944 -1.236570 
13.002864 28.090458 -7.518806 
-18.469379 23.510334 0.969475 
-19.663860 10.014207 0.706278 
17.442822 21.636848 1.792864 
6.068559 32.265896 2.097787 
-21.062826 -3.395366 2.170538 
-6.990499 24.923958 0.974455 
11.409733 15.968004 -3.678070 
-13.459250 19.810844 5.661890 
-2.723966 30.103844 -9.628824 
-21.177700 0.623720 3.279802 
-11.500879 28.318058 10.837272 
-21.169836 16.717508 3.203192 
-5.102996 24.536720 0.547984 
-21.466583 14.182474 -7.009052 
7.708538 28.540174 -1.822706 
-9.131836 17.721756 -10.034813 
4.440394 29.279804 0.368705 
-19.798691 -2.728414 -9.463606 
-11.801913 30.425508 -1.281483 
13.669454 27.282415 -8.972612 
-20.870031 22.169231 5.631948 
2.300255 38.283516 9.226161 
-9.710300 33.961121 5.063104 
15.687134 7.651564 0.148509 
4.468652 32.290726 2.336549 
3.509023 30.996756 3.152914 
-14.148678 24.022070 1.224549 
-15.792102 7.680904 -0.611978 
20.448963 2.124259 -4.098807 
15.957873 1.868490 -10.176558 
-13.962886 23.038618 3.230243 
22.685699 22.036314 11.546056 
-5.010990 39.964001 0.302450 
-12.620321 24.006819 1.720425 
12.461727 14.794186 1.114459 
-17.830896 30.908756 10.207407 
-9.588707 24.711391 13.615444 
19.265163 -1.998284 2.651801 
23.108580 16.709059 5.381222 
15.308537 15.953029 8.435743 
-13.917297 17.013918 1.727082 
-5.406697 34.449535 3.962622 
-7.640835 32.438187 9.102262 
27.311731 3.059600 -2.291244 
-24.709118 3.974199 -2.297164 
-8.273431 29.493168 -5.002223 
-0.438426 32.871082 6.847036 
4.239887 31.566862 6.478500 
-10.012656 29.996513 -2.170200 
17.041254 3.733973 7.702057 
26.173742 2.176949 -1.550022 
6.898083 28.441061 8.004316 
-9.157280 27.514029 9.200047 
15.852637 7.132666 7.784698 
26.119463 -0.204231 0.765677 
24.504404 5.407287 2.262547 
-20.170750 12.510101 1.059884 
11.216843 26.793066 2.160942 
10.425867 31.972830 2.766835 
15.453773 25.171095 -10.763133 
15.305862 3.980342 -2.862699 
14.354076 7.181481 -3.482188 
-16.660257 20.895800 2.005434 
22.553127 11.912347 4.374215 
15.680073 18.719734 -6.056423 
-13.420757 12.882295 -2.155755 
25.650715 2.739917 3.082617 
14.744495 18.158138 -2.367080 
-6.148913 25.570236 -1.311364 
7.520909 28.338472 4.347812 
18.323538 2.120390 1.455354 
-21.974264 0.726021 8.920794 
21.999451 -1.490297 3.976727 
-21.354036 5.240314 -0.578445 
-6.526072 29.575203 -4.771904 
4.206531 39.980541 1.964658 
4.231831 34.036469 9.888547 
-24.831415 0.381594 -1.472232 
16.128096 17.202982 2.187039 
-3.273261 39.245064 10.414777 
-5.657711 21.762955 -5.913728 
23.819139 0.372093 10.060427 
13.917292 10.408056 -4.354853 
-13.288683 30.222635 5.148172 
8.819803 38.654724 2.643736 
3.928716 39.858013 1.060478 
-21.363985 14.407313 -4.900350 
-13.964146 14.540710 2.122783 
17.001736 -1.086955 -2.762155 
24.953930 -2.275737 -6.996177 
4.845144 34.275089 6.822390 
7.990143 29.209192 -9.438001 
20.847015 25.186340 6.572548 
-13.876020 11.819873 7.852539 
-8.988417 21.152119 -2.557914 
21.139936 22.846886 4.397533 
9.892344 19.688028 -3.554221 
-17.374599 33.028366 9.033978 
16.668194 5.238699 5.280107 
-12.743203 12.498889 -4.202576 
21.515631 9.085967 2.770631 
12.958797 20.807842 -6.176126 
-12.123919 28.511269 -5.389028 
7.533632 33.042286 0.641834 
-15.932570 27.564287 3.335098 
25.348808 3.723410 3.083862 
16.836086 4.630258 5.650499 
-15.699182 33.248436 13.857103 
16.365314 11.624207 2.873685 
11.092625 30.434210 5.507448 
-7.974621 25.377556 2.015590 
-25.845730 0.870910 -0.952837 
-14.964831 3.138891 -10.104471 
26.840300 4.911896 7.196481 
-2.317938 40.959076 1.388799 
-13.718145 22.613565 -2.522258 
25.493055 0.677509 -1.701266 
27.543804 4.922142 9.801199 
-3.932023 28.836369 0.486011 
9.111530 21.054041 -3.469654 
7.669317 36.296722 15.622436 
-16.301758 16.818588 6.127831 
12.586490 35.331104 15.455516 
1.776591 26.267147 -2.329273 
-22.605772 21.244076 11.603255 
2.072072 23.273537 -10.119472 
26.421270 6.228821 4.350883 
-21.841223 14.586832 5.655985 
-12.097947 28.819345 5.889214 
-18.645393 4.505056 4.191966 
16.407907 25.215630 3.187790 
-15.085255 16.488607 2.757010 
-17.317425 20.583071 0.605753 
3.945380 28.062538 -2.538966 
-3.236095 28.793867 -1.239005 
13.988937 8.171541 -0.438356 
-17.033194 23.663177 -6.065597 
25.163345 7.697041 -4.089126 
-22.862816 12.660481 4.293697 
22.698214 4.993955 -3.658162 
22.454800 16.996237 4.634093 
17.948044 26.973047 3.605783 
20.867435 18.561811 1.928160 
-17.943430 14.239675 9.083700 
17.983500 21.670523 -10.815434 
24.304579 14.603529 14.286457 
26.066584 3.859865 8.371817 
18.479401 1.592754 12.768538 
-10.704932 30.108797 -2.651246 
-18.433777 16.184654 1.823561 
25.908312 2.137126 9.270598 
-1.735355 31.420067 -6.081831 
-20.634293 14.684396 1.606639 
-4.399245 34.608444 9.503939 
-24.849661 0.028487 2.362005 
11.144576 22.594412 -1.464875 
-18.548843 24.078686 6.491850 
20.927792 4.456303 -4.114204 
16.582470 5.978507 2.252836 
-25.800169 5.619962 10.476659 
-0.670862 30.513840 -2.908262 
14.208289 22.830353 -5.284077 
19.721100 20.314634 5.159975 
18.871471 1.765142 -1.252640 
13.617483 26.271994 -5.316631 
21.840691 23.407471 7.303916 
-11.650417 24.678669 1.099764 
-11.657297 20.708807 -1.651628 
-21.800285 21.825727 7.432427 
27.502010 7.955881 11.882150 
-11.708796 11.265846 -1.049960 
18.669016 9.478843 -3.565535 
-15.930958 4.000210 2.464372 
19.264750 23.126465 0.927003 
-10.562630 24.238493 8.943274 
18.070362 -0.719676 -1.760998 
-20.814867 -0.901141 2.310352 
-15.655661 33.029987 14.902143 
12.309378 21.016140 5.478915 
-20.826405 12.884727 5.864153 
20.702150 -2.951713 2.706512 
-15.433142 18.507656 5.062407 
16.290333 8.148908 7.662852 
-13.028878 13.573853 6.887082 
-8.957197 26.575031 -0.457029 
-6.871293 28.415892 -0.609798 
22.393629 -3.618263 1.577921 
-1.393821 31.657837 8.913080 
19.877295 10.386057 -1.732417 
5.183187 23.604227 -3.160527 
14.927687 13.212657 1.421977 
19.794546 5.292377 -4.033197 
-14.419346 7.722834 -0.125815 
-12.539677 27.159039 7.701597 
15.452231 22.070959 -5.982662 
-6.971888 38.137920 1.327563 
6.178415 37.180614 3.755450 
-21.461527 5.019788 4.375923 
-13.830202 27.021547 -7.818777 
-19.734102 22.232838 6.121488 
16.842344 5.132205 -1.886096 
-22.684256 19.302649 6.941658 
5.718504 33.630444 0.840163 
7.831503 30.710810 3.257023 
-9.737384 35.695034 12.052009 
10.303419 26.094700 -0.028471 
13.642228 13.108315 10.335163 
17.764803 10.056413 7.675519 
25.879662 7.167198 -3.305005 
11.677749 29.041355 -3.969677 
13.288070 12.482045 -3.830930 
-17.812368 30.608599 8.929557 
19.442627 22.301954 1.085684 
-17.019226 6.969389 -0.485644 
-17.203285 19.362471 -1.578486 
-22.052505 16.117186 5.561099 
-14.892152 33.809742 12.380534 
-11.258689 27.817463 2.513222 
26.547224 -0.136159 -5.343820 
22.666323 6.233746 -3.345177 
8.705527 26.168943 2.788450 
-17.111666 20.149496 2.158226 
-3.005520 40.636475 4.501403 
7.321500 34.345936 7.360763 
7.288675 28.016676 10.988126 
-2.404307 37.011616 10.481633 
14.668235 33.542103 9.180272 
18.763601 3.108045 10.554734 
-16.841084 13.488907 -4.553469 
-20.573973 13.589713 -1.240742 
17.466524 12.833757 1.800310 
-22.975479 18.521172 7.240979 
-22.953875 2.671182 8.981134 
24.772427 13.385985 7.220266 
-18.696272 22.093561 5.352836 
-10.957539 28.193024 -9.863026 
-12.126241 9.274461 -3.490240 
23.992245 -0.936718 2.879819 
12.662832 9.932494 -7.497021 
-23.026669 -3.221537 -0.434352 
21.602121 9.484152 -1.304402 
-1.069639 40.400414 6.616355 
-9.369797 33.841682 1.815075 
11.976844 24.014614 4.381557 
-14.419229 24.793087 9.238828 
19.280432 10.213085 1.801123 
14.744614 8.059988 0.504105 
-5.833119 25.321539 -4.129574 
-13.868004 15.815754 -2.163065 
-21.817688 7.917017 4.892514 
-16.370237 2.729349 2.198371 
11.953356 20.075644 1.102326 
15.823405 23.186707 -4.684713 
-6.822787 39.696808 1.707376 
-21.775137 11.273319 -2.064995 
16.681036 3.980930 -2.117256 
-10.815833 14.748365 -11.336815 
14.335230 15.938524 14.598812 
-16.633629 20.604492 -4.948756 
-20.716261 0.675588 -2.860501 
20.741165 24.967182 4.398776 
1.434299 35.463535 2.992215 
19.521183 19.742462 1.564942 
-22.320385 -0.888167 4.083352 
19.355757 18.343626 -11.908972 
7.539819 28.251261 12.251848 
-13.572072 14.837237 -3.460952 
0.626901 27.203997 -1.474743 
-15.443213 9.082106 1.671843 
-11.482767 18.785410 11.791069 
13.068534 25.726046 5.911728 
-6.139223 29.056995 5.967371 
6.150318 28.111788 4.455237 
-10.334805 21.899351 7.953530 
17.008060 11.842791 1.437944 
-24.295420 15.880383 13.648659 
22.244724 8.659792 0.019298 
-12.432083 27.141035 2.833867 
-13.177737 27.664381 -7.598653 
-7.609452 32.475708 6.159297 
12.799562 12.488803 -2.523200 
7.561723 26.399273 2.566067 
-16.563023 22.411245 1.357578 
-14.045137 23.704023 -2.321262 
-13.728214 26.848272 -8.777276 
-16.828737 20.389639 7.371326 
17.023605 3.540903 -2.740896 
-25.387821 3.491509 5.634779 
18.921846 20.670204 -1.662343 
9.777790 17.417147 -11.749639 
17.117531 18.364975 1.585374 
-3.395257 28.043196 3.284877 
17.995678 9.001559 6.724392 
6.364758 30.548002 4.698326 
5.065382 26.227613 1.220325 
-5.504190 31.888697 2.541877 
-12.677846 11.057913 -3.488258 
6.757377 21.591297 -6.604447 
-8.677376 22.807463 -1.774409 
17.309542 2.885189 12.967190 
-12.685868 8.150770 -7.546644 
-15.642533 17.098093 -0.308392 
16.010050 18.557667 -2.489009 
25.274889 7.794268 -1.463458 
-2.882970 26.122564 -1.586278 
-6.670077 24.583801 -2.166564 
12.400126 12.211596 -0.315084 
-25.771715 3.822344 7.794904 
20.591358 5.346864 2.383324 
-17.421003 32.384430 7.251239 
13.423881 20.650101 3.446253 
14.594632 14.591504 1.599340 
-1.921600 38.967812 2.655038 
-12.228460 15.817896 12.381849 
-1.213541 38.764614 2.311507 
3.538774 25.853947 -2.990238 
12.230107 28.171036 -8.954803 
7.507868 39.629791 5.329490 
-13.636711 12.769426 7.156271 
17.237072 4.305267 4.909846 
-15.729291 10.531607 3.048878 
18.295174 19.441433 1.562249 
-17.767231 3.861169 5.395201 
-21.469395 3.592865 11.183069 
2.054465 24.553406 -3.088735 
5.975336 29.123346 8.137619 
-22.179445 22.622652 10.470349 
9.443728 34.483730 6.627595 
4.689043 27.938261 -4.506436 
4.274542 30.641539 -7.385820 
26.182560 3.385621 5.163728 
8.514215 23.191395 -2.665533 
13.846866 27.575382 -1.893709 
-15.970951 24.441992 -8.920513 
2.363333 36.127178 10.318620 
8.048165 27.634188 11.274472 
8.133172 37.776508 2.506632 
23.408613 9.200105 -10.986668 
-11.388049 13.202804 -0.357914 
23.013969 20.040386 10.808572 
-2.944036 26.869877 -1.988121 
-17.074219 27.527470 3.960623 
13.624355 15.080521 12.028256 
-12.697581 15.060095 13.900893 
23.199532 10.807767 9.503573 
9.059340 26.969841 1.513541 
22.167755 23.261110 14.703810 
17.693571 4.196059 4.163754 
-8.770688 26.610937 12.139210 
24.642193 7.714907 -8.547882 
-2.296393 37.076523 15.911460 
-12.161253 28.268909 3.136098 
-6.621663 36.673908 9.203203 
-6.854732 24.134642 -3.778274 
-25.354553 2.939543 3.175071 
-20.510744 7.671319 11.040579 
9.795573 27.327421 -0.150512 
-14.681906 18.651936 4.899215 
24.456230 15.019839 8.648512 
-0.688128 34.379349 7.408024 
-23.005653 -1.894143 3.617799 
-0.473941 33.407066 6.154637 
-16.391846 1.070222 1.247713 
7.553210 21.760288 -4.976031 
-21.343275 13.325007 2.955181 
22.726587 8.489386 1.842682 
13.904995 6.935288 -7.522643 
-10.563475 21.939701 -0.524280 
1.355643 26.382515 -1.696854 
-25.248964 12.038107 5.765400 
13.894435 8.282376 -1.140225 
-17.134800 23.787573 0.307962 
-3.209956 29.093008 -3.723801 
-12.410986 17.200361 7.558863 
4.522738 28.242012 -1.121804 
-9.326451 19.871552 -2.535756 
14.764650 15.902709 -2.356819 
-8.448982 32.179237 1.068089 
12.589610 24.710056 4.907516 
-25.431753 1.098524 2.423047 
12.734025 24.054382 6.837809 
-17.790588 7.204046 10.284297 
-23.512344 17.722588 9.634538 
21.792820 0.045293 7.337770 
-11.728113 30.426792 0.056094 
-20.665808 15.352201 -9.546170 
24.562311 11.657364 7.990386 
-6.764630 39.692219 5.076023 
-20.209715 10.957241 9.600425 
7.274487 33.392448 8.406340 
2.606926 24.437643 -2.445472 
-16.401516 17.242186 8.784591 
-15.237165 22.061817 6.368528 
-0.377983 23.782907 -6.427164 
-6.659637 39.986370 4.140754 
4.136547 32.588509 8.376424 
20.552435 7.693557 10.733335 
9.900167 35.977882 15.551699 
-3.237262 29.669548 -2.191094 
-14.788789 23.176510 6.468098 
3.213173 38.635796 10.833051 
14.340023 24.890419 2.884934 
-7.240954 36.268646 7.487455 
21.116997 13.998129 5.257627 
12.541085 35.245872 13.759976 
15.448950 10.295999 5.182597 
-8.019224 24.353312 -4.829591 
15.934700 11.241001 0.751415 
-15.684349 27.637306 4.200840 
-5.719193 34.525356 8.991888 
-2.733445 25.403753 -0.469568 
-11.008495 27.826023 10.322278 
-22.828384 11.536063 -4.487710 
-13.557144 27.136425 -1.965465 
-19.361586 17.270500 -11.542232 
18.770252 20.118004 -0.792528 
-7.405606 36.333458 6.306127 
-16.758783 3.273425 9.652160 
16.564556 15.079415 2.457803 
27.607817 8.055173 10.211386 
-12.257361 25.815517 5.043796 
9.379698 33.700752 5.928055 
-12.151366 18.068275 15.369367 
-26.820309 6.241789 12.518829 
-15.096796 19.198719 -5.206368 
-1.741295 31.730648 -1.664283 
18.256529 8.252013 9.960536 
-14.250424 10.100740 8.722974 
17.841553 19.757683 6.656077 
-23.617235 17.738735 10.915598 
-17.873564 20.759090 6.767822 
-25.193489 5.890326 -1.715607 
-12.577783 16.560102 15.317209 
-13.183910 11.589725 -4.296577 
13.838858 20.914827 8.191356 
-23.155294 4.452557 3.652117 
-26.320389 2.204615 -0.971945 
8.466075 24.269575 -4.260518 
14.093832 16.863432 3.638982 
-9.596633 29.315109 -2.751202 
-7.952444 19.328501 -11.831084 
-23.234833 8.442065 1.098896 
-8.823780 27.019642 1.962574 
-1.576576 23.093401 -10.051414 
-14.941735 6.500281 11.517584 
-4.608043 39.373085 0.558436 
-17.600637 5.699870 -2.759231 
-21.788559 23.902378 14.202462 
13.307638 23.692009 -3.761990 
-19.476107 9.194363 10.331717 
12.727204 26.145145 -5.625048 
20.110697 22.321634 7.964232 
18.977530 7.797358 10.348574 
13.238295 28.044920 -4.147638 
16.303598 6.052499 0.503646 
14.888140 18.835833 1.347726 
17.724979 21.151026 8.446493 
-24.347664 6.232844 4.135273 
-18.505421 25.621809 2.100534 
-18.520081 17.773935 -1.951427 
13.512725 28.145052 0.530510 
8.238762 27.896267 12.479537 
-25.969437 4.555722 1.206381 
