-6.062344 25.790903 12.244553 
10.245353 11.838103 12.379773 
-13.411375 19.732807 15.016705 
-9.209486 27.768988 -5.399327 
13.283602 13.234563 -3.580290 
-20.224977 1.558078 5.977187 
22.815409 -7.232757 0.978877 
1.647297 28.265875 8.100036 
8.875721 17.541342 12.822790 
-20.010014 6.695082 5.060460 
2.256468 28.503180 3.270717 
-8.720176 23.337290 12.281919 
-23.524000 -4.648738 11.662805 
1.654280 23.643833 -2.849983 
-18.615778 10.813178 11.719923 
-18.414665 12.527206 6.928366 
10.688860 10.262572 13.413644 
-6.537206 18.454653 10.918752 
-14.070491 6.111084 6.492323 
4.663777 20.032526 -8.437956 
-19.774994 12.939346 8.481552 
13.323647 10.983945 8.457544 
-26.871220 -13.906260 10.115895 
8.269251 12.479414 18.764267 
-14.184284 16.490757 -1.975443 
19.993778 5.229812 4.303603 
-12.828221 24.844423 3.262299 
28.305349 -8.174876 7.735595 
-11.048703 18.161043 12.069059 
-18.014637 0.977668 12.864115 
-25.879904 -0.345249 13.476036 
-21.406572 10.564520 19.045126 
-23.552568 -4.801651 -1.664629 
-8.623272 21.187685 7.165975 
-2.327629 25.711861 2.402448 
29.059755 -0.083038 -5.626945 
18.303043 14.046037 18.712164 
28.191299 -6.305128 1.795348 
-6.303093 25.502369 7.371615 
21.607477 5.646852 12.327571 
-24.631731 12.009097 -4.644482 
11.350515 21.157644 12.620854 
22.728491 -8.097419 2.306416 
-4.427675 25.366489 6.520215 
22.291666 -0.932212 4.759957 
-21.071060 9.161385 5.642004 
17.181953 24.227718 -4.526671 
-28.708950 -7.062971 12.655790 
-0.464704 28.372036 -1.180907 
-12.699018 21.817739 -4.959494 
-15.873706 10.365636 0.331970 
-16.178520 11.041890 -0.092468 
-22.882256 2.640579 14.213097 
-28.812201 -6.523265 4.292632 
-12.492942 17.332445 -0.890704 
-16.252432 21.491392 3.766617 
11.716888 18.924255 9.473625 
2.975097 28.331606 -2.800307 
-11.628306 13.407624 10.037440 
8.804991 27.065540 -2.150927 
26.173693 -6.909879 14.284015 
-9.391467 17.222012 -5.786616 
3.070839 28.325550 4.592334 
-24.376648 12.018440 1.334672 
-20.979010 -6.480945 -5.672724 
-18.427425 -7.711778 10.598269 
-1.818485 19.740183 11.546821 
13.490066 12.099664 -6.103674 
-16.236122 18.821087 11.285243 
13.419593 0.935567 13.318367 
17.459396 16.167793 16.629660 
-16.600908 16.290730 -3.434906 
21.116776 11.729385 -0.101247 
14.993554 16.988724 4.248935 
-18.927612 12.125212 -0.192919 
20.619928 -6.900416 1.247772 
13.682858 8.720510 11.793701 
-7.843885 25.754961 -2.308889 
16.446014 19.658480 6.951623 
13.982241 -2.090740 11.267008 
-6.132219 20.133875 15.609661 
19.734934 20.804007 -2.942709 
-15.833728 7.753191 13.250256 
22.440285 -4.248834 12.029573 
17.152998 15.041018 6.682383 
-5.873544 21.449934 16.546753 
20.441690 -6.799390 -0.912612 
-10.026702 18.289522 -3.301787 
-6.076705 24.200270 0.387407 
16.440702 21.515221 4.013242 
22.989052 5.670009 -2.160206 
11.714100 25.088112 6.828192 
23.605846 -13.159747 12.214676 
16.839699 4.162032 -4.330957 
13.365077 9.632649 5.095112 
12.299913 19.916735 7.884060 
-13.306280 16.081072 15.003511 
17.179173 -11.528585 9.778751 
-14.325901 10.124702 -3.139971 
7.172440 21.962852 -2.005134 
9.418034 24.180386 8.627359 
-27.928362 6.028061 -3.939481 
-19.805590 3.375293 4.939241 
-17.799070 17.903387 7.547492 
16.046413 -0.474039 11.171070 
-18.262762 3.881936 7.370299 
-10.048119 27.363588 0.253107 
-26.904259 6.617906 -7.341225 
-15.149902 16.291580 16.096003 
-17.596331 10.355970 -0.671033 
-8.001061 25.322798 7.516040 
6.016386 24.101254 15.980760 
-8.566957 22.967581 15.291655 
-24.900631 -9.630298 7.343432 
17.847141 5.773347 8.162171 
22.599270 11.172688 5.768832 
27.521009 -6.456104 0.369376 
22.138685 -7.044087 5.060385 
24.394566 -2.458072 -2.459003 
-26.464359 2.805410 10.468067 
16.891417 18.773985 11.806417 
16.658371 12.542420 2.839282 
15.088928 2.634740 7.175150 
22.063732 8.344077 11.390643 
13.322889 15.276913 -0.052001 
-15.800787 7.341739 -0.583367 
10.256420 21.599062 13.721083 
-15.945468 -2.744588 18.356438 
18.400328 1.574734 -1.282145 
-9.902199 17.374281 9.116446 
6.154335 24.018883 14.579612 
24.343502 -7.830820 0.280329 
-17.344408 -9.605746 11.673489 
-13.445617 12.655053 -1.256301 
-11.422374 26.910557 -4.872630 
-25.360558 -3.830192 11.438707 
-17.484869 -8.199101 9.844879 
19.281551 1.468979 3.332403 
-9.010912 22.148605 10.330884 
22.843466 7.055452 16.850807 
-6.045341 25.488829 4.907444 
-19.550861 15.348844 9.456800 
-12.047598 14.408549 2.219497 
-16.759838 20.626080 1.377221 
-4.802100 22.375622 17.040257 
-29.196239 -7.552742 8.473495 
11.371555 7.169874 12.207322 
-22.881945 7.576255 6.532491 
16.106129 19.802734 9.269121 
18.420053 9.434251 12.620486 
-10.354273 21.737158 -1.282488 
17.358992 17.390646 13.829699 
29.185146 -2.209596 3.853766 
-0.741345 23.090870 11.839431 
9.267319 28.541950 -3.486635 
23.399137 -0.956792 11.631196 
17.824211 11.096527 -1.681570 
-15.642192 5.720885 -5.107165 
9.747353 27.751375 0.036935 
20.419889 -11.515427 7.767610 
-7.196564 17.230925 10.497815 
23.558352 13.534653 1.907919 
-23.281450 -7.822251 15.273820 
-8.987690 11.752705 17.067310 
15.612701 3.471293 11.301829 
12.334651 8.131454 7.511258 
25.411137 -14.530005 13.883995 
22.319378 17.024178 -1.266754 
23.200745 -4.701540 13.301682 
0.646383 25.404810 5.657551 
-16.838272 22.434898 -4.203457 
0.644235 21.327484 -6.165200 
12.913411 20.918261 -4.158941 
26.499844 -1.948197 6.604459 
-0.213348 24.409021 17.545200 
11.436749 18.742643 8.627734 
-12.228336 5.495921 12.787900 
-4.400388 26.904337 -9.410115 
-20.682756 11.688620 -2.285081 
-6.527272 18.961946 -7.359813 
12.464424 19.463539 10.821848 
-5.953686 21.068661 -3.902622 
17.002171 6.215019 -0.753347 
22.044851 -3.921165 4.344834 
-19.762077 8.636200 -0.779093 
10.336954 20.388838 12.966178 
-4.768383 23.324608 18.636045 
-16.610390 11.219606 11.215766 
19.521431 13.265266 0.925090 
19.147175 6.434361 10.115558 
-25.278921 7.933207 -1.068378 
17.670204 3.955291 3.327455 
-23.766724 -3.013278 11.487877 
-23.842243 -3.674753 12.550192 
-17.492031 12.718630 -2.482946 
24.932419 -7.885757 0.835676 
-14.004825 13.567071 -3.051645 
20.808922 18.018093 0.784937 
23.711699 5.919962 -1.964965 
-0.425484 28.722118 -5.064530 
-2.356327 19.597679 10.798607 
-28.093885 -5.679317 3.297562 
-2.382034 28.709150 4.286123 
1.700747 23.151827 10.047840 
-18.346334 17.907480 -1.257425 
4.657479 19.828386 13.179032 
-20.586853 -4.648485 5.324354 
-20.243738 8.384954 4.048637 
-13.287589 3.332934 13.804678 
-16.019747 2.491465 11.218711 
8.397079 17.042837 11.987160 
-15.510840 19.286543 7.759387 
27.892984 -8.738821 14.737906 
-6.624555 26.440338 10.574803 
12.255107 5.525606 11.340546 
-18.872311 13.026752 2.304883 
-16.876642 1.907680 12.024549 
23.247141 16.040131 -4.636396 
-20.664400 9.822659 12.225945 
23.164696 5.593003 12.184562 
-3.393559 21.900873 -3.728021 
-19.919680 -13.018061 9.509921 
-23.805418 -9.632043 -1.002390 
22.711500 12.209700 -2.056827 
-19.609703 9.111722 13.268884 
15.068153 18.660624 -1.318663 
15.468929 9.193007 2.632289 
-22.614532 -5.104092 13.010418 
-21.407715 -1.026430 0.409691 
-21.581699 -7.910591 -3.123706 
-16.007750 12.651342 7.254467 
26.826403 -12.369679 8.566840 
0.932319 16.953773 16.194256 
-28.317560 -7.121734 14.161752 
16.132799 15.638054 -3.235251 
-24.083202 4.332801 2.116124 
13.710396 14.925506 -0.632095 
11.056573 8.254370 13.792181 
-23.894337 -10.493822 5.737417 
-21.917076 -2.038006 6.611038 
2.913991 28.371521 7.580105 
-21.532288 10.364655 12.953444 
-29.117977 -10.524286 7.640053 
-14.225582 24.864857 1.809296 
12.992913 4.294220 11.642996 
-24.784185 4.734204 4.957414 
-22.116486 9.655606 13.610312 
-7.206771 20.829353 9.648866 
7.622316 24.598982 7.394380 
-25.479914 -3.729423 7.310964 
19.891630 5.445189 6.007185 
-3.500639 24.098600 -4.039047 
-18.064293 14.642452 15.251225 
-5.598895 26.179073 4.726837 
-21.604977 -7.911994 3.910365 
-7.422029 24.952330 -5.369533 
25.216383 -0.040318 8.470923 
-26.252766 -14.049386 10.740569 
14.050781 14.052892 2.306855 
13.999465 12.715505 -2.584640 
0.800535 27.734591 5.340001 
-14.928107 9.922530 3.266849 
29.119812 -3.031244 4.037615 
21.504009 4.006436 1.085467 
14.993384 9.466084 -4.424803 
-2.305359 23.087975 -1.367815 
-25.336432 -7.863421 7.669668 
29.727028 -2.734973 2.088166 
11.455924 17.268751 12.515638 
19.869629 1.194798 4.971923 
-22.765192 -9.309554 15.178232 
21.897457 10.328193 -0.254215 
19.584576 -13.243486 7.915237 
27.806690 -10.226203 14.183589 
4.895941 23.477972 16.307198 
12.497521 21.673687 6.609751 
1.635159 26.288580 13.935557 
-26.242109 -7.964876 7.655020 
14.113426 19.504351 4.447647 
5.618462 27.887144 3.132069 
-28.384428 -12.652194 8.446474 
18.441322 20.464630 -0.137911 
-14.598529 12.128330 8.093034 
9.190500 18.754595 11.001686 
-22.220411 -12.457076 6.177480 
14.689317 1.081801 5.939075 
-10.859902 23.331970 2.376382 
0.969432 28.734577 -5.286103 
6.480397 22.134441 -3.587323 
6.504720 16.315765 11.361728 
5.439723 24.382839 -0.196530 
-27.319468 -7.930678 3.845261 
11.002322 25.894367 -0.039856 
-20.884817 10.461775 10.961294 
10.853790 20.171535 -3.491705 
-22.091167 5.830698 9.254295 
11.647136 16.349581 15.164633 
-28.895485 -5.455953 8.187066 
-21.480932 2.699438 -1.030896 
9.887770 25.903635 -4.521974 
10.366785 23.967537 3.893550 
12.330086 9.007729 8.925377 
-11.536759 18.413774 7.709690 
6.675444 23.358408 7.601050 
-7.262725 27.261875 -1.762812 
0.020096 20.811804 12.433073 
13.188998 25.763601 1.248444 
-17.919258 -9.052482 12.022538 
-20.619331 -13.306188 12.758040 
16.965687 -3.649639 9.210802 
19.756714 -7.980580 11.955075 
-13.317076 13.574685 8.398022 
-1.070381 21.906517 -4.346431 
27.511389 -11.526604 10.323614 
12.538853 26.513216 -2.704930 
14.958306 18.263988 3.194070 
-23.087059 -16.023075 13.266622 
-20.155329 5.333871 -2.804820 
-2.376600 27.806713 -4.393648 
28.907387 1.093234 -5.770601 
23.549124 -9.028399 5.324369 
-23.192743 10.504866 0.387393 
2.145291 20.156305 10.882881 
-10.838295 16.443657 -3.969579 
-23.468739 -4.990825 5.140583 
-16.516701 23.047995 0.661017 
-14.882713 12.938942 2.504250 
-23.340542 0.969392 7.569500 
7.833108 19.676321 8.804806 
20.945965 -0.207269 0.050974 
-10.864176 21.724962 13.843380 
28.456287 2.920211 -0.433374 
16.078342 -9.677256 14.022549 
16.978472 -0.377098 4.180280 
-13.060963 8.958483 9.418725 
-7.408933 26.725967 -3.902456 
-18.046967 -1.095164 5.744274 
-25.562574 -8.501357 2.328318 
25.244862 0.817111 6.376545 
23.492918 -5.481633 13.585591 
1.349663 27.220737 12.198130 
-16.692039 18.488195 6.694138 
5.258184 27.910805 6.310852 
-7.240695 23.587240 -5.096247 
27.378281 8.394047 -3.183121 
-18.723209 -11.113389 8.513147 
-17.322672 16.224407 17.428600 
-12.805506 15.617189 2.905326 
2.491930 27.786806 10.245665 
-13.533763 23.477858 6.075445 
6.660253 27.371071 -2.062916 
17.645567 5.396005 4.646131 
1.293170 27.847727 -3.759009 
-20.231089 12.088145 12.604655 
23.415411 1.713975 1.743664 
-24.673277 -3.569063 8.288787 
19.554693 13.903517 4.100895 
-16.385128 -1.094360 7.322870 
5.562297 14.676478 18.900476 
27.472395 -2.279053 -0.810159 
-3.697202 25.088348 15.491986 
-21.302673 12.787045 -0.127995 
-4.429926 28.682562 -0.816867 
21.840950 -8.990044 3.674332 
-11.380430 24.059816 3.483804 
-2.517527 22.866495 9.379952 
17.169436 10.829285 5.058187 
16.134718 19.597324 4.288728 
15.812080 6.747330 5.865102 
19.962400 -3.772144 5.320726 
5.975811 22.459070 -2.839959 
-8.198733 21.223295 10.380980 
-23.793434 5.824906 10.050474 
-16.234858 4.668007 12.326673 
-20.903440 -13.567232 11.884198 
-20.254871 -3.888514 -0.442995 
0.600568 26.570272 -1.980772 
9.195384 26.089352 -4.847327 
-24.859060 -2.325538 13.715444 
-2.598658 29.103083 1.171715 
1.754405 24.575165 -2.255516 
3.994201 22.217798 -2.553856 
-21.773989 5.044021 5.951024 
-1.574317 20.831852 -7.422150 
-2.821345 26.124140 5.480711 
0.409248 18.073860 13.791971 
21.290749 -11.758347 5.222742 
12.574183 7.334376 10.198758 
21.614622 13.448766 0.231951 
-1.126557 24.827593 16.618498 
-20.587641 13.409020 3.373827 
-24.415508 7.403667 1.119891 
-22.371679 -6.223039 6.679580 
20.573383 -12.589144 5.999423 
-26.487455 -0.488588 6.794554 
24.005119 -1.331527 11.046883 
27.984339 -5.551042 8.521577 
19.944510 -5.551061 -0.064262 
-17.632679 1.933420 5.830192 
-9.000977 20.819153 12.766557 
24.662554 -6.862032 14.066087 
17.610985 -11.619429 8.848083 
-14.239776 11.473618 8.851691 
-17.571421 16.920242 14.333166 
17.173727 -11.745533 12.999929 
-4.772866 21.429710 9.973272 
-27.311213 -8.192551 3.110486 
12.788967 15.862562 11.758807 
14.377749 22.301954 7.935467 
-27.840399 -6.297111 13.598455 
19.037605 -2.297795 -0.903874 
-23.857828 -11.712435 6.059498 
10.493395 12.025580 11.594337 
-28.544785 -7.328538 15.386017 
-28.436289 0.332775 5.268032 
-30.541964 -3.893945 -4.527274 
7.183506 28.380932 -4.249017 
23.532120 -13.489423 11.371993 
-1.758717 26.858700 -4.239388 
-17.710997 18.145378 9.390541 
6.356293 27.491909 -0.291029 
-22.187622 15.288659 -2.418833 
13.316681 26.245667 -2.800431 
5.730057 25.712397 3.288208 
-20.174652 6.067261 3.591321 
-15.013854 7.396646 -4.951989 
21.143040 11.171766 13.671319 
-25.177443 -3.131728 7.858520 
22.103146 11.766022 -2.352718 
4.896199 23.146257 18.499386 
22.593445 17.058125 -2.798038 
-28.721048 3.944206 -2.014666 
-28.404325 -3.939738 3.034948 
-24.836517 -8.570452 4.899429 
-18.360336 -8.422576 9.782331 
-24.900127 -9.947173 15.764438 
14.959999 2.716983 9.741035 
26.200539 8.696342 3.597170 
-20.671762 10.873252 -0.147027 
-17.558706 13.147813 6.399744 
-24.483671 -6.867637 7.196336 
-24.005054 -3.512479 5.554680 
-24.307556 5.779224 9.491444 
12.690426 24.548435 7.712863 
-16.283991 4.125785 3.835047 
-7.555702 22.055508 19.408165 
20.233095 -3.021564 8.772061 
-16.028149 19.074005 3.229561 
18.465609 -11.864923 7.399142 
14.054027 24.678347 -8.842862 
-18.368811 2.683659 12.816959 
-28.125477 -13.455078 18.008951 
12.828551 25.935791 -7.435420 
19.262848 7.218570 9.433490 
4.763600 27.487448 5.720922 
19.257360 5.464227 5.544258 
-26.049643 -4.475555 11.305791 
-21.400049 8.220510 -2.818255 
-19.216782 -5.144718 10.674492 
4.845884 25.969681 8.173009 
-7.262421 18.537951 -7.127843 
20.385969 18.142658 -1.255781 
-16.421993 19.030180 7.887969 
12.677049 12.260499 14.053068 
-0.336396 21.315149 12.983159 
18.078173 -0.002006 -4.684923 
-0.761993 17.479204 14.536556 
-15.223243 7.016714 13.051458 
-19.216103 14.731809 11.993760 
-22.399338 -3.708154 4.796933 
-18.313637 12.541679 1.454400 
-15.151185 24.764427 -1.919125 
24.008778 -8.717526 13.880925 
-4.786946 27.294962 5.379177 
-24.393660 -8.721978 4.234097 
-24.926462 9.456209 4.311447 
-8.145234 24.702667 3.407477 
-8.471280 20.189091 12.964687 
-6.465474 25.780056 5.701393 
-16.966486 21.696075 -8.989344 
-11.773819 13.495777 -6.804575 
-17.311819 22.694223 -1.659725 
16.527683 -7.703327 9.342197 
11.230649 10.089666 12.189669 
-27.718313 -11.255249 7.191106 
21.094120 5.439837 13.054857 
-15.098674 10.024411 -1.586802 
-2.468504 23.430855 -0.440970 
-10.657276 21.409367 6.276791 
14.752363 17.763432 18.929785 
19.661148 2.599155 6.307324 
-18.051014 8.400467 4.283265 
24.740971 -10.981958 6.852982 
18.745653 -3.350719 1.486839 
15.360382 8.760791 5.078916 
26.799776 -7.366700 2.474666 
18.431974 17.658102 4.786870 
13.176133 25.892094 2.254832 
-25.565214 -1.159314 1.714306 
9.827215 23.939051 -0.434872 
-22.891367 -8.744990 -3.951810 
-26.556335 1.389068 11.269407 
-11.783229 21.657713 10.491799 
7.552804 27.966915 -3.003936 
-8.057601 27.166718 8.622683 
-15.296082 1.231389 10.319811 
-14.299300 0.030749 12.861509 
8.361005 23.338552 -1.829752 
-22.978270 14.103258 -6.221462 
19.152304 12.621933 5.845534 
17.129391 -8.492519 9.314317 
12.209909 11.269140 12.802593 
25.001730 -7.579741 -0.666153 
-24.881849 -7.634266 2.439698 
19.847433 16.837208 -1.996688 
21.086500 7.709632 7.020998 
21.938931 3.540259 5.624223 
14.273173 6.089197 7.638109 
-22.744139 -4.126297 12.889094 
26.914400 -10.640174 7.256732 
24.896135 1.853273 13.562527 
19.055269 17.779825 0.096496 
15.517327 12.910983 8.491138 
-9.735046 26.410873 -8.328959 
-21.312002 16.454393 -6.838936 
12.059930 20.140190 2.081269 
-12.775512 20.159698 15.255846 
25.559296 -1.011927 6.295868 
23.140238 15.630419 -7.609164 
16.150763 1.830287 4.317010 
-19.542301 16.086103 2.251561 
20.797932 11.120006 6.561435 
10.605511 22.995354 5.805094 
-18.047815 -8.114799 11.343618 
-19.506931 -2.549405 0.656104 
26.933969 1.890888 2.871953 
-22.180637 -7.085774 5.872721 
-23.453854 -14.268372 8.895205 
19.662741 20.230694 -0.889657 
27.462444 -3.909984 6.131505 
-8.300483 19.564589 -3.995908 
24.787378 -8.802410 1.228710 
18.443356 15.140367 14.367653 
-29.476194 -1.254999 4.893470 
-24.600069 -12.658726 6.910878 
-19.410395 -9.229325 13.313495 
6.626131 20.458902 13.506336 
19.134655 9.688435 12.530404 
13.893435 15.037957 2.457196 
5.237825 20.858358 14.442229 
-16.663620 22.569033 -7.890862 
7.554528 13.159772 18.804907 
-22.506191 -15.368378 17.849648 
21.161600 -8.138646 12.842985 
21.606777 10.381692 5.699240 
-9.216428 23.136065 6.976446 
7.484127 24.579540 10.575723 
-25.004477 -2.647717 12.906897 
-9.837685 26.990959 4.837120 
-16.749323 9.297892 13.205167 
23.967503 11.462636 4.585086 
-20.103956 17.493601 -0.347332 
-25.873861 -15.196258 16.389547 
20.828558 6.226773 11.425677 
19.516710 7.851266 -3.052570 
24.952753 -1.832353 7.196595 
25.547390 1.114873 7.116264 
4.142724 25.529131 -0.546222 
-28.239883 -1.305013 6.368038 
-25.494328 -12.750114 14.516007 
-29.007353 -2.730773 6.332834 
-12.974965 3.999969 12.968565 
20.624004 3.645252 -1.948452 
-13.527214 17.614166 2.182674 
-1.225960 27.064682 -1.116809 
-16.952801 17.090277 3.664010 
5.108672 22.367680 -2.039885 
7.955425 23.365259 6.182312 
-15.789354 -1.568062 10.962697 
-18.264433 16.548735 0.457691 
25.944410 -0.984702 17.916004 
6.747515 26.748867 -9.210181 
8.405401 20.660837 12.016408 
16.504404 -0.835925 4.813196 
-28.265753 1.259266 3.502309 
-25.236948 2.545467 4.028428 
-21.682171 0.459658 7.478516 
24.144167 -7.522906 7.206335 
-17.710781 4.462583 -2.037726 
-12.921038 3.967941 14.106141 
-8.092091 21.269129 -3.116042 
6.672497 28.202339 -5.009890 
-19.452307 13.726347 14.551876 
18.737000 19.178112 3.136521 
-16.557047 19.027683 8.709546 
-17.660995 7.037391 3.162567 
-0.193905 22.186193 -3.978071 
-16.843782 9.731730 -1.499584 
25.610474 -0.108854 6.491964 
13.518631 19.112181 13.024211 
-8.404253 25.813534 -5.643506 
2.809577 19.329630 11.199316 
-13.300600 20.776115 8.798025 
20.828417 15.504724 -0.583572 
3.559626 26.310421 -4.482110 
6.956397 27.504320 -2.802705 
-11.906644 21.300951 -4.846784 
-23.280804 -8.268385 1.390568 
24.394735 7.486961 5.770494 
23.953482 -1.784196 8.165895 
-14.842353 1.036968 9.704967 
-15.898805 24.705530 -3.951423 
-18.109989 -8.509282 10.550789 
29.259058 -1.534684 3.384179 
24.239998 -8.072726 3.779274 
-1.105337 28.386564 -6.369779 
-15.698187 16.768847 -3.361907 
22.862833 8.943728 6.240644 
-5.376116 27.723490 2.549458 
-18.975168 -5.300104 9.282661 
24.091257 -7.986919 1.033117 
-23.766951 0.274894 7.219448 
21.581421 -7.002926 -0.187489 
22.811190 -15.036595 7.779322 
13.049366 12.692347 -7.420614 
2.899209 26.683714 7.353360 
-19.587111 10.666122 5.475096 
27.163294 -6.978288 3.060213 
-28.531588 -0.757739 5.707330 
6.935958 28.053331 6.522375 
4.791966 22.580229 19.278618 
-13.095908 19.123569 2.909556 
16.457027 14.020956 7.221886 
13.363740 23.773554 7.754625 
-20.060390 -1.396943 10.707777 
-10.534293 20.203243 7.407942 
15.564230 5.819499 9.337761 
-14.595682 11.515513 1.873812 
19.463430 20.789246 -2.031698 
22.064062 14.049257 2.395692 
7.190173 25.797144 7.607110 
-23.503691 13.573218 -4.521113 
-27.623714 6.027562 -0.527125 
19.873713 12.644154 7.535948 
6.617280 23.893446 15.432271 
26.528126 -13.037749 17.346718 
-29.850679 -1.943512 4.566486 
-19.047007 -1.815262 3.407709 
6.068104 25.776503 -3.683338 
-19.885944 -6.751214 8.348284 
0.014523 23.416750 11.790971 
5.322458 25.343176 8.643382 
26.815380 1.809069 1.113028 
-9.800003 10.416324 18.893448 
-17.858076 15.470355 18.122337 
-17.092285 15.870072 -0.304720 
-22.441481 9.138447 6.156876 
-30.188211 -4.231934 3.086532 
18.884092 -4.222739 9.426216 
-14.930350 14.373235 -3.889733 
-0.223700 21.767483 -4.909530 
-16.098532 0.230900 7.066813 
-27.171803 -6.734362 6.650532 
19.411255 7.483818 10.167524 
16.579817 7.763489 5.447771 
-23.617151 7.267889 17.524687 
16.240053 0.134379 8.851869 
-17.720579 -8.365301 18.116497 
-6.190022 27.065151 2.502908 
-3.408556 27.200737 6.577029 
-12.958000 3.953529 15.423865 
24.735477 13.118519 -1.452977 
0.168009 26.706747 0.300814 
-8.394594 23.407928 13.182603 
22.005249 9.357251 -2.787633 
-13.711664 19.350201 10.684633 
-4.707319 27.920750 -3.768019 
-9.538610 24.833958 -2.181925 
-22.570448 -1.734510 7.461949 
5.772388 27.164261 1.414098 
7.245909 26.410158 11.569260 
-25.240570 7.743422 4.724907 
21.573557 -4.625203 12.564093 
-25.903395 2.380418 3.694749 
-10.964196 22.652637 6.790610 
24.303362 11.566089 -1.642998 
19.426498 13.650729 13.130760 
16.460596 5.316253 -3.107431 
20.099796 3.817675 13.130541 
6.404595 23.869267 1.155307 
-23.219213 -6.149034 6.779405 
-26.039297 -14.181627 8.914150 
4.569117 25.759066 3.183088 
20.529610 2.181362 13.239111 
10.918240 19.855949 12.750674 
3.549571 28.452759 3.927081 
-29.230217 -6.243390 9.307487 
-24.754818 -10.232726 12.060067 
11.222481 9.052244 12.384422 
7.102684 20.011257 8.245272 
23.208254 3.450820 0.751147 
-23.122770 -2.892554 7.300823 
-25.845758 -2.937329 9.738563 
-13.240143 16.850739 -0.438299 
-21.177944 -2.352877 4.783131 
13.459156 17.564898 -0.299608 
-0.535405 23.065052 10.841909 
22.807306 -1.873717 11.198636 
22.896189 -4.286646 5.122368 
25.331322 -2.931817 -2.056980 
1.722813 25.604605 4.359461 
-6.772395 28.226521 -3.995904 
-26.163776 -3.619423 12.390489 
22.503399 5.373410 6.083744 
-16.032686 13.451859 12.960634 
14.402753 1.426210 8.763123 
24.821337 2.475389 1.540181 
9.580208 28.180611 -1.432052 
12.958373 3.260518 14.369531 
-20.551367 11.787587 19.091488 
-10.183152 22.050098 13.442038 
-19.052925 -2.372444 -0.656262 
7.635473 17.282322 12.004255 
-29.276636 -8.229445 10.247959 
-19.482996 11.673479 8.723615 
15.677711 2.433102 5.047383 
-18.005571 7.555649 3.667975 
10.780612 19.587194 -0.587154 
19.941288 20.753878 -4.006846 
22.663111 -10.280037 4.166203 
-23.061789 2.504646 3.810446 
11.369826 20.029949 1.471437 
15.372476 23.935774 -8.732299 
-19.816658 -12.970537 10.692932 
-15.269845 12.226737 11.074696 
13.731486 7.126612 5.923020 
-17.673355 7.657989 6.636535 
18.273252 0.506922 -1.974398 
18.276655 -12.754331 8.156657 
-19.226782 -4.026008 -2.448053 
25.648281 -3.070165 8.476066 
-15.411383 10.889991 12.876710 
-23.495882 1.535145 0.040653 
-19.746502 -12.903605 12.351128 
-18.626917 -1.421973 12.935132 
15.266768 -2.316834 8.941154 
20.448015 6.549726 10.673286 
2.551332 26.104235 8.294736 
3.290409 26.298498 -1.260084 
5.088797 22.220490 15.664875 
6.975550 22.165806 7.363394 
-12.227571 16.026945 1.582461 
-13.250967 20.314501 -4.963281 
-5.375706 24.143133 8.888110 
-23.191061 5.306847 6.394062 
15.275364 16.791937 -3.229751 
14.640358 26.022543 0.231133 
18.495674 9.530623 -3.005507 
15.719851 10.401007 6.412968 
7.289886 17.950729 9.340351 
-18.661070 0.558966 -0.228113 
-7.441166 16.503960 10.519933 
-15.490085 10.837904 11.257656 
-12.674315 9.067712 10.336243 
-1.739554 26.601858 6.112974 
18.747374 -8.762996 5.646920 
24.711161 -0.852612 7.579343 
18.310276 14.859853 11.352461 
12.334014 14.320345 10.253105 
15.822586 6.296296 3.322973 
-21.238838 -11.613124 5.793253 
16.181101 22.070330 4.638330 
-7.025719 19.371868 13.220895 
12.251585 21.938656 7.376202 
-18.878832 0.958784 13.313346 
21.354666 12.053076 5.946330 
5.959669 24.945396 2.229035 
7.179830 26.974174 11.034326 
27.507076 -7.305546 13.717744 
21.636269 7.878115 9.970384 
26.831617 9.384562 -4.596205 
3.971402 23.602348 -0.476569 
26.484713 7.093619 1.612232 
-11.112437 10.238248 12.346711 
12.142639 9.947021 10.024709 
13.856789 16.353975 -1.832819 
14.814595 19.767921 12.462577 
0.743386 23.846272 13.416781 
-0.750136 25.866234 -0.139728 
16.462221 22.288961 3.633490 
18.279190 -13.225697 14.117679 
7.423064 22.071507 12.599025 
9.483879 19.249439 7.964604 
7.648572 21.838911 7.596778 
27.434401 -7.749927 12.707727 
-18.652643 -3.202883 9.667078 
17.856283 14.740295 -2.612737 
20.534603 15.480463 2.228969 
9.506669 21.440796 18.182659 
15.956035 -1.003462 5.438490 
4.112924 21.226313 15.248002 
19.369934 4.119841 5.909262 
-5.885787 18.465155 11.702044 
21.393021 2.572729 13.356217 
-23.899015 10.533976 3.934111 
17.333126 15.202771 14.858654 
-28.084652 -5.321703 16.589737 
-17.176430 6.233912 3.789861 
12.415074 21.596462 8.120367 
-26.134850 8.803867 0.798526 
-27.494911 -13.438286 8.531384 
-24.628223 -7.549676 15.627967 
23.663479 3.622044 6.231324 
2.822142 26.096666 5.880105 
-6.588436 21.364153 9.294464 
-16.204926 7.918207 -1.244540 
-24.554081 -14.662155 8.000444 
-21.467892 -12.435362 6.314713 
13.218315 17.625137 0.596683 
25.566196 -13.242243 8.604056 
27.627775 7.190013 -0.862351 
6.140707 28.613855 5.974198 
21.006067 11.179757 11.981228 
-14.365911 8.684986 -7.385437 
17.607710 15.339999 18.012741 
-25.361105 3.280375 18.754808 
-24.826021 4.374861 12.126468 
27.338408 -4.091571 7.438282 
-14.359170 24.518766 -2.934382 
9.159445 26.952324 -8.055472 
25.600866 11.301542 0.550940 
10.046983 28.240940 -2.088584 
18.471832 -2.048008 11.707183 
21.042601 9.593108 -2.939442 
-24.687237 7.022566 5.341845 
-26.290369 2.026309 11.861592 
-18.023972 -10.058630 10.367712 
24.124403 -15.067047 15.356997 
11.282204 17.347399 9.366514 
14.405333 -1.070785 8.998405 
-22.423012 6.894160 6.288320 
-15.030027 3.437674 10.079643 
-17.663956 11.853502 10.097930 
-13.626078 14.272288 15.579440 
-7.164429 27.319088 7.877590 
-25.679573 -6.492361 12.505799 
15.074803 7.763702 4.998277 
-27.055885 -6.886415 15.015088 
4.955103 27.591736 -7.707129 
-16.356750 3.852955 -4.834380 
-18.094112 -10.182028 8.390709 
-14.881283 14.073662 15.960425 
-17.921694 -10.760095 14.469740 
-22.134594 7.331621 8.924919 
-15.607857 15.912662 -3.682474 
-21.744530 5.817026 5.508888 
-16.847862 -2.146237 7.601051 
25.187407 3.363953 8.191283 
23.051485 -8.725441 4.657637 
-2.684055 22.472809 -3.167469 
-1.024283 26.395374 -0.675503 
20.893980 14.297657 1.087718 
-3.168042 25.264133 2.431253 
-3.196596 29.084387 0.323731 
-12.404086 15.025031 -0.000024 
-25.324379 4.073910 14.358333 
-18.622839 8.134027 5.385095 
-12.044098 24.602686 4.182641 
20.553324 19.999458 -5.319110 
-26.224974 3.700061 10.759329 
-14.081483 10.110984 9.655437 
-19.147844 17.017035 1.924046 
-20.963787 3.716473 -2.187203 
15.636524 8.278872 2.485752 
-16.118818 -2.783730 10.338461 
3.076271 28.736992 -4.935994 
28.721836 0.510170 2.327517 
15.813853 24.864157 1.396976 
-20.265007 2.115132 6.521833 
6.692479 28.670658 4.510866 
-24.803810 1.726894 2.344038 
-22.355267 15.214676 -3.540097 
8.461336 23.318729 13.053896 
-17.259426 15.910313 4.855608 
-13.016277 12.209282 -4.433560 
-20.473293 5.408432 9.976094 
-26.281183 9.972413 -0.201028 
18.956707 21.191187 -8.344606 
16.457397 15.364255 14.208417 
-16.457117 20.953878 -4.161325 
-12.569834 4.679531 14.442539 
-1.001582 22.613619 -3.023768 
16.653500 18.005594 14.115751 
19.105844 12.913975 18.649366 
-20.334869 -3.717525 12.677039 
16.381216 4.471719 7.196779 
16.540300 -9.682079 17.627762 
-9.828203 16.907434 13.666862 
-4.624067 20.489079 -5.989731 
15.291770 23.804255 -1.838635 
-10.698002 15.990593 9.372076 
-20.713179 -2.987468 5.091283 
-12.179131 20.763256 11.999193 
-25.697641 0.159843 6.817212 
2.883780 28.622786 2.129281 
18.301046 6.770783 -2.872565 
-9.138256 26.766956 6.392518 
11.507043 11.334311 10.930449 
2.364511 25.930521 4.988505 
1.409788 28.269960 3.911656 
-3.223140 15.783120 17.490292 
-17.626574 -2.979366 6.722483 
9.177094 22.283785 6.269206 
-1.914332 25.381189 15.065886 
-18.048725 16.994991 12.781609 
-19.764111 7.717818 3.657117 
12.891673 16.774956 1.466463 
-25.719448 10.306564 -4.954642 
-25.791111 -4.000846 10.037480 
22.510376 0.848192 -2.122077 
27.456514 -5.581378 10.762812 
-8.950934 23.982723 7.935709 
10.384781 14.808984 12.811621 
15.115343 18.350000 -2.097596 
-15.710307 21.004208 5.411812 
-10.601868 24.002851 -2.330954 
-24.053131 6.077204 13.927156 
3.172391 27.611357 10.750588 
-17.429255 20.660578 -0.830905 
-16.915607 11.933549 3.449623 
-1.789924 27.731623 -2.402365 
12.643419 9.522093 9.526564 
22.304560 -2.640749 3.295390 
14.876525 11.650139 10.146834 
-21.355381 15.220337 -0.141100 
17.974686 12.755912 4.205456 
-26.459057 -0.970842 12.958998 
-19.632147 0.026922 10.750745 
-8.674201 21.881863 -0.450429 
15.857642 13.089324 1.644575 
18.095652 6.814609 8.453118 
0.685447 25.667261 6.481771 
-22.786354 8.838043 16.639719 
29.006393 -5.341161 2.848943 
-22.371901 -3.201435 13.349611 
17.231649 11.450151 4.085306 
-19.439699 -5.009674 11.515957 
23.051517 5.798899 10.108299 
-17.511770 14.452269 4.858428 
28.656605 -8.021122 8.392118 
24.888557 3.559351 9.029943 
-24.112661 -13.201673 14.185438 
7.342862 15.306280 12.258748 
-8.919972 24.983164 7.625010 
-12.018516 15.078529 1.213549 
14.892713 24.837103 -7.517183 
-2.428324 18.356518 12.690410 
-29.219826 -2.646965 0.673368 
6.246192 19.309963 12.822556 
-15.917456 15.171653 -1.231734 
15.757320 -6.180858 11.009018 
25.766083 6.683488 4.131880 
23.004129 -1.075336 12.439356 
-7.557781 20.464350 10.644989 
-11.802327 7.532934 12.839397 
-13.134717 24.129250 -2.719087 
16.752699 12.143685 9.898844 
-18.332945 5.403796 9.706888 
11.672650 6.300104 12.791037 
27.996201 -9.738623 10.985009 
15.432877 3.267454 8.407848 
3.391577 21.684443 15.711302 
2.108212 24.653301 2.208163 
-27.495842 -5.018696 13.762715 
-13.413784 13.150269 15.249432 
-19.994238 -14.049214 14.656549 
-22.210844 3.725863 -1.833496 
-25.497850 3.431758 17.633636 
17.948067 0.235737 3.602198 
24.921614 -6.011902 6.526057 
-14.397341 13.417252 -3.780097 
15.780347 25.211447 -2.296915 
-13.303175 16.982880 6.975461 
-11.232429 23.106775 -0.149718 
23.375425 5.318683 18.241961 
-3.943011 24.943291 2.388348 
-1.098115 22.266760 12.282942 
-4.992033 24.050798 15.363465 
17.124262 13.433327 10.332709 
10.630816 24.446093 6.137869 
-14.035423 19.838772 -4.720677 
16.366680 15.467160 6.728330 
26.720839 -6.970118 4.166068 
24.186865 -12.763357 12.609775 
-13.798416 9.761328 7.367993 
9.138940 16.855764 11.770790 
-0.478820 21.740280 14.090584 
-16.740538 17.648157 13.956743 
19.918510 -5.327283 7.316116 
2.988623 15.874163 18.988422 
9.897847 16.358789 10.312682 
15.752083 -8.590286 13.861154 
19.118382 3.467489 0.532627 
13.797344 18.701761 14.246998 
-17.237425 22.074690 -7.683684 
15.464084 18.212870 16.508307 
24.843153 -3.224823 7.327837 
12.001046 6.390863 10.223285 
-10.367496 19.056395 -1.455097 
-8.453835 24.308838 12.910468 
-30.208300 -1.268040 -4.834043 
5.497012 25.077377 14.924738 
-23.993996 -4.179560 9.685790 
11.339541 20.709518 -3.814581 
-13.768385 5.394659 8.340557 
-18.837912 -7.510338 8.582767 
13.468904 18.719681 18.990383 
14.282296 0.861496 8.193648 
-0.409015 18.219589 13.496298 
-15.786949 19.361887 -0.757828 
20.653521 11.941879 12.423054 
14.721891 17.662909 6.384301 
24.401251 4.306615 7.270495 
-9.564379 24.151747 9.439181 
4.335689 24.753344 9.363079 
24.553064 -6.871387 6.643810 
-21.000977 9.632455 6.363114 
-24.876202 1.210072 7.438869 
-0.471888 25.607597 14.435079 
8.671842 18.063154 8.408781 
-14.957521 21.442513 -4.888606 
16.958399 14.263819 14.734229 
-14.102771 9.164530 5.818912 
8.247298 22.200867 7.202752 
29.471634 -4.935070 -3.542988 
-6.687527 18.973328 14.198721 
26.386967 -11.367893 12.552148 
-14.047672 11.808754 10.283644 
9.170282 24.049934 9.639234 
-19.742567 8.028209 4.819248 
12.201549 17.724667 -1.497721 
9.960160 23.976318 6.947414 
-21.508308 -5.995548 -1.106048 
22.635578 -8.681142 -0.600330 
-23.946405 5.112019 6.147941 
-16.030914 11.690714 2.183691 
26.930752 -12.704586 13.447398 
-1.786888 26.612364 10.913892 
25.807262 -4.653676 -1.521602 
-18.766975 -5.293954 8.306615 
4.036180 25.730362 3.865882 
-15.923498 0.067377 11.368566 
14.770514 26.153723 -2.925216 
25.153893 -6.943578 1.801542 
-8.047548 27.407061 5.357553 
-29.697996 -2.626803 5.210549 
-4.793740 21.405600 16.604536 
4.492399 26.421051 7.639710 
9.796744 10.546615 18.655094 
-4.298896 25.078890 13.950463 
-28.733845 -5.912613 0.934119 
11.180354 23.062122 -2.000392 
16.066095 10.930447 0.520890 
-11.388534 24.059425 4.278736 
-22.686579 -15.032997 8.498799 
-0.161975 22.623993 -3.185047 
17.360020 5.305596 10.573816 
21.941965 17.989246 -2.318759 
-8.927550 23.060411 1.169810 
17.975618 18.236044 7.622419 
-13.769755 24.918940 2.697823 
17.149750 12.759424 5.876969 
-2.109364 28.556273 -1.649258 
-20.812269 9.097041 12.903005 
27.896420 -5.848662 9.424023 
23.841497 -11.687656 5.521369 
-11.106471 11.928962 12.689725 
-27.553308 0.872859 0.079588 
17.990973 -5.372212 8.302869 
2.197523 26.547726 13.389523 
-2.354349 23.284140 -3.706554 
2.431029 28.195187 -6.783320 
18.595314 3.527663 4.986265 
13.428155 19.394211 3.796256 
-10.774444 24.392336 5.303123 
-18.125044 -7.851720 8.945012 
18.325840 6.951665 11.520595 
-9.683276 22.314169 15.152765 
6.545836 15.251330 13.500210 
-28.901009 -1.579479 5.980509 
16.219475 16.800043 -3.242192 
16.072161 16.933430 18.295835 
-10.925717 25.873997 -2.767786 
-7.530749 23.908873 14.356475 
-10.714613 26.908285 2.065158 
3.084249 28.812302 -0.432908 
-15.587062 17.188473 4.077930 
20.989929 -5.922864 -1.413811 
-30.306320 -4.185211 1.889266 
19.418242 -2.762709 3.295505 
17.111658 15.486364 -0.477728 
-19.811512 -5.037326 -1.412143 
5.074660 19.432173 10.963795 
21.939444 2.672841 2.854657 
18.810352 10.634789 -2.895044 
-4.536649 23.563519 16.001406 
-11.858781 25.751892 4.045401 
23.973480 -3.773124 11.116287 
-12.248848 19.062229 13.791179 
22.099791 0.072525 3.947477 
-23.680401 -5.107305 13.373265 
23.793438 -12.484955 5.166536 
1.962764 28.294195 -3.784850 
-10.824152 14.587940 -8.036329 
-19.866083 0.586410 13.721828 
24.054232 -13.250197 5.575826 
15.922539 17.069698 16.294712 
-1.025271 26.352659 8.746831 
-20.679090 6.050000 5.415832 
24.259056 6.465422 5.502628 
-4.053177 16.223133 14.640431 
-23.324604 -13.219283 14.448080 
9.126823 19.221867 -3.672245 
22.077879 17.820314 -5.221526 
-12.641254 17.160002 8.461091 
-17.715147 -4.306327 7.901489 
22.091032 8.977715 12.588581 
-1.182543 23.088573 12.608530 
-16.641918 23.942604 -2.233505 
-6.401549 21.962851 16.203337 
-20.736973 7.691108 -2.971335 
16.945395 10.024232 4.673011 
5.468519 21.852211 11.548709 
-14.381084 0.413170 11.156217 
-21.147537 7.781661 5.225376 
-4.524720 24.883104 1.845152 
-29.313387 0.295560 3.318838 
19.031599 -5.590351 11.084069 
-15.125278 18.248268 17.118120 
-12.709191 7.825869 9.277972 
-20.348301 18.201868 -4.412579 
-20.479904 -7.759502 8.685457 
-11.307487 17.027159 13.740412 
-2.219821 26.220304 4.088629 
-17.748095 -4.070502 11.282386 
-16.214863 7.788171 3.982796 
-7.604183 13.141113 17.126976 
-12.102500 23.989771 6.083301 
-12.063594 6.567334 11.109253 
-15.824417 2.130345 8.815296 
27.212643 5.781566 0.344980 
-23.149446 -0.283656 5.432193 
-24.761530 -11.526019 7.150331 
19.506334 19.249331 1.287963 
26.138790 2.959416 1.878283 
16.809647 24.345541 -1.513177 
-11.440228 22.533302 4.235731 
21.872538 -4.110882 11.156438 
-23.710640 12.086061 3.327219 
10.530797 9.393391 16.546930 
25.605602 -11.887534 12.762813 
-23.532167 -9.793415 5.219840 
22.974850 2.936116 3.963901 
-19.385698 13.806167 17.172171 
-20.704872 1.259873 1.609528 
26.646065 -8.132541 -0.987019 
-12.472904 13.937088 -3.194635 
0.124479 23.485388 15.678367 
17.487333 9.801219 12.710950 
-24.439194 5.416786 14.015318 
-19.317204 11.599216 10.444078 
-20.973362 -5.371413 11.503067 
-24.963280 4.344464 13.367713 
18.030733 -7.785427 7.004026 
3.014464 17.764013 13.126245 
14.500539 15.282473 -3.092659 
-24.629519 7.864898 -1.486546 
-2.153570 24.487761 8.107254 
6.987473 27.795673 8.303549 
-13.783503 17.697870 2.936182 
15.902406 19.923702 8.321507 
18.824457 14.096040 -1.793369 
11.018591 12.389024 10.439800 
27.404377 2.995240 1.034877 
14.553625 20.664778 8.306366 
-12.494171 16.487732 8.928434 
15.364657 20.231430 9.133222 
-12.603600 13.540743 -0.331998 
14.250147 10.687587 -5.754623 
-1.302669 23.696724 11.287503 
-18.240358 -0.961333 -2.663057 
0.290761 28.000277 -0.641573 
12.369775 14.099859 -5.360222 
-11.790516 9.422331 11.627709 
-24.724209 2.570882 4.924774 
-16.152235 9.234102 6.616833 
-14.242409 18.398102 10.184534 
5.606810 24.823544 -1.984667 
-12.817975 10.816430 11.862842 
19.589624 1.441261 12.998755 
18.884171 0.831443 12.730616 
17.939686 14.919643 6.956249 
17.483767 6.688741 11.538133 
21.262333 9.747638 7.537462 
26.048277 -2.063768 14.581701 
-13.515752 12.419014 10.392865 
-11.955173 6.280569 12.522950 
12.054926 22.042458 5.058448 
-8.965165 24.075001 11.883931 
-13.277614 6.177317 11.538101 
27.958559 -1.029952 5.151575 
25.019218 6.081519 -1.394376 
-17.215540 1.882188 -3.213019 
-14.511559 15.850730 4.376545 
-5.057899 22.901501 16.537172 
26.996626 -7.743544 -3.262740 
-7.371573 14.334533 13.687595 
7.320809 24.396051 11.394101 
20.591393 19.636251 -1.724559 
16.656816 1.140845 3.882236 
20.958942 19.497187 -4.303093 
-13.434999 18.495253 -2.824968 
20.637861 0.288346 -1.228165 
22.574329 7.993316 15.496678 
22.149389 -4.782614 9.638041 
19.417969 21.339912 -3.867691 
-29.619654 -6.819447 1.713663 
-17.523262 5.212582 -2.857845 
-20.374577 -9.755986 13.962749 
17.404324 13.422953 -0.393494 
16.348146 24.271090 -6.652411 
24.905704 2.075633 17.104940 
8.211264 28.468164 1.829816 
22.746616 8.162602 -2.613076 
-14.173841 1.149405 16.549603 
28.644947 2.013684 0.342457 
-0.450827 24.429537 8.931358 
5.687762 21.789192 -2.607164 
20.279192 5.768879 12.535462 
-23.114378 -8.535054 -5.460908 
-15.136223 19.400042 -0.278032 
-15.826864 19.611773 5.051798 
23.968578 -1.680826 -2.596217 
-5.168710 23.956324 -0.553308 
13.787703 6.092857 8.622118 
-15.342123 22.796741 4.238815 
-27.670633 -3.311992 17.394026 
4.543606 27.204245 2.112318 
7.596332 23.658360 1.628643 
-15.692359 18.200003 12.818661 
-19.232632 -12.888742 14.799978 
25.589268 -13.926390 17.316992 
-12.345215 17.312792 13.578329 
1.225198 24.465137 2.374395 
1.243879 25.490093 8.890217 
6.162267 18.613487 12.243015 
21.814407 4.885889 5.996647 
7.047665 24.287756 12.285821 
-13.843899 24.267778 -3.439348 
3.977791 20.571369 14.602594 
-29.737377 -5.293380 3.796152 
25.337667 -11.586459 7.124122 
-2.013583 23.826963 18.429642 
22.500168 -14.225026 8.479285 
23.141838 -14.142043 9.126997 
-18.328600 16.906977 11.908490 
-9.150382 12.670932 13.872726 
-23.926861 6.716731 14.951483 
-10.716314 20.606060 19.380001 
8.997850 24.060066 3.580436 
26.423386 -11.814559 7.276905 
-18.482233 6.862320 6.049625 
20.452646 16.204470 -1.529464 
-11.407567 23.134552 -1.064347 
-17.384178 4.264078 -1.019691 
-21.134066 -10.277044 14.359103 
-10.934937 21.542479 15.620667 
-4.237832 26.532974 11.171779 
9.685166 20.969086 12.971441 
-27.522089 -13.427603 10.532928 
5.652564 17.747927 10.752198 
21.437122 18.744860 -4.431231 
-15.356708 8.050483 3.986161 
3.628000 23.047895 -1.304614 
-12.404593 16.057739 0.815266 
-16.581779 14.945629 14.979343 
29.036413 0.237707 1.327983 
6.945285 17.830811 12.239181 
-0.855166 25.682203 11.733335 
12.149863 26.665455 -6.095653 
-0.451987 27.474661 -0.384136 
27.236574 -8.510971 13.068379 
-26.745581 -14.008960 9.139831 
27.975733 2.974628 0.389281 
-5.429433 27.016745 6.585283 
0.048809 25.346664 3.262778 
-7.522748 27.893629 3.572205 
21.902157 13.454362 4.943159 
-13.404976 16.672415 2.580824 
-23.102882 -10.647719 4.855977 
-12.722741 12.209886 9.150614 
-22.545023 -2.295196 13.745334 
-23.964760 4.384864 5.839183 
-9.750295 25.738279 8.104096 
-22.563101 0.895793 7.395848 
13.008615 16.975307 3.287019 
14.145678 11.505095 13.569777 
27.722687 7.229008 -1.711172 
-12.143938 22.179422 5.015898 
19.732162 7.231828 8.556445 
10.954282 21.548714 5.888529 
24.227062 13.785512 -7.370062 
-4.627061 26.872345 -4.564617 
10.522496 26.698986 -0.939758 
-7.788975 27.344267 7.301518 
-21.921837 10.215607 16.752850 
18.750313 18.477968 -2.072591 
5.930100 24.769299 -1.291916 
20.230217 -4.683751 -1.441853 
-9.201575 20.962914 -1.954918 
-16.448387 19.827391 1.368210 
24.695019 0.551612 10.360233 
16.602634 12.248253 11.017143 
27.118771 -9.695063 12.946157 
-20.658989 6.862102 -2.950754 
-12.300272 12.453119 -7.804107 
21.176975 -1.715014 4.579011 
12.913479 6.597471 8.832464 
-28.969330 -8.925272 11.883941 
-22.017387 -9.125233 14.866753 
-18.726503 7.900083 13.454873 
-1.178118 26.114338 -2.483612 
-11.816495 25.224323 3.395838 
-0.750395 26.504713 3.197651 
21.629986 -10.263031 12.739509 
5.498823 25.270844 -0.304441 
-21.468193 -2.191064 -2.026306 
-20.742556 17.466028 -4.512701 
2.257420 22.144373 10.465270 
15.119658 12.076232 13.102068 
-21.773121 5.754160 -2.545831 
-24.607372 -13.788496 12.747773 
-27.018656 -1.321028 18.560928 
10.584175 12.768439 12.317018 
13.751449 15.933152 7.897880 
18.126097 14.108210 8.691269 
-27.825684 -4.965834 -0.030432 
23.773235 15.168280 -4.347171 
-0.520960 23.840733 13.961839 
28.606686 -8.715741 9.648893 
-18.769419 15.498546 3.447382 
28.294674 -0.466639 4.589060 
-16.314598 6.910177 -1.389265 
6.275645 22.374094 11.338387 
25.919964 11.491300 -4.440786 
-12.292143 6.863599 10.223535 
23.602922 5.896356 7.524430 
23.932585 -11.814326 13.020361 
-14.028386 19.515141 4.853518 
-2.926628 27.570713 8.167127 
-26.985847 -0.057060 8.404344 
3.022711 25.513582 9.023495 
18.322157 17.577883 7.802165 
29.482868 -2.789402 3.046843 
-30.453012 -2.584156 -4.799206 
22.044380 2.213683 12.065444 
-18.053795 12.115096 0.723487 
-13.887831 22.902079 -4.838109 
-25.700314 -6.176241 7.561110 
-13.915876 17.512197 0.186067 
-24.899473 -4.800325 12.484402 
13.091671 15.501705 -1.151037 
-22.545982 -13.909986 12.187460 
21.327204 -3.526592 9.125194 
9.668386 27.742785 -3.041476 
19.221037 -3.111626 -5.423432 
20.727348 -1.108320 -2.303823 
1.297109 26.257545 8.078888 
-26.187988 2.017808 5.513002 
17.338108 13.962016 12.775878 
17.774033 15.286933 13.971511 
10.959495 11.922077 12.719743 
3.483001 21.504543 -4.267687 
25.254702 2.508555 2.570953 
22.902697 -2.684924 -2.853936 
26.351574 -3.718191 9.751483 
-10.290753 19.510399 -0.819036 
16.641844 24.584169 -0.745517 
23.562677 -5.636406 -2.116491 
11.501035 19.290174 -1.964878 
26.742020 -4.312476 10.453673 
-16.915997 12.410767 15.043319 
-15.152866 0.065110 9.704752 
-17.899237 21.786173 -2.994172 
26.448368 -1.783011 -1.502267 
17.123957 4.280513 12.063708 
-18.538033 12.026530 7.656226 
18.329752 4.539114 12.537454 
25.017408 1.474096 10.184931 
-1.181465 25.711458 13.092985 
-10.785877 18.714748 -0.858819 
18.760649 10.984566 3.850123 
22.243532 6.336950 5.579742 
-8.359102 22.630312 12.894323 
-25.800873 1.808551 0.580922 
7.304277 13.735459 16.831572 
0.139776 16.588156 17.282431 
14.268833 14.813771 -1.748674 
8.967451 27.812199 2.504301 
-18.846430 17.642256 1.357172 
-21.258055 1.440465 4.091159 
-14.140840 9.309969 11.565849 
-25.391050 -9.531178 -2.092068 
4.565364 26.073898 4.576136 
-19.892218 0.774249 5.218136 
17.745720 13.272985 3.506912 
15.263465 4.924502 8.682912 
21.052889 4.342916 5.414285 
29.619133 -4.989201 -1.093440 
-2.950468 19.844177 15.081173 
18.624762 13.311567 7.983272 
25.562664 11.586793 1.284798 
6.300517 22.083212 8.820437 
23.539822 0.193018 -2.490148 
-11.248908 24.521929 0.696063 
26.126978 9.987690 2.422354 
26.103815 -8.416739 0.927809 
-14.511746 24.293615 -3.942872 
-19.560421 14.738182 2.490849 
-8.175151 27.829165 3.129513 
11.385086 19.492905 -2.900319 
22.674221 -5.794469 5.858303 
9.217019 22.852938 12.682172 
-1.632689 26.622587 5.348450 
14.561817 11.213594 6.252665 
20.031742 12.602473 11.793181 
21.551270 10.441199 13.367225 
7.055849 28.441132 -0.310374 
18.401588 7.506111 3.608002 
25.460207 0.476359 7.610360 
11.169964 16.983736 11.735062 
14.902559 13.627067 10.806866 
-22.337412 -2.243077 11.431499 
-6.706556 27.768232 3.874102 
-21.922483 7.676990 -2.687055 
-21.404840 -11.219319 14.330886 
-26.921553 -5.255497 7.795784 
22.460377 -2.933343 9.756518 
19.209587 -5.375357 9.885294 
-5.344337 20.434669 -5.489300 
19.550356 2.638879 13.059878 
-18.115896 14.813266 4.283427 
19.269056 6.673955 -2.914581 
-17.567287 17.585300 12.898578 
21.107748 -10.870767 12.269747 
-16.047281 4.804774 -5.995160 
4.338900 25.029646 -2.263350 
-11.313055 22.435188 8.362704 
-5.120859 15.445073 15.561247 
-19.530466 -5.521589 8.608245 
26.425907 -12.395161 7.811972 
-24.410740 5.771132 17.416086 
25.815487 7.691958 4.339828 
-20.904547 -14.942461 9.262453 
7.386259 16.950932 11.117609 
-20.280994 2.921353 1.114173 
-11.855092 19.211781 6.873677 
18.128529 13.762840 -1.259420 
0.765124 27.565796 11.702853 
-19.791481 14.537345 9.567026 
17.706667 10.882202 4.376623 
-17.402052 7.029294 -3.094571 
-22.783022 12.923083 0.672621 
19.443356 16.153170 4.016012 
10.544186 15.044837 14.107852 
-22.737396 12.373033 -0.915907 
-22.080021 8.227360 11.057643 
11.991810 25.606956 -8.987850 
-25.553503 10.013674 -6.238207 
-21.428713 11.980119 5.055037 
28.928057 1.224490 1.566740 
-2.562844 21.690863 -4.536759 
-24.108412 1.374022 14.387292 
5.430277 20.342710 12.795554 
3.314678 26.277916 6.840476 
-2.917651 26.036781 4.514814 
23.848093 -11.083402 13.292258 
20.646372 -1.908427 12.280178 
-17.662436 -10.754227 11.816549 
15.051689 -3.232995 9.275151 
16.114880 20.778543 0.805757 
-13.101289 3.959090 16.931335 
-25.889017 -7.995525 0.209387 
2.684087 28.730280 1.069829 
23.846552 3.879116 12.080025 
18.676762 14.610952 12.682323 
-7.116081 22.201113 -0.422942 
-17.633114 3.639305 7.979914 
1.798545 17.134480 15.529433 
17.993031 14.250881 10.970704 
13.458636 25.787405 0.338995 
-9.052592 25.228254 6.274757 
12.063563 20.568245 12.858773 
21.935553 3.001457 6.453216 
-1.924290 27.262918 10.138117 
22.400240 5.656698 11.517296 
3.563641 24.664360 1.818052 
20.915432 -2.441633 3.630120 
19.087507 1.272531 2.170843 
15.335010 -4.186832 17.899027 
-18.619396 14.316759 -2.631991 
19.313457 12.675490 -0.797059 
7.900679 24.701815 3.241203 
-16.702326 6.099037 13.109973 
2.580085 18.444977 12.204114 
-8.434175 28.178488 -4.141477 
-20.954594 2.167584 7.224057 
13.721213 26.047726 -1.799689 
-20.643599 -2.493489 -1.490547 
-11.720710 16.785919 8.562490 
-4.300471 15.825115 15.635260 
-15.283453 -1.725167 16.965168 
-23.099421 1.827062 7.724307 
-14.220560 1.864715 18.549843 
-29.910206 0.994621 -0.128343 
19.405563 -3.632911 3.617668 
-27.206207 -12.398612 12.967751 
16.760990 13.469451 7.782986 
9.387796 23.366173 0.647426 
19.030685 6.068334 -0.364389 
-24.297272 5.603004 18.849838 
-21.303032 -1.037146 13.932034 
-19.871508 -14.008235 9.299030 
10.053734 27.486616 -2.237787 
-24.071018 5.100370 -1.450418 
-13.712113 18.396170 8.303751 
23.344114 -7.485866 -0.665647 
-28.460924 -11.546479 15.400887 
26.195328 -2.524825 -1.645649 
18.610668 10.342052 4.391864 
-16.191364 17.422523 16.651184 
-20.390871 1.910887 4.024282 
-16.204485 -2.223261 8.867328 
-20.773912 17.217205 -7.042296 
-25.843241 7.282423 -0.646148 
19.066265 -3.074812 -4.610250 
22.300110 7.279094 10.738211 
14.517520 9.319403 4.595352 
8.572659 19.911104 -3.389789 
-16.769371 9.479361 7.273396 
16.947460 17.468143 14.644782 
22.045307 -4.837801 -2.668542 
-13.275602 15.367558 11.327124 
-5.509825 21.186230 9.774156 
-11.233358 24.923433 -0.002198 
-15.975894 5.794060 -0.069064 
-1.776634 27.460978 9.316410 
19.805332 -5.450881 -1.863464 
-12.676518 20.386175 3.026494 
16.719162 -3.292299 8.167727 
-0.464777 28.807367 -2.300332 
-23.764399 -3.549418 4.797606 
-7.196297 25.273619 4.197388 
27.041111 -6.486081 7.239133 
22.595665 -4.002940 7.051540 
