24.843060 11.771749 16.040670 
16.189840 11.596218 6.482369 
25.617970 9.699525 -5.891122 
17.232021 22.500235 3.969654 
26.642361 -4.299884 -4.968098 
17.641100 23.537542 4.539990 
21.886572 12.575446 2.197805 
21.225550 10.099857 3.351300 
-21.285408 8.062953 1.939729 
-24.972307 9.834433 -2.983106 
21.414991 -5.904544 7.998262 
-20.441406 5.936400 -5.393751 
24.280579 -10.610772 6.985625 
-18.407536 24.594606 1.291184 
13.345079 18.218115 4.483078 
28.037666 -3.821901 9.450073 
31.820805 -2.237960 15.325374 
20.785410 13.821999 0.120575 
5.540487 22.060547 14.915538 
-22.961193 -4.822975 -7.330586 
-24.511106 -8.981425 3.853413 
27.064514 -1.597492 8.966793 
8.442957 25.183313 6.754285 
-4.035285 27.943024 -6.287882 
19.935549 18.960545 -6.036038 
28.918877 5.165740 13.969632 
-0.457663 32.832294 8.361793 
29.930990 -3.649426 8.551532 
31.010155 -13.539932 12.795039 
-18.195517 15.806831 -8.033157 
-12.103581 25.788776 8.338837 
-11.072296 26.999193 7.599967 
14.378345 17.149689 -5.917740 
-20.894680 -5.188530 7.428576 
-8.787047 27.603968 -0.451643 
-12.182247 20.240973 -7.470522 
-26.695944 2.879896 2.209211 
-8.682978 25.338066 7.203301 
24.392723 10.758289 -5.086636 
-24.110771 10.424797 4.352637 
-22.878090 6.590352 6.509179 
10.504080 22.853266 9.696758 
17.213732 9.957999 -5.100808 
-24.389318 -8.200401 3.267650 
-21.012449 -1.406313 -2.192108 
1.983096 27.109421 -5.552125 
-23.251268 2.551212 9.448323 
-13.192257 18.905405 -4.778442 
-19.758215 -6.911043 -1.738381 
21.929352 15.637300 -5.668881 
12.350227 16.555431 -3.597955 
18.434338 15.033485 2.643873 
-10.785132 26.633856 5.537264 
-21.504362 7.573316 -9.830165 
28.241501 -8.877950 12.812674 
-18.526752 1.187441 2.721541 
14.236615 21.160419 4.431866 
0.120006 26.107101 -2.388235 
22.066113 13.303030 10.592083 
-16.119238 4.810866 -6.999366 
20.609964 12.803793 10.747084 
12.085780 28.513903 8.601651 
-22.501245 14.357111 -2.285583 
-4.744712 26.421143 7.370059 
2.916799 27.726915 10.082722 
-6.926119 22.695955 -2.767578 
11.302407 18.669615 9.648081 
7.586465 25.912872 7.443156 
6.568230 26.076799 6.203633 
-16.456158 9.664526 7.208909 
15.379453 22.352346 7.066444 
19.387955 13.591805 6.433161 
-18.481653 9.800022 -4.785798 
-13.254025 19.581631 -3.506183 
3.130558 33.123783 8.500367 
20.867229 20.213757 9.145145 
-24.943007 8.952411 15.774792 
-24.616489 10.799633 8.955436 
15.858197 23.548138 10.325221 
-18.323151 21.357182 -4.020496 
-26.617346 -4.663059 6.291523 
-20.281494 18.138409 -9.720758 
21.245708 -1.230264 5.982429 
-21.607721 19.919241 8.939069 
0.857301 31.163658 10.063582 
-25.847475 -0.950610 9.683973 
-10.667217 29.360382 7.117140 
9.278926 27.216957 2.711916 
14.474706 24.654646 -1.403344 
11.515667 25.059803 7.595737 
16.707443 11.761648 4.397026 
32.336720 -9.157885 13.108312 
-18.537247 12.841092 6.207933 
-22.330084 -9.305102 5.812795 
16.152065 15.906393 1.562669 
-22.412497 17.026430 2.497934 
-26.825439 -5.610675 4.346365 
16.154301 9.753820 -7.483054 
-21.834921 8.026108 10.340553 
7.968763 28.064434 3.552559 
12.909911 16.323282 7.157924 
5.136718 24.292912 8.644742 
-20.883545 11.383603 -8.153156 
24.439655 -7.100222 -3.106827 
19.508329 22.134594 12.699562 
31.124922 1.255993 10.044589 
-10.601810 27.762253 4.290294 
17.480619 21.183064 -11.538392 
6.210940 23.280001 -1.094380 
31.061590 -1.235028 -5.321831 
-10.130079 31.847031 4.998599 
13.270286 23.483387 4.321274 
-24.851959 10.402452 14.299654 
4.252318 31.674425 12.781970 
19.037315 12.848335 -3.962996 
6.672066 18.746830 -10.026674 
29.957310 2.069838 15.545990 
27.189461 -0.489967 2.349037 
5.046601 24.829987 -2.751028 
-18.954439 -12.944206 4.305479 
-18.464025 4.592136 0.176869 
-15.576262 26.740385 1.478048 
-22.833782 1.274843 9.656604 
23.863178 -3.057494 7.991529 
-21.124321 8.453454 10.386281 
-16.872099 13.439391 3.754410 
30.054007 -4.114841 -2.995190 
-11.695736 20.453365 -0.130817 
-19.640196 8.942935 -4.612233 
8.491159 17.580791 -10.148108 
29.194174 5.241663 12.466098 
-20.884348 24.783245 3.273679 
25.471825 -2.948254 -0.477867 
-29.876530 -9.904988 -1.921970 
23.663719 -3.248411 5.006484 
14.261003 18.202755 -3.696146 
-23.088968 -10.662460 1.770800 
17.164282 13.901224 3.803974 
-9.256083 27.520245 7.132296 
-9.412041 27.302769 3.224139 
-29.173540 -2.723513 -6.647115 
-21.200638 22.666910 10.110189 
26.770924 1.027504 1.945985 
14.616104 16.066334 -4.344509 
-28.214397 -3.078882 -3.952658 
-26.209274 -8.843910 7.585834 
-17.662291 7.783192 5.035502 
-8.830416 26.952715 -6.599025 
18.053669 9.680902 5.391064 
-24.297314 -0.804396 -2.877098 
-0.276149 20.044472 -12.122846 
-19.536226 19.992004 -0.158077 
-15.093763 13.047579 -1.665944 
12.558392 24.970802 -8.812854 
-30.381945 -13.173754 -3.254769 
-18.461535 15.342820 7.628991 
-17.455887 -7.396153 9.522848 
-23.377438 6.124536 7.820696 
-3.704991 29.576530 7.855993 
28.524660 -4.914093 6.649328 
-22.637197 4.726254 0.581632 
-2.827665 25.297544 -0.125245 
-16.626345 17.245560 6.859564 
28.683477 1.126992 1.319405 
-15.138953 27.921310 9.661575 
29.402494 -2.984653 8.697180 
28.345053 9.228048 -10.552531 
-16.938324 11.891836 0.535587 
9.636024 22.199747 7.442120 
-19.288147 16.047947 -2.876488 
3.900838 27.308968 3.744234 
-15.205545 15.225623 -6.246081 
-13.281907 24.149742 -7.726313 
-16.295223 5.202282 -5.527832 
22.967014 0.543432 -0.777718 
-24.001892 -13.362525 7.119744 
-18.475666 21.542284 -0.238375 
30.713707 -1.798007 1.935571 
23.453930 -3.129685 -3.137537 
31.930908 -11.777819 -9.379963 
-4.726416 25.467791 -1.909531 
-26.158039 5.932893 -11.136817 
23.416327 16.049244 2.542964 
0.284131 28.129208 5.097946 
26.437551 -13.368421 -7.564791 
-6.958856 21.828594 -2.208764 
-1.685840 26.430527 -5.031878 
25.449625 12.381505 12.922942 
-23.659184 11.934439 -8.659141 
-15.864261 14.975126 -2.562272 
-16.471052 18.410065 3.530222 
-21.002232 11.034559 -4.030862 
8.574513 21.389681 10.210855 
-13.981847 11.970962 -5.579088 
-23.941107 9.708556 9.302893 
-0.768529 31.354536 0.461288 
10.050870 24.752171 3.142777 
-27.813591 -11.057129 8.456251 
-21.763802 -3.448366 -5.163800 
-22.061159 6.219379 1.522741 
27.882200 -2.706059 1.604055 
25.169270 -6.460456 -3.713370 
-2.691715 23.028563 -2.254576 
-23.346413 16.486534 13.680102 
17.843107 20.132454 0.884026 
-21.290367 21.531881 10.334735 
6.296327 25.427261 6.798479 
-25.826723 -7.421169 10.238507 
23.762293 -0.873857 8.024310 
-20.711182 0.177770 -8.955410 
-26.405699 0.060387 1.744503 
1.208614 27.670536 -4.458556 
-12.150724 22.724749 2.071775 
-15.951440 17.891048 3.002668 
-19.033909 9.495711 -1.511709 
-23.227274 -9.914670 3.544017 
-26.256687 -15.127493 10.294607 
-17.750620 -8.197598 7.406806 
28.226213 -13.625916 6.715378 
27.372152 -10.829353 12.080647 
10.292921 24.102707 6.371439 
27.702038 -15.075410 10.903558 
-0.360198 33.523678 5.650255 
24.416550 -10.929365 -1.321802 
21.730394 -3.716097 -10.148521 
23.696012 -8.871553 -1.598073 
14.775145 22.099545 10.406841 
-7.649720 28.954184 8.968780 
-7.634888 31.759989 0.389487 
2.668219 26.578039 -4.819191 
-15.050376 15.716292 6.336675 
-20.386673 17.400042 -10.975183 
15.964164 18.228987 7.603627 
-25.135954 1.252884 1.569943 
1.595083 21.851166 -5.035964 
25.725201 -8.258456 10.498816 
-25.993355 -0.523475 -0.227499 
-22.405983 10.643389 -1.515084 
0.260938 26.333292 8.761343 
0.175128 30.794333 2.499455 
28.717575 -0.028611 6.926253 
-22.616396 -0.588268 1.478450 
-20.785126 -5.490304 -5.664790 
-24.094481 10.071190 5.212555 
-3.703606 23.115845 -3.508434 
18.723289 15.681646 5.683073 
-15.929507 27.189138 13.192489 
12.376946 20.685904 9.085808 
-28.370533 -2.916955 12.435148 
31.803417 -12.104173 11.441805 
-31.167543 -10.049704 -7.200330 
8.841742 29.765160 14.704871 
25.624643 1.171391 1.556312 
32.526371 -2.437003 -2.813850 
-9.306703 27.688789 8.077727 
22.779665 -5.167047 5.435711 
-28.189596 -12.136737 5.421016 
11.421869 20.324102 0.210587 
8.650590 27.553370 -1.073655 
-17.246590 9.352894 -0.155872 
4.316510 23.329044 11.868992 
-17.002514 19.978796 11.163700 
11.295905 19.891260 7.820370 
-0.810838 21.073345 -6.958280 
-25.949396 -1.328513 -3.133633 
-16.945181 21.919077 1.532124 
11.036554 18.441992 -2.250314 
27.460920 9.144184 -7.656940 
23.708691 -1.603594 0.161730 
17.270716 22.789814 7.712292 
-7.141967 30.195578 11.511717 
-22.232117 -0.907547 0.824059 
21.891323 11.284128 9.299547 
-27.642977 0.296347 6.105606 
-14.967327 28.855574 6.072232 
-20.933292 3.890062 2.870963 
18.180004 7.364419 -6.221614 
32.896030 -6.599521 0.571383 
-25.020180 5.377424 -9.818389 
14.778980 16.510790 -7.408863 
-9.264373 31.207363 10.584111 
1.649670 31.855036 11.114458 
1.576136 33.837490 6.623997 
-28.112873 -8.174021 7.758798 
-24.695910 9.278363 -11.177048 
27.800507 6.433149 -1.171269 
18.675163 11.271535 6.422627 
20.841612 18.379267 -2.158329 
16.598139 26.770422 3.211104 
33.585480 -6.819228 13.797332 
-0.712052 27.433008 8.340514 
31.706799 -1.349535 13.997373 
-17.595051 23.956259 11.535631 
-15.528483 19.963272 -4.047791 
-22.490189 7.516064 6.911126 
20.808704 14.552361 10.578367 
-5.826700 27.819685 -4.226562 
-20.324207 -5.477129 -4.729499 
-11.755261 26.228701 5.414278 
21.232996 15.773099 6.959293 
-15.449265 17.789385 4.982885 
-7.966016 30.013918 2.531229 
-21.202459 18.581507 5.081976 
6.666628 27.306486 -0.131168 
3.885653 32.946274 7.690189 
-10.950255 26.251205 -5.975250 
20.336765 20.812035 13.154835 
-20.265625 -8.995564 9.291696 
4.576769 19.676531 -9.842879 
-25.343216 3.421361 8.123507 
-9.820463 28.923670 7.128975 
-0.993915 28.779285 10.367555 
-9.529991 30.654518 0.582610 
13.662687 25.834673 1.630521 
-18.352797 5.127308 6.356545 
-1.870923 25.353085 9.580273 
-17.970091 -7.248733 7.209285 
-16.232204 19.395283 -4.358849 
0.014781 21.009794 -7.321938 
24.493250 -5.692537 2.335298 
-10.089994 30.185251 13.984641 
13.221112 25.309599 -5.778081 
-5.547261 27.054590 10.421356 
-15.818307 8.110156 -5.204769 
9.808575 26.791561 -5.242965 
25.704872 12.016015 9.222905 
-18.059996 -0.455241 6.501917 
16.703726 14.606776 -3.535334 
-17.082121 22.446590 -7.363579 
-4.599309 32.136589 8.345840 
29.535868 -2.952315 -0.389731 
-27.479809 -9.720192 -1.382434 
22.766016 1.932774 -7.440860 
-25.245176 -6.577838 3.738447 
27.097240 -12.659911 5.542786 
-17.444044 5.368217 -5.414337 
18.079782 23.615072 11.139110 
18.044651 18.693027 2.552101 
24.709970 -12.650835 -1.808099 
6.989639 26.204266 -10.449905 
27.222588 -12.251677 0.296130 
16.192999 27.371325 3.809596 
-17.334818 0.449304 13.644537 
-5.283604 25.906883 -12.594726 
-17.578091 3.108822 0.322682 
-13.341624 20.910519 0.909692 
-19.240673 -7.720587 -9.935357 
26.179213 -3.304314 -0.272863 
28.160500 -3.295449 -5.870820 
-22.561052 -5.695139 6.815347 
-2.797796 23.750437 -3.136748 
-23.908394 11.163928 -8.553357 
0.332313 28.447479 0.816760 
-26.164221 4.224529 4.836546 
21.994907 16.818439 2.584789 
30.909376 -0.829479 7.180098 
-0.693312 28.934917 0.924525 
6.933946 27.367136 10.611808 
23.075476 16.018986 14.612844 
-6.189584 27.074898 -4.265483 
-1.505325 29.006638 5.803527 
-6.171470 28.123573 -2.174381 
20.758535 7.392540 -4.474873 
-30.985188 -9.314805 -5.171185 
-23.538280 1.137673 1.540077 
-10.190019 19.989182 -1.354465 
-15.969534 18.796169 -9.301867 
10.252933 22.683235 -0.713214 
-22.317585 10.240380 -3.224426 
-18.419199 -1.854515 1.428344 
14.549959 19.469467 6.435829 
20.104097 19.103367 -7.106632 
-11.698175 26.826231 10.733505 
-24.519939 9.513090 -0.612441 
-19.339697 18.706497 5.256071 
25.287523 3.446478 -1.144427 
29.238867 -12.118641 12.795333 
-13.901732 24.070353 3.499308 
-12.416869 20.302505 -0.931710 
-18.918280 11.578458 6.528289 
-23.266218 -5.125151 7.799848 
16.764378 19.226376 10.288907 
23.989435 15.011188 13.485566 
19.764391 15.217937 9.566461 
27.762148 -7.596717 4.607707 
9.255015 17.008358 -11.628014 
-20.963097 17.619038 8.970564 
-2.904373 27.956171 -5.866839 
-18.973787 3.354200 5.835131 
14.390605 17.435032 9.464084 
5.201176 33.352028 3.589495 
-8.483072 23.263744 -5.368226 
-24.674032 8.762524 8.820806 
26.610161 -11.076108 4.651306 
-22.726183 -5.782824 4.443159 
13.060078 25.293598 -0.513852 
12.028973 16.022850 11.819210 
-18.127327 9.518764 -3.120726 
-16.077068 17.734558 7.466882 
11.249983 29.073605 4.037027 
14.458985 20.007067 4.378795 
-21.692215 17.963192 6.271600 
-25.368834 4.177516 6.171541 
31.089474 -12.884185 8.320997 
23.126255 2.229535 -1.778356 
3.597373 22.577005 -4.733221 
19.365158 17.264082 2.828203 
-19.261871 13.176633 7.872844 
-19.869436 16.590164 10.321823 
28.832220 6.065973 8.822879 
-0.076898 30.300646 11.339748 
30.412928 3.594718 -6.412431 
-30.304346 -8.446342 -2.956796 
-20.090900 4.733301 0.089158 
-21.587677 -15.657433 12.540323 
-18.317673 -8.674268 7.823915 
16.094742 8.763705 -9.778061 
19.985590 6.717919 -4.917762 
3.488836 33.972363 0.470901 
-12.146389 27.664492 2.995520 
-1.718157 29.203436 1.827625 
-5.269481 21.579065 -5.397149 
24.947323 12.792877 -7.870459 
19.418575 10.845637 0.291675 
-19.580492 -12.812361 8.159162 
5.791110 19.147320 -10.198956 
2.350620 33.097889 8.975578 
14.485550 23.703844 8.841743 
22.045940 17.371569 -11.184316 
-4.039896 25.273993 -7.032578 
-23.064808 -6.589375 3.414752 
-2.305403 32.214294 12.784472 
-1.502979 31.479105 15.609722 
24.537647 -0.018910 8.236973 
8.749420 27.273127 -1.912383 
-13.484462 27.049072 1.531526 
-26.469271 7.077580 -2.277167 
-14.191312 22.804455 -7.906336 
5.610980 21.109838 -3.625193 
20.512329 15.056789 -1.176618 
-21.725273 6.170829 8.306090 
-13.206965 13.710810 -5.883303 
31.840742 -10.066523 2.616648 
23.230762 10.740934 -5.542715 
10.364193 26.590698 -4.524739 
29.884102 1.888186 1.225619 
-16.473934 20.277660 -7.812358 
33.180088 -11.598520 9.057012 
-25.886169 -9.713698 3.873453 
-21.982958 11.681250 4.927509 
-23.187326 -3.924728 1.087770 
6.377439 26.491549 -0.460600 
-17.528299 12.439672 0.713396 
-19.900700 16.407839 2.501769 
19.176348 1.657139 -10.507547 
-26.427349 2.881972 -8.410003 
-29.294119 -3.974103 -3.324241 
26.124784 3.746419 2.416189 
30.614403 1.816620 3.055722 
-21.650436 0.198750 -9.206229 
21.007420 -5.153483 10.564448 
23.016171 -0.932374 -7.965338 
-19.579901 10.373854 6.635360 
-18.373333 -13.006318 10.058420 
-15.352853 25.236580 7.969348 
-13.179390 21.998018 -8.058021 
31.853891 0.771001 -4.976615 
20.958866 13.483915 1.823435 
9.042712 29.928083 1.768773 
-14.877138 20.749365 6.259917 
30.581816 -2.701421 -4.378639 
-11.816412 29.844936 5.485343 
-19.305958 25.360180 1.223850 
-27.216692 1.430813 7.724123 
20.007952 14.422006 -1.670323 
-2.690181 28.458649 4.026997 
-20.229603 0.166110 -8.306715 
-4.982186 23.417639 -3.097509 
24.195007 12.490947 4.267811 
33.059429 -5.032207 13.026009 
19.930294 10.951436 0.984198 
-9.354557 32.481113 4.219933 
17.664537 5.690088 15.705844 
19.959410 11.508109 -4.391331 
-25.814873 8.558459 -1.544334 
-17.203619 -0.109158 9.062223 
1.934484 23.158188 -3.112393 
-28.185907 -11.804728 9.078134 
-20.709377 -15.663047 -7.077472 
20.817921 18.730797 2.527572 
21.057861 9.755109 4.316672 
1.137598 27.116508 6.292574 
-7.543452 27.296789 -5.935019 
-15.691517 14.532316 4.432855 
-26.093725 -15.215737 9.373590 
-24.350998 -5.164082 1.437903 
9.135407 25.407417 8.669860 
-18.030289 11.900561 1.152568 
26.417044 -5.174445 -3.767915 
10.762502 18.167768 12.478768 
29.124374 -1.018709 7.082317 
16.999338 7.519807 -8.727405 
2.836332 25.067728 0.329315 
-22.704622 -8.579776 10.214985 
-19.579437 20.182783 -4.804407 
4.427408 33.336617 6.393135 
-23.845036 16.619219 5.570725 
-6.126287 31.270105 14.769428 
-19.546989 -3.023421 0.907563 
-0.323012 24.816536 -1.487671 
22.832525 0.129021 1.566744 
-17.911201 16.228422 -2.027719 
6.833409 27.545589 5.255871 
-25.214146 -6.709188 2.939361 
-16.706955 10.929331 -8.495206 
12.949612 23.301561 -7.021948 
28.700195 -11.987597 9.877924 
4.748434 24.835661 -4.240533 
24.189890 9.817063 0.755282 
-5.061455 26.207962 2.088515 
-28.935255 -1.759662 -8.265474 
-16.291561 8.302243 9.358209 
5.863064 21.603510 -4.368389 
9.890974 17.851248 -3.742800 
-23.968813 -11.726763 -2.146012 
-15.758932 6.289304 -7.275728 
-23.385645 3.913446 -10.202161 
-22.574890 18.671667 11.923294 
-29.615725 -4.916862 -2.976379 
-17.205250 23.264370 3.342820 
10.223480 28.238203 1.942945 
19.824400 -2.204828 8.827740 
10.669753 29.266872 7.400631 
-5.358493 25.974915 6.924091 
-24.279308 -9.078096 6.776671 
-0.920241 27.303627 6.676989 
10.089929 26.216084 -1.932715 
-7.747272 25.689495 -4.869706 
-9.359786 23.563391 -5.570844 
-14.173928 15.357962 16.135092 
10.171338 22.319994 9.114001 
30.940853 -5.510219 9.676150 
-25.097242 1.726831 7.866563 
-8.368402 19.739313 -5.159469 
-18.682405 19.896414 -7.169206 
7.228162 22.000378 11.189222 
-18.011980 23.105253 0.549230 
24.206261 -0.767065 -8.973333 
29.806797 3.894676 12.642995 
-16.209986 25.971487 2.753481 
-16.003576 27.254145 4.930224 
-4.451734 30.181894 9.970313 
-18.438965 7.337024 7.216415 
-27.385084 0.345889 7.373668 
29.768904 0.228075 0.151922 
-19.616133 -7.972794 8.704389 
-15.135014 11.284775 -3.856912 
20.858797 8.959620 -4.577215 
18.607563 17.390972 3.262500 
-24.055830 7.659840 -9.225770 
20.564262 14.421066 1.976822 
-19.301142 12.060387 5.325503 
23.843536 14.167198 -7.298683 
-1.681204 29.818382 2.911804 
-0.778719 33.438602 4.046049 
31.877026 -12.624968 12.940759 
-1.581113 26.985430 -10.284446 
-1.808750 31.554543 8.442560 
12.615037 15.341341 16.198032 
-13.135495 20.069221 -6.590364 
23.965570 13.242362 6.043144 
30.244770 -11.552594 2.780823 
-17.075747 5.296434 -0.182811 
32.265251 -5.413695 11.980312 
-5.720671 28.905975 11.239676 
-7.601084 30.482197 15.780914 
-6.006556 25.067343 -7.738679 
-27.806179 -10.451571 4.638571 
-24.109171 -14.928954 7.290923 
29.920462 -4.420259 11.671859 
-6.767411 30.411381 10.010739 
19.075087 18.808382 -5.000651 
-20.377468 -1.011560 9.141214 
-22.690928 18.219498 10.015623 
-20.887800 20.551857 16.390446 
15.055076 15.025876 4.923390 
-16.111170 25.988913 5.895959 
17.315742 14.579779 -4.734397 
22.067038 13.421937 -3.370227 
-19.654455 10.290385 -3.155334 
-12.661322 28.166771 1.226419 
-8.449107 25.090347 1.960249 
-15.878696 15.090196 -8.098463 
-5.162639 28.784233 3.063510 
9.674808 26.614662 6.885068 
-7.695235 31.014322 11.130156 
-25.513283 -9.910739 2.843157 
25.273495 -12.641665 13.388470 
-25.466772 7.163008 15.680061 
-19.721855 20.425581 -1.293669 
-19.460340 16.996185 -7.524766 
-21.664392 11.690868 -0.656221 
-13.684634 25.715731 -2.501538 
-25.501310 -11.005720 3.636863 
-16.232826 19.480780 9.922984 
33.515179 -10.340573 13.755539 
-19.143797 10.567680 -8.409966 
-0.074086 22.314831 -4.456264 
19.366753 15.264839 -7.575046 
-21.044228 13.171762 6.397274 
29.222889 0.449072 1.727139 
-24.023474 9.404202 0.135985 
-16.032108 14.919824 -1.069471 
20.513166 21.002378 10.189735 
-4.007731 30.271858 2.130460 
-22.640898 3.026442 0.657763 
-11.780885 19.247046 -3.803246 
-18.512768 25.114460 9.640118 
21.005978 0.616901 -3.935499 
34.699554 -4.432261 -6.244912 
31.964399 -5.404328 6.311216 
19.497932 16.103222 5.216215 
32.840073 -6.943914 -0.739391 
29.192619 5.044009 -5.317490 
-19.836348 -9.190716 2.716835 
-23.004358 11.430296 6.942601 
7.823207 21.082111 12.660003 
-8.028396 17.472712 -10.825842 
30.933083 -0.082540 15.435867 
30.660011 2.982220 -5.610619 
-19.701267 17.659044 -6.600191 
26.687834 -3.244135 -1.110204 
-28.132496 0.385873 -8.278606 
12.435208 23.968863 -11.858863 
29.036087 -13.301365 6.358893 
3.831461 21.112087 -5.193408 
30.878868 -2.762678 -1.651501 
-25.481806 7.708204 -7.033241 
-28.944311 -3.173144 -1.515104 
0.696186 29.057987 8.191685 
-9.084589 16.774361 -10.405252 
2.713267 28.447254 2.383126 
-2.877794 27.099258 -9.922925 
-9.767323 29.237665 16.870708 
31.407900 -12.595508 0.426714 
-22.057240 18.447462 4.634039 
-16.642927 18.417839 6.426554 
27.524908 -4.772387 -3.861945 
-27.247744 2.493558 -12.224922 
-18.985840 -3.584963 2.360971 
27.560812 0.438953 -4.362534 
-6.849093 27.240591 -7.986405 
-28.052212 -11.996291 4.468777 
-25.544573 -6.067144 -3.361501 
31.895727 -12.244481 -4.876677 
23.820826 -10.559531 -0.443859 
10.595015 26.963125 7.250305 
15.977330 21.906645 4.803370 
-17.931841 -2.212288 -6.779922 
16.901096 24.334087 2.103988 
8.690502 25.598650 3.937448 
-28.233425 0.359378 -9.494608 
20.785849 13.132707 -5.918628 
1.892654 28.069902 10.624715 
-1.377754 25.743801 8.861804 
29.961746 5.472335 -7.513609 
23.419249 -3.397391 0.210569 
13.040947 14.364817 12.769650 
23.503305 16.486893 11.911390 
-25.922583 8.515025 -4.701581 
-18.895977 -7.465533 -5.260898 
31.112867 0.490328 5.122699 
22.996689 16.852861 12.998260 
29.988529 6.338477 -9.370554 
21.773569 -1.893058 -2.720430 
33.851124 -9.151142 13.943476 
7.389321 28.002031 1.399084 
33.913532 -9.040037 10.861703 
-14.907613 13.034597 14.284039 
30.672150 -0.721648 -1.405618 
15.665256 10.270041 15.940355 
-12.404301 23.425093 3.622153 
16.377377 21.673004 -3.605077 
32.865974 -12.395844 14.060555 
-14.172853 26.353619 10.927660 
-20.521578 -6.485455 1.284270 
10.317067 23.047926 -4.208908 
33.176086 -7.121866 11.747931 
11.582724 18.543415 -1.512345 
-26.373631 1.778290 -0.235613 
-17.012062 14.414899 9.759712 
17.045181 13.228493 2.691795 
-18.911482 16.212301 -1.749415 
-9.021101 31.214441 9.172561 
-23.680756 12.022882 8.156395 
-14.801737 17.093222 -9.158694 
28.986483 -9.506126 4.697913 
23.405182 -7.846338 -0.025322 
16.349310 15.073357 1.880998 
31.948507 -6.113370 -1.922918 
-15.915767 12.417571 -5.215064 
-27.556587 -12.269364 8.350592 
22.288921 -0.752767 1.572787 
30.945881 -6.537737 -2.951831 
16.432562 14.812536 5.649447 
23.849920 9.049756 0.832918 
24.143293 -7.810668 -2.756489 
-4.332712 24.482710 -6.575730 
-19.250763 15.779698 2.626013 
9.873229 24.149910 -3.218006 
-25.810118 5.212979 -9.521500 
-12.476382 27.815001 2.262845 
5.502466 19.134018 -11.869034 
19.776207 15.231394 -5.261131 
-15.575534 15.876301 2.522583 
25.650476 -4.443537 0.973215 
17.111069 19.472046 -5.383280 
-24.244562 -15.826391 12.651063 
0.497272 26.335623 2.040992 
-3.613216 28.392271 -0.788534 
-14.486482 23.286304 10.877083 
-22.394405 -0.699798 -3.756654 
23.296350 -9.510517 8.612910 
21.133167 7.801798 1.638576 
-13.375584 19.096281 9.833313 
-16.727270 19.989960 2.578931 
5.153147 24.709755 -1.829094 
5.206771 30.502714 2.185083 
29.683973 -13.937016 -0.789612 
-27.855944 -11.199531 4.264246 
-20.794340 21.808327 11.594360 
-28.345924 -9.353941 6.408306 
-1.592584 25.524227 -7.635375 
-20.686787 14.220176 -8.377780 
-17.739105 25.491995 8.855747 
-19.386257 -0.136138 -4.292538 
-17.083878 0.766272 -7.767340 
-28.455982 -11.839335 10.281534 
18.819941 13.752971 -0.463653 
-19.303791 13.149148 5.993502 
27.961386 -6.641212 6.862013 
5.300873 25.962328 9.320910 
24.704056 -8.356876 6.225193 
-22.602810 0.205579 9.718046 
13.637930 19.816540 -6.502728 
-8.618486 25.418257 -5.668610 
26.440878 -11.651155 3.078594 
-10.174482 30.389265 6.968739 
-5.526971 32.897167 7.199942 
5.647162 27.541679 5.144450 
21.542843 8.559341 -4.416741 
-17.170189 16.803318 -9.110555 
-17.254051 26.236252 12.566360 
-23.987698 -14.988813 5.770066 
30.772964 4.423486 -7.622815 
-8.746826 23.750347 9.228256 
11.684875 24.636337 10.909685 
-26.308306 1.522970 -4.607522 
30.497171 -5.303160 -3.081700 
-19.014700 2.162182 -9.583784 
-26.800892 -6.001168 6.547627 
-17.653576 24.041458 9.061201 
4.865066 30.483257 3.041494 
24.923725 -2.388199 -7.875969 
21.058985 10.551328 8.894565 
28.825119 5.803196 -4.653194 
30.298883 2.803326 3.477101 
-21.181484 0.959363 -9.545877 
2.989857 23.593126 -1.470667 
22.390602 -4.705171 6.659145 
-15.771119 10.179104 13.817217 
25.358650 12.261703 8.437852 
-17.449703 -7.439652 11.046447 
33.250961 -6.290479 11.179090 
8.124880 19.056965 -5.259386 
-18.109455 8.238418 8.706539 
-6.813936 26.989223 -8.919923 
-18.028267 7.202782 4.604056 
18.646006 19.877060 -0.657034 
-21.662214 21.160803 12.958353 
-17.423512 2.076194 -1.000275 
4.480433 25.197886 -5.247698 
-18.771246 9.741827 -3.680613 
29.638165 -10.583113 -2.750917 
10.544732 25.081377 5.576807 
-13.781130 25.521662 -3.290910 
-4.964807 23.726591 -2.111671 
-21.682249 -12.817871 9.325965 
22.127968 -5.468049 -7.206080 
-19.678471 18.532242 -5.998597 
14.728931 21.084623 -5.831262 
-28.314875 -8.287350 6.892436 
29.978813 -13.383508 9.859154 
-1.254274 23.874025 14.584232 
-15.527938 23.758335 -6.398695 
-13.866259 25.303955 1.985718 
-19.754356 6.724532 8.331367 
-18.818501 4.499572 5.842680 
21.708975 10.670837 -9.060174 
-17.544184 20.261692 -12.756981 
21.138550 16.639322 1.956729 
-17.745596 1.937308 8.037623 
26.913553 -3.770230 1.880085 
31.819016 -1.272177 10.773456 
-21.423622 -2.672935 -2.830033 
26.973244 -4.842093 2.102005 
-22.748741 11.086041 5.595429 
3.652221 20.159737 -8.627403 
-17.685448 -11.414983 5.848204 
17.347370 16.326935 9.598145 
34.250145 -3.240723 -5.041042 
-16.214928 14.289150 3.451867 
31.997427 -4.308337 10.453663 
-23.847305 -2.988957 0.460562 
4.009861 32.088394 7.924269 
20.969376 -4.986304 8.245293 
9.183741 26.679003 -3.833683 
-23.361134 -0.624655 1.888362 
31.086567 -3.584742 3.970184 
-7.533875 29.723259 3.281484 
-21.645624 9.152947 0.443532 
-21.619629 16.316883 -7.177800 
-17.797510 20.212439 -7.649738 
-18.884323 16.175915 -7.563268 
-19.276333 5.289108 5.283619 
1.776044 24.660421 9.653376 
-24.494350 7.867974 -8.402450 
-10.190981 30.441925 12.711498 
-12.936026 18.987150 -1.465571 
-2.312835 32.385262 11.577811 
-18.692232 -4.022387 6.704153 
-13.760205 26.140594 2.610832 
-23.872747 -7.791354 -2.249054 
7.133057 22.471537 -1.070547 
-19.404524 -13.050783 3.514981 
17.661406 16.173359 -8.422574 
26.168869 3.333408 -8.767118 
20.803452 20.259567 12.778507 
-17.150551 2.173018 13.425559 
-12.165519 19.333567 13.274755 
-19.527760 2.036277 4.174757 
22.173878 -2.073970 -3.502412 
-7.045370 32.661407 7.837393 
6.550368 31.219618 10.975222 
-23.725325 10.093188 6.751564 
-26.971073 -13.769887 6.372476 
-16.582228 5.606146 -4.594788 
14.132924 15.946152 -1.601629 
-9.321941 29.921036 1.387350 
-20.879391 16.816214 -4.930646 
-15.709871 12.339636 -3.962142 
-7.533822 23.442078 11.105391 
-3.674616 32.007549 0.311945 
13.207391 19.911293 -3.003775 
-15.927127 5.485884 -7.617929 
-27.376623 -7.292436 8.209994 
29.615002 -4.476946 7.382856 
4.399651 23.520338 -4.981105 
-21.503885 24.032093 5.233176 
-17.123989 19.635490 3.430214 
-20.893673 -10.177432 9.650814 
8.035728 21.434826 11.159247 
33.906773 -10.793673 8.986935 
25.966000 11.737186 10.178194 
16.678171 16.102201 -8.396794 
-17.787033 14.205938 9.880635 
16.376125 23.410877 8.809592 
-21.284927 24.229855 7.592024 
-22.903233 5.814454 0.820299 
17.776505 14.489895 5.833603 
-0.152785 27.663027 -7.447214 
-8.557512 22.291813 -5.338567 
-26.235733 1.616562 -6.571793 
-8.888208 31.110899 12.609221 
28.279741 -15.209021 12.415280 
21.778597 -0.797763 -4.983123 
-25.272114 8.395359 2.225996 
-11.186987 26.750469 -1.297535 
25.145420 13.286569 8.129186 
-21.589354 22.378387 5.928128 
-10.856029 19.074770 -6.659529 
10.012845 21.836002 -6.333551 
30.635201 -3.474311 6.095686 
-27.407452 -10.067908 4.038843 
18.235104 16.959349 9.456076 
3.083480 32.260891 11.326728 
33.376720 -8.801097 0.974615 
-11.064722 28.936829 2.108736 
-21.928955 -17.899799 -6.605629 
-28.722546 -10.500750 11.957474 
-15.629239 15.763732 -0.121915 
23.524956 -10.176295 -4.547824 
-26.012760 -2.904390 -3.954586 
-23.410587 0.051853 -6.985119 
21.850687 12.406543 -5.010216 
-31.511518 -13.183686 -7.869590 
-8.300200 23.000006 11.485611 
-15.202827 22.201155 -12.768774 
12.432663 21.364750 9.748171 
26.246044 7.200056 -4.221786 
16.837158 13.584274 0.785823 
26.266996 -9.716829 11.287957 
22.960022 -7.491019 -9.916677 
-19.407761 -0.514498 -1.833782 
-4.436515 27.074911 6.713387 
-17.692856 8.211744 -2.445903 
-12.709499 27.857788 16.791613 
2.530547 27.076254 -9.719313 
15.389091 17.967043 -2.910125 
34.020260 -7.677392 -1.267552 
31.431772 0.343236 -6.031639 
-18.595219 6.586782 4.443980 
-23.739336 -15.001557 -1.422850 
30.683954 0.930670 5.873215 
-12.851019 17.198441 -2.942980 
-17.177855 21.740681 -3.393247 
7.806223 25.017393 -6.992652 
-17.498903 15.282845 1.622422 
20.531706 16.813585 0.858250 
8.669290 24.480337 1.192960 
-27.832533 -2.483208 3.677100 
18.728241 13.104318 1.576844 
9.214909 30.556883 6.275517 
-25.628531 -1.868687 9.571917 
11.257513 18.646536 -6.082612 
-7.291802 28.477381 0.554731 
-20.438944 9.103758 0.133597 
30.064173 -1.199493 2.360755 
-23.470316 -12.711987 2.629636 
-3.980407 20.198278 -7.124942 
-11.165546 15.415026 -7.942245 
30.518707 -8.245167 6.241663 
-17.112059 -1.148012 8.680994 
20.417618 18.809778 -1.372538 
28.729536 3.274088 7.347078 
-8.388434 27.361115 -3.339701 
-6.317990 32.625786 -0.004233 
-17.561941 6.659430 6.916172 
-10.910381 25.109278 6.476432 
-17.938019 21.585442 -5.662438 
-6.713680 32.944061 1.015320 
15.528500 19.611256 0.982828 
-6.374521 26.705904 -5.240172 
33.037537 -10.178376 0.852233 
29.990635 -3.128921 1.169385 
-0.552497 27.124821 -9.849401 
-21.010662 9.382298 10.341082 
-9.481054 17.153990 -7.375295 
-20.814306 1.697505 -9.798621 
-14.834373 12.295908 -0.378187 
-8.584340 27.506124 -1.303440 
-14.336699 14.980000 -3.484974 
20.484577 19.156807 16.416109 
-15.898646 9.658447 10.839507 
-24.303160 -10.698437 2.115469 
19.660391 17.057554 -7.936567 
-14.189700 25.714426 8.115849 
-21.677000 -0.614043 -4.901690 
18.252977 14.079600 9.643035 
10.336777 25.099148 8.927381 
29.897680 0.070083 2.138890 
-11.781984 24.338379 -7.517684 
14.409045 27.867785 9.053238 
-4.741992 20.077166 -6.537478 
-8.236944 29.785419 16.902971 
-17.150339 4.170058 -2.482784 
-5.996163 31.917208 9.826921 
-17.389357 -3.386332 11.903984 
-1.971016 26.366352 1.068517 
20.203165 17.067602 5.969395 
29.745522 6.360656 -8.537496 
21.800827 -0.680144 -0.213428 
24.564857 2.366080 1.273443 
8.082535 30.136499 14.539396 
28.233120 -0.662248 2.859915 
-17.156954 17.700502 9.522914 
-12.778509 23.832361 6.147166 
-24.230541 -10.046229 -5.951564 
24.522629 12.628774 7.324482 
4.671116 24.691523 -1.077395 
12.433467 13.635872 -11.345804 
17.249664 12.753569 1.884195 
7.935860 30.152187 1.618579 
-1.923376 29.261391 0.980210 
-20.602211 20.951244 11.504475 
24.256521 -10.074824 2.557080 
-14.222286 23.277508 8.796256 
-18.111523 -3.184489 -6.687985 
-26.618954 -16.738602 -3.337328 
-20.319269 23.172123 13.557758 
-28.030869 -8.891407 4.441961 
5.371164 28.650482 8.918643 
23.907375 -10.970999 0.333337 
30.118254 -12.012419 12.593832 
17.490088 16.036207 8.650040 
14.042618 19.489861 8.962527 
-14.812202 24.288036 -4.493212 
-15.457972 13.242079 7.746082 
8.339622 29.276173 1.179110 
14.115507 19.652416 2.207993 
-26.796724 -6.276901 -6.784260 
10.332343 18.655369 -1.913888 
3.815497 27.680012 -3.922364 
1.506806 24.036957 -4.901137 
-3.994326 25.598827 -6.073569 
27.344044 -11.515435 3.650865 
-2.280731 27.744230 3.545770 
19.558018 22.283880 11.670803 
-20.513704 -14.901304 -5.521759 
-23.649103 -0.129013 -5.296560 
12.959998 20.976671 2.285816 
-19.769974 19.575008 3.681960 
4.855821 28.461046 -0.713340 
-19.343939 9.553847 -2.445574 
-14.271420 15.538975 -6.348224 
-21.416189 7.150259 0.163274 
-24.216330 -6.599628 5.836569 
-16.918743 15.202108 7.266216 
15.825127 15.055846 7.002753 
-12.074246 23.977190 -12.744032 
-7.035765 28.340086 3.679625 
-1.331591 21.524040 -5.605078 
-25.059755 8.454468 -11.324245 
28.662273 7.306547 -7.626926 
10.331054 22.365015 0.710687 
-20.456947 13.698758 6.826442 
18.975052 11.901708 -5.543360 
-14.780808 24.173586 -8.534902 
-9.294860 25.917870 -0.577503 
24.598442 14.308221 -9.869675 
-15.108546 20.154224 8.016040 
29.690510 3.327683 3.813102 
4.173173 31.422298 14.045397 
13.704007 25.076035 -3.022766 
-27.057755 3.039942 8.748163 
30.823784 -12.665620 11.118814 
4.080448 31.021038 15.440374 
-18.854694 6.379926 -8.931299 
19.059538 13.953281 10.379217 
-23.630186 -7.732080 1.955675 
-23.805370 7.748613 7.291031 
22.771383 -2.370525 -5.289975 
17.192444 14.821954 2.546743 
-8.200477 27.529383 10.545549 
-20.145491 -0.851972 -2.002615 
17.622614 24.101946 13.718684 
-14.811218 15.899043 7.261359 
-26.957981 -3.421774 1.533121 
24.277580 -4.415183 -0.646986 
20.067087 21.740227 11.173329 
-10.041191 18.098766 -4.087652 
-5.635633 21.200907 -4.446190 
26.917200 -1.631748 1.064405 
-3.365821 24.879942 -0.650149 
-8.387992 20.468445 -3.806152 
-21.889420 5.452621 6.225019 
9.706570 30.197702 3.581479 
16.481108 24.701944 1.495260 
9.295195 26.757246 -2.806905 
-16.684832 14.746240 0.825199 
30.772293 -9.420101 -2.610125 
-28.330170 -7.289702 -5.800476 
12.393933 28.573061 5.437360 
27.418411 -7.878573 12.112493 
-3.400953 30.657856 1.532850 
29.554394 -4.811548 -3.521096 
-21.326427 -17.290197 -11.028735 
-15.840433 25.238045 2.298203 
-3.993849 26.267933 6.946054 
22.734833 11.757581 2.715114 
-22.221306 -14.103430 8.811506 
-19.244402 20.811106 -4.417556 
21.731823 -6.706774 8.820084 
-12.301742 19.386806 -6.700432 
7.699455 28.841236 1.593192 
-8.796254 32.341137 0.312348 
21.434572 18.823032 3.170808 
-10.768368 23.684286 1.028701 
4.730350 31.760239 6.382843 
18.014521 20.704582 -4.893695 
-10.159373 26.334620 9.036212 
-23.266825 9.273337 10.086302 
-15.336021 24.205006 8.267907 
25.079340 6.586142 -3.410961 
15.636290 10.930583 -6.844792 
-12.344533 24.305727 4.215645 
24.165771 13.917958 1.836944 
10.369254 18.152323 -4.627400 
18.204916 20.824368 8.272003 
-11.561579 26.924076 -0.595669 
-21.880888 11.719026 3.608144 
-23.626562 -16.249311 7.291896 
-9.521910 21.015795 -3.532290 
-18.811623 6.435099 5.212970 
-31.358465 -12.499588 -6.422543 
-24.235945 -15.608887 6.791586 
20.537170 13.782311 -2.349833 
-27.280090 -5.336907 -6.757694 
9.848816 21.413683 7.872766 
-9.454640 26.204273 0.245522 
18.704884 16.573900 3.627523 
-24.192312 10.381253 -8.651812 
-20.079670 -0.730855 -2.841954 
23.274538 14.001594 -6.077730 
22.823288 -2.677361 -3.614618 
-14.658907 15.538633 -5.314111 
-12.732963 22.427534 2.751681 
33.953453 -7.478001 8.469471 
20.911631 13.956103 -1.220138 
20.381926 9.901822 7.382466 
21.262783 -4.692235 5.860811 
-19.606493 -4.266040 -0.617229 
21.368433 7.838500 -3.366327 
27.557146 -4.091969 -5.325886 
-17.913200 5.043299 7.127781 
-10.296625 24.353367 8.170032 
23.566341 15.583015 -9.735059 
30.072721 -5.054752 12.261301 
24.197962 2.156444 3.894831 
-10.025960 15.974283 -10.253599 
-13.039479 23.563734 4.114154 
30.581451 1.251120 -1.070459 
22.313362 13.093977 -6.178960 
5.049839 31.212158 8.878979 
24.591091 -8.481903 1.292124 
-20.907681 15.000723 0.893931 
-0.011035 32.363880 13.037496 
-11.444759 29.135197 15.326066 
-23.250530 -5.004992 -3.238162 
-21.436008 17.843311 7.247257 
-25.462408 0.889634 -5.640210 
12.564059 18.614870 -2.578931 
-16.119558 6.829036 -5.238833 
5.798577 19.324057 -8.727760 
-19.397781 -3.288181 -3.004157 
4.611717 26.485596 7.009827 
-14.568072 18.108746 7.834586 
7.488444 22.396843 9.926327 
23.500046 -10.538898 11.397799 
14.204289 20.712824 -6.736626 
19.069626 19.926077 0.678677 
19.741089 20.979385 9.158796 
29.905682 1.732313 7.898763 
-17.657967 -11.569448 8.129528 
18.715509 3.324760 7.698453 
21.028305 -4.891181 7.304735 
19.954086 5.434309 -5.530436 
-17.895140 10.347361 8.258506 
-3.843084 28.676804 1.317561 
-5.159743 22.457174 -3.709529 
-18.186893 12.244014 5.114578 
-27.314796 2.449183 5.005804 
25.937687 -10.206042 3.017729 
20.400299 19.962753 15.092607 
24.403801 15.542296 8.317165 
-19.642963 -4.824057 -2.182251 
20.845741 3.798700 -5.591887 
7.948508 25.668430 6.139703 
27.957243 6.864388 -1.862127 
-27.064310 2.500978 -2.062670 
5.581632 28.603676 3.212142 
29.673418 -2.844970 -5.173907 
-22.647718 13.875888 -3.144790 
9.910824 24.052561 9.598419 
28.036894 6.819827 -3.857549 
7.057882 21.182745 -4.933869 
-25.416775 -9.055292 3.878847 
2.957967 23.088526 -6.134008 
-14.866198 28.017004 1.490186 
19.452490 10.771171 6.573583 
-10.585894 24.677774 -4.179408 
5.353240 33.207764 2.231143 
-28.297529 -4.725125 -6.348887 
-28.399309 -8.171500 5.989162 
28.588285 -14.149290 -2.232790 
10.999580 23.637259 -2.181223 
-14.189422 26.481543 1.511440 
18.942932 14.635492 9.954963 
10.544518 15.815969 -11.522252 
31.774036 -6.603244 2.836809 
13.151473 17.815540 5.352415 
-28.045719 -2.523935 -3.089914 
31.078814 -14.365608 13.749879 
21.864918 -1.357269 2.137153 
16.395313 26.336672 8.588380 
-8.896186 22.877689 -1.431411 
1.471238 30.711079 11.544527 
15.470300 22.867357 2.397112 
-15.651070 21.894005 -2.195701 
-11.594629 24.285583 9.907644 
-16.646616 13.734644 -6.668153 
-4.007009 25.750456 -5.148998 
16.821972 13.196556 4.372732 
10.246974 22.702681 -6.210213 
-6.710336 24.291435 8.728458 
-8.033079 28.005260 -0.683639 
-25.015528 2.522712 -9.533395 
-24.730289 -5.299917 6.916051 
-25.744677 6.272449 15.632874 
-19.704327 7.178136 -8.935487 
-18.565552 -12.500709 7.473788 
-26.906744 -10.996171 -0.760370 
22.498575 16.032555 1.367631 
-10.807562 28.851486 5.546794 
14.620377 18.198505 -6.218840 
-15.110764 25.196299 8.760849 
30.597589 5.355289 -9.397310 
0.683433 26.612700 0.086170 
-3.845771 28.385635 0.445483 
23.580536 1.772916 6.298926 
-21.760794 5.308300 1.943710 
-27.940517 -7.038933 6.634304 
-22.335421 -3.728861 -5.857635 
-7.821973 21.506437 -2.461527 
-21.273958 -9.997260 -4.769187 
10.052423 18.893490 13.016448 
-1.501601 28.905767 8.984495 
9.194448 26.727129 -7.057270 
-15.611172 20.110065 6.049318 
-11.335245 21.537722 10.041852 
26.767019 6.085577 -1.153093 
-2.699285 32.793446 2.376426 
25.531233 -6.717834 1.384786 
-17.682556 13.015033 1.505729 
-18.859409 7.579130 -6.505075 
16.477482 17.317616 7.263857 
-1.742541 27.363150 2.912695 
-0.775930 24.524082 11.637135 
-16.298656 26.890520 8.858928 
23.658375 -0.614183 0.272599 
-2.685949 22.707771 -3.180673 
-20.865973 -1.893824 9.179301 
-28.930712 -10.086724 -2.701523 
-21.013189 18.823870 3.659394 
12.505628 27.476177 9.230569 
10.635760 17.904099 16.327202 
-17.029104 13.910913 2.913692 
0.687245 26.675337 7.242402 
5.301217 26.879944 -9.230726 
15.268187 23.937086 2.887650 
15.113639 12.939304 -5.144623 
20.023754 11.371022 1.813147 
-0.154996 33.391548 6.465715 
9.377321 29.957277 9.133089 
31.430103 1.127667 -3.098040 
-2.337034 21.295588 -4.820040 
24.074505 -3.287458 -7.254631 
-2.875972 29.309832 2.174567 
25.176447 -10.691846 9.765510 
13.761707 20.957022 3.761857 
-24.420666 -7.590438 3.826283 
-24.783930 -2.067874 9.603662 
24.627317 -0.399875 0.686863 
17.887259 16.831648 3.320168 
28.293470 -13.043443 11.361392 
13.501783 16.743647 8.821348 
32.593021 -9.228456 -0.492935 
21.976393 18.544930 10.336827 
17.318243 20.089008 10.243539 
3.195796 26.719069 7.850438 
-4.456810 26.840363 -0.183856 
-20.544973 2.662792 7.463378 
16.235331 22.461723 7.176210 
-19.199091 -7.972727 5.881215 
-21.275608 15.729297 10.311361 
-17.332130 -2.523153 6.976837 
-19.829922 15.553816 -6.132779 
28.346586 -5.929181 11.904449 
22.136127 14.219368 0.760005 
-23.441654 13.659805 8.011358 
14.351433 24.761763 -0.608693 
-10.908763 22.339321 8.997284 
23.475046 1.393708 3.303642 
8.914344 23.936960 0.580794 
11.164147 29.333050 11.823911 
-8.285839 20.496159 -6.716300 
1.167718 24.977890 9.121018 
30.489052 -4.109800 4.129134 
-5.593408 33.080040 1.374215 
20.675230 9.684140 -8.920701 
-0.959226 24.809978 -6.577101 
31.937771 1.147008 -5.896977 
-18.661152 -6.277079 -7.240880 
-24.325178 10.091107 -11.120264 
-21.466965 3.948865 0.083871 
-0.912509 26.303308 -5.538774 
19.739145 9.378507 0.319256 
20.305094 12.506792 -7.969996 
1.902589 24.973164 -0.111575 
14.986072 23.937540 -1.567165 
-18.687691 0.703733 -5.290132 
27.040846 5.498078 -0.580315 
-18.202078 16.620338 0.792049 
-14.879448 25.289919 9.798198 
-13.952352 13.120249 -4.895930 
-7.452805 30.021591 16.917177 
24.517443 -8.298345 8.295845 
-16.019699 17.437208 2.255473 
14.666365 11.904547 12.283690 
-23.146208 11.986266 -5.841424 
-21.610025 -4.768704 0.539078 
24.989008 11.593551 -6.408676 
4.364120 26.176699 0.915338 
5.253949 27.563555 -5.828425 
-7.739739 22.903481 12.664296 
5.706684 24.333637 -4.958818 
-19.867630 -7.780964 -1.906967 
-5.871533 19.604343 -6.236053 
-10.230350 31.393368 0.661653 
29.945906 -12.043011 2.132699 
-20.334877 24.036036 1.281345 
-16.528215 3.646268 -11.895205 
-13.467809 19.100582 -5.794036 
-14.773188 28.751677 7.100986 
-13.468940 12.067664 -7.353427 
34.774277 -4.504065 -7.806605 
7.707075 27.287731 4.960551 
-24.305357 -4.713156 2.110442 
-8.303193 25.991177 9.295243 
-18.123608 24.245872 10.086589 
-19.381435 19.112452 0.588893 
-11.910065 30.356983 2.689918 
0.775931 21.610071 -5.723140 
-14.283197 24.721582 -6.819980 
-7.974751 22.440889 14.598204 
24.323626 10.666191 -8.140831 
-14.637889 20.751692 7.080983 
-6.266828 28.707556 0.989081 
12.157952 18.743124 -0.826375 
-19.984980 -9.837191 -1.186797 
-19.215511 -8.959296 -3.045529 
1.240934 28.592417 10.966855 
32.700428 -4.514253 15.208548 
-18.036690 1.140166 -2.316962 
7.780252 22.827347 8.883804 
-13.412879 23.273592 -5.808613 
25.738834 -11.250133 3.108994 
-19.159836 9.235869 10.155175 
25.209057 -12.733904 -6.409067 
-15.518135 11.600130 15.935566 
-23.000063 -15.030347 7.469048 
16.216124 17.666126 2.101516 
9.474110 27.513533 7.914942 
15.795043 22.152296 1.936208 
-10.955463 26.882700 1.904164 
-12.259120 13.618147 -8.754906 
20.117113 -2.264368 6.105483 
21.016176 0.014900 4.941556 
-29.843475 -19.151474 -8.832656 
-18.437248 9.872627 -5.715125 
22.643360 -8.127998 8.513738 
10.849523 27.260029 3.325819 
22.331507 -6.407146 -7.081060 
-21.968845 -10.680983 0.931747 
24.198410 15.194518 12.320100 
32.293571 -12.415239 10.265312 
-6.513639 25.844030 9.598676 
20.347172 18.782043 -0.083538 
27.411270 -5.490471 2.447436 
15.727969 15.996913 0.760910 
3.700184 33.798637 6.740149 
-7.833448 22.342686 -2.469000 
-2.274712 27.221447 -5.451066 
-20.224579 -2.380527 8.858841 
11.301097 22.905472 2.595746 
-10.627037 31.233116 3.412336 
-27.725931 -12.390025 7.423335 
-16.547400 2.927678 -8.488527 
-18.867155 19.052185 1.494488 
-6.610733 22.569548 -7.438334 
29.366926 3.513621 4.911121 
-19.678497 22.337812 16.486629 
28.331562 3.925301 4.965355 
-17.421368 -0.396049 13.753830 
-25.659601 -12.874335 -0.031220 
19.263147 9.665761 3.482055 
-10.950147 20.116737 -7.502191 
3.380600 29.736176 10.802464 
31.054899 -4.320688 1.844144 
33.896465 -7.355196 9.352974 
-9.011985 21.638298 16.475491 
5.070160 31.520903 10.530553 
-17.791359 25.855392 11.392244 
26.963882 -2.713937 1.856015 
-18.724722 10.987554 1.485184 
-21.069548 12.755107 -4.165279 
-15.504452 16.987740 2.827914 
-17.635050 2.059506 -2.425094 
-21.621992 -7.452878 -7.168955 
-20.195457 18.311613 5.976202 
-5.609953 27.120224 -2.956949 
-13.010474 26.180136 3.647533 
-14.800590 23.733585 9.364114 
-0.368706 26.435181 -4.296405 
-20.328915 0.858744 0.630683 
22.935080 8.853863 -4.904027 
-19.384613 17.206921 -1.434934 
-0.086249 26.956978 -3.089559 
-26.039167 7.392694 11.626933 
30.991936 -11.994483 8.087917 
2.055975 26.141273 -12.341418 
-7.171573 31.836979 11.152347 
-1.499402 31.132832 9.560295 
-20.419893 5.098745 -10.280092 
27.756615 1.898126 -9.144658 
10.389348 29.190289 2.101513 
29.253664 3.559675 15.622149 
-25.494522 7.959894 -9.811796 
-18.832649 20.780634 11.715624 
-21.727062 -2.789224 -4.488762 
-23.873119 15.206450 4.169578 
3.774618 30.530638 9.433856 
30.036356 -7.376089 -3.585279 
-22.120064 11.241699 2.465267 
18.560888 11.882545 -4.619921 
-26.069916 -4.252903 5.095363 
33.857464 -4.214576 -2.966539 
-1.882193 29.902576 5.262345 
23.482405 9.580039 1.618470 
-19.421368 -1.765298 8.661637 
-17.906641 23.256945 1.395364 
-14.835144 13.037842 12.753102 
-10.911829 24.747332 -6.079737 
30.105293 -11.808362 5.526688 
17.044380 24.605858 7.904939 
-6.703217 29.180565 3.762735 
26.655859 -3.358595 -6.580533 
-25.348328 9.463409 -2.162368 
15.440551 23.094645 -3.249964 
-14.352202 15.515529 8.435346 
-20.508009 15.103612 10.345008 
-6.114562 25.350189 -3.959976 
-9.204794 24.499855 -1.927445 
-24.207489 5.301673 -7.876922 
-14.686856 22.914709 -6.642906 
-26.490294 4.724682 -7.174002 
26.434250 -5.864973 9.974493 
26.227058 -12.679826 0.986432 
-4.042553 26.124155 -2.049248 
-18.896980 16.165398 10.357916 
26.496416 -13.651857 14.716392 
-15.124662 15.411567 -8.383831 
30.853260 -1.266465 -2.358429 
21.350830 -5.989586 9.059314 
-19.155088 -7.270805 -3.137357 
19.987654 15.894433 -7.583187 
-23.425770 -15.829266 6.288163 
-28.539974 -7.437692 1.949427 
14.999344 23.757704 11.167356 
12.421771 18.767221 -6.120691 
-14.723266 11.016953 -4.820432 
-5.009740 24.817261 -4.255933 
16.990490 16.441200 2.543902 
-14.223334 25.076723 10.484461 
-16.371431 7.129972 -4.498321 
26.023777 -10.444330 -0.943771 
-26.060246 5.186814 7.761124 
-6.157311 21.042753 -3.021399 
-18.436750 21.873789 -1.190240 
27.637970 -6.334500 11.625562 
9.792884 23.226175 9.224761 
23.412531 10.967290 -8.590494 
-3.498724 25.859266 -3.065031 
-25.489105 7.776711 -10.611896 
-10.404180 31.614561 4.178785 
-18.079531 10.491760 1.566294 
-16.966282 12.138852 -3.501160 
-15.118407 22.734186 -2.053529 
-14.814720 12.985936 0.347132 
-21.090658 -5.961627 -6.495904 
-20.000652 17.019791 -3.525630 
-20.076466 9.976898 0.078378 
-16.887245 4.848958 -1.780192 
28.240686 6.566656 13.900327 
21.279800 15.981647 -5.035340 
27.481609 7.996064 13.956594 
-23.986319 2.203337 9.586428 
-23.564739 -3.921330 9.019574 
-22.157377 13.767233 -0.339521 
-15.251769 16.203291 3.325492 
17.367952 24.640331 10.862365 
-25.729034 7.278202 14.157800 
9.902857 26.969530 1.826691 
5.341362 24.924246 7.708372 
14.882531 24.019579 -2.722868 
22.413267 11.971704 9.653637 
22.982405 12.877978 -3.370026 
-4.833901 24.859541 -2.929319 
2.715807 27.675625 4.156332 
23.316080 1.494061 -8.248002 
24.354792 2.331995 6.450721 
-27.799126 -8.578060 -2.331414 
-15.540384 21.594116 4.820778 
-14.609054 18.874777 0.655297 
-3.387401 23.724651 14.570473 
31.381544 2.088068 -2.990304 
27.755527 -13.467546 -9.446776 
-15.189670 13.601099 -3.008106 
-9.385804 20.387468 -1.690972 
-24.950417 6.766662 0.620280 
-3.925829 22.522087 -5.695083 
-23.461243 16.605499 12.615661 
8.874275 22.449806 -3.608810 
-27.206882 -19.134014 -6.465985 
-21.219288 3.146484 0.243992 
28.960165 -6.045894 3.397429 
-20.108995 0.003804 0.052091 
-3.131942 24.912457 -3.079720 
18.959513 19.517643 -1.925125 
-1.503379 29.210648 9.782188 
14.203260 20.300741 3.134021 
-24.956871 6.239177 6.408356 
12.213885 18.452341 -3.873062 
11.352851 27.788729 16.845320 
30.199797 -3.634792 -1.917225 
21.564484 -2.626344 -4.947669 
-24.409805 2.818806 1.592501 
26.655146 4.828119 -0.285738 
-12.395415 26.232962 4.766298 
-21.098858 -14.064969 8.360889 
-20.450521 3.256184 3.225138 
3.004604 27.528267 -8.009712 
-27.481112 -4.446828 -6.756846 
3.302035 31.090307 3.871156 
-21.620697 3.701916 5.885539 
13.460328 13.927735 10.965363 
21.797594 4.812228 -3.494194 
15.924806 21.265402 1.879187 
-19.833786 9.930273 -1.693458 
-12.477515 25.569546 3.753830 
7.005925 25.625504 2.494125 
21.226444 19.695501 12.357151 
-21.310785 -3.258314 0.476226 
24.343092 15.335361 11.276001 
-19.245884 18.973974 6.064094 
31.792679 -6.418550 6.452265 
16.755846 18.257631 -8.397890 
7.504993 18.187595 -11.749745 
-16.082685 9.186437 9.085660 
-17.196363 2.859725 -1.398484 
-23.212177 -11.062190 2.793772 
33.186531 -11.213115 11.273202 
-19.088152 16.632534 -6.016477 
-16.764906 15.462387 -5.082417 
-19.431095 -7.506184 0.519916 
30.527868 -12.177320 0.293843 
-13.885174 25.174583 -4.863292 
20.706333 18.383234 -6.929314 
-0.689332 23.589626 16.597260 
27.002783 -6.235121 6.060540 
-19.623880 23.644075 10.967662 
-16.105759 22.598398 0.471114 
-8.768825 24.536259 7.941110 
2.132247 28.031637 -3.349152 
-28.195536 -10.528435 -4.138365 
-18.714743 16.951521 10.161766 
15.102117 23.145103 -5.442970 
-26.003208 -12.087930 3.234340 
