17.588291 21.224688 -1.516251 
24.002909 12.249573 1.508836 
22.672375 -1.114029 -0.438879 
-24.747799 -7.145147 4.897589 
26.706757 7.587877 7.344103 
9.098642 26.128021 1.840976 
24.199629 12.487432 5.246303 
18.097528 10.001667 8.775148 
-2.744248 36.229279 10.823056 
-12.814238 18.725527 10.016757 
26.503695 10.319486 11.854746 
-15.727069 28.215693 4.004826 
-21.279545 13.730419 0.492520 
27.695225 -12.676457 4.955473 
31.718470 -5.258705 1.708592 
-12.931832 22.501440 -2.137748 
1.061412 26.656487 0.088516 
11.844664 19.642483 5.489755 
18.222612 7.805663 11.725850 
19.755487 -1.498205 12.562171 
-25.713446 10.213564 -1.873288 
8.251628 28.422056 10.300822 
27.910297 -6.836921 15.105972 
27.829439 7.592229 12.763352 
11.668629 26.404602 3.524985 
22.998432 11.580584 6.632571 
-27.459343 -11.741776 16.655340 
26.162149 8.603717 0.163251 
-19.735071 20.850584 13.651760 
-15.791837 22.156591 0.244431 
-20.663227 7.927792 -2.060269 
-27.471199 -12.880067 3.533603 
17.738714 30.975462 7.393031 
-27.767168 4.429727 -1.095350 
22.048576 -3.620215 9.840244 
-9.572220 23.715332 1.008911 
23.899300 9.091473 12.378619 
-24.831390 8.187487 7.399826 
-28.766119 -7.369133 -3.493134 
-14.267790 14.018929 11.630645 
-18.396334 9.032610 5.821191 
28.424276 -2.233050 5.437577 
21.481869 10.087939 5.714499 
-20.080317 22.736124 7.187421 
20.426363 0.075676 6.437610 
22.576891 16.808075 6.014281 
-20.929043 13.323168 -1.934599 
-13.293285 26.283974 2.054212 
19.477514 11.100743 13.858177 
-26.983299 4.592509 -4.969878 
-27.767162 4.681489 -0.167518 
-23.393318 -11.073049 1.844829 
23.294149 -12.134261 4.123923 
19.283798 30.149378 12.660288 
19.601227 5.969802 6.062173 
9.341488 23.883875 17.598721 
-28.829739 -6.820978 9.270636 
4.812681 30.686275 3.713172 
21.231071 5.019833 13.372454 
-19.026409 21.518412 -2.150911 
20.933716 -8.906824 14.848512 
5.357568 35.414093 4.960554 
-20.555775 7.609695 5.669316 
21.765930 -9.818144 1.516829 
-29.334274 -7.112760 12.979566 
-12.755845 17.150194 -0.040266 
9.798820 16.920464 -0.922995 
-27.552496 -12.761867 2.267236 
16.587639 3.967580 -1.840590 
15.605625 23.015553 3.364644 
-24.454979 11.785444 10.693345 
23.816858 21.797825 9.183966 
21.443579 15.983209 2.517999 
-4.449912 28.436258 -5.928296 
22.926292 11.667466 14.441985 
10.842192 24.721523 8.228565 
-18.622976 24.203419 7.415005 
-28.544088 -9.247738 6.457773 
-27.286732 -0.270430 13.088685 
-16.838762 3.172719 3.831679 
-22.449806 -8.012051 1.021996 
-21.554716 21.587162 6.359641 
-15.217443 24.964144 11.981799 
-26.301844 -5.610928 15.769769 
-27.705547 -9.731326 15.887603 
26.990772 12.724828 10.518570 
-25.642460 -10.777507 10.696178 
-28.178896 -11.567251 -2.978936 
0.210584 34.623383 3.634090 
2.399845 36.029202 12.505126 
-19.138020 6.515979 8.691979 
-20.270971 -7.883711 14.839299 
22.191387 -5.233096 12.592837 
-9.788284 28.227840 -1.510467 
-12.101903 19.428225 3.506548 
-15.793169 23.707851 6.869426 
29.560894 0.851104 -4.700371 
-2.105545 25.176153 2.606888 
-2.272499 31.349573 13.409544 
-1.022055 33.882092 13.899659 
-20.432058 -12.459245 3.678751 
-24.355625 -14.600657 1.133891 
-21.641132 6.702106 13.831861 
-22.481499 -6.124769 12.809382 
-24.020973 8.154145 6.716014 
-18.259991 -1.155514 6.460350 
20.817801 -3.443279 5.096040 
29.709497 -3.598239 5.938215 
19.503637 -1.298425 10.480908 
17.962183 9.895407 -2.799270 
19.767466 -1.661192 11.341763 
26.685913 -2.200853 12.412270 
-21.847792 2.538452 -0.602276 
3.475941 22.003115 -1.401933 
-27.860828 -4.449346 4.890891 
25.314598 14.354283 12.055935 
-13.571199 26.396486 -0.853162 
-18.146963 24.358389 10.360086 
25.139320 15.453009 5.538073 
9.441064 25.636877 3.716403 
30.725155 -11.092196 12.143303 
-12.296561 20.021637 -1.432995 
28.957840 -3.999369 8.010412 
21.360832 24.851900 6.687612 
17.496326 11.279253 10.859618 
-20.215906 8.410622 6.830898 
21.607147 15.360144 -5.510626 
15.966187 27.749128 4.999360 
29.117752 -11.835722 12.807265 
22.464991 -4.631633 0.884235 
9.252237 27.113825 2.096727 
3.492230 34.347488 6.057492 
31.329725 -6.463160 4.517766 
14.876858 25.153183 9.847735 
-26.552546 -2.401814 12.775450 
20.703899 15.174933 -2.616088 
0.913419 32.079296 8.545892 
-0.940751 29.786331 -2.888858 
4.183686 27.777151 1.459476 
18.593405 -1.131632 13.798940 
-24.938623 7.677689 9.968283 
-26.804447 -12.925988 -2.816504 
-26.550695 -2.244605 11.049815 
-20.016428 22.602783 16.276281 
-23.028772 15.546767 17.512953 
-23.042286 5.218646 6.953129 
-16.670719 2.922803 -2.393456 
-17.647070 13.796768 9.949206 
-7.589379 26.199295 0.845929 
29.893505 -12.207757 1.510709 
-29.273384 -9.160994 17.810759 
-4.443896 29.481606 -2.637549 
27.474030 -4.622764 14.565639 
22.599531 -1.900032 6.394820 
-5.607404 29.472904 3.615659 
-17.065979 -2.644510 15.090507 
-24.901613 12.852151 9.102934 
23.340893 -9.889281 4.233137 
23.668827 -0.606760 -0.765700 
25.252207 -3.274038 4.044524 
13.755537 29.838058 9.847844 
0.892827 31.017286 3.468877 
7.647294 26.969469 12.513915 
-19.717569 -4.127275 11.220551 
29.908836 2.578576 14.842793 
27.636759 -13.925035 14.122812 
-5.382964 25.125912 3.627600 
-26.356089 -3.499071 8.903115 
-26.275337 -3.964027 7.938908 
14.045416 25.632145 -1.733292 
-20.183758 -10.813265 1.553998 
-26.473959 -0.714441 11.894742 
-17.051245 14.854292 9.859374 
-12.255505 28.525661 10.892697 
-19.119791 21.013634 5.484671 
-10.207783 28.364162 9.209698 
23.897041 13.646831 2.596099 
-22.734657 -12.319780 2.266989 
22.756454 -3.868113 1.400952 
21.602636 -4.821539 2.060681 
-14.570287 25.792692 -1.778484 
25.050611 -3.758756 7.032379 
14.335815 24.790730 0.004569 
-16.811689 21.282848 11.975541 
23.212852 2.378148 14.078865 
12.578409 22.395020 9.086658 
25.299427 -7.420088 6.948833 
-24.056797 -13.919598 6.052022 
-23.640636 -1.118199 8.044872 
-17.808088 1.069983 5.500021 
-25.663427 8.436383 16.472971 
29.920517 -10.147275 12.799626 
-8.747861 31.205029 13.659759 
18.278202 22.725412 8.284666 
0.558369 22.797119 -1.053521 
-29.250864 -6.300624 19.708567 
-13.415906 20.993750 -1.735935 
17.271206 6.312791 1.777577 
16.012430 31.428989 8.437546 
-1.231243 25.485781 2.761461 
22.157660 14.089895 -6.303195 
-21.052021 -11.755150 9.759430 
26.304850 -1.560562 4.705097 
17.466824 31.119293 6.279541 
24.694059 -13.180416 9.885762 
-28.628136 -4.798283 3.895774 
-10.737774 26.425732 4.621266 
-11.566026 26.356480 2.748375 
24.514782 11.789808 5.554671 
27.425257 -1.125178 9.734318 
-28.857523 -1.321923 -0.909439 
19.479984 11.878894 5.146912 
-2.324413 28.392391 -6.418375 
19.313019 23.126400 8.292331 
-2.982036 24.440672 3.129173 
28.082148 8.304658 16.443401 
19.367855 -0.911677 8.937398 
-12.872742 29.049156 10.810530 
14.615910 33.806602 2.597729 
31.954765 -5.129749 11.708178 
-20.715311 -7.238002 15.015212 
-19.246677 2.578774 1.787575 
-0.563593 22.535137 -1.027537 
20.612328 -9.234110 3.163753 
-18.559715 7.973122 7.551524 
-15.816014 5.156761 14.568822 
17.437233 4.978770 6.327267 
-28.903019 -8.900871 14.060129 
-23.978580 4.452101 0.039289 
8.399395 25.226759 15.412143 
-13.459575 29.540916 10.201466 
-10.431878 24.684614 11.017797 
-15.756624 10.590881 9.704638 
27.902554 -3.925166 3.928806 
-17.833464 -6.530128 0.061631 
-24.653643 -14.226810 -0.627977 
24.104046 20.609976 10.867508 
-17.173531 20.657192 14.186222 
23.847969 6.582425 7.233495 
21.753332 16.255604 10.343088 
-18.746880 -4.333638 11.991303 
29.754568 -6.824604 2.131840 
-23.322754 -8.656617 8.966877 
13.530111 20.558968 0.075039 
22.415455 9.283878 2.466313 
12.986780 33.662827 9.879786 
-0.657073 27.794170 -7.911325 
24.261475 17.096371 6.560409 
-14.392920 11.717655 -2.630481 
3.404357 35.404850 16.287624 
25.350054 -12.758375 5.525965 
-17.379005 -6.445718 14.930326 
-18.288122 26.660044 5.998633 
9.394928 35.168255 12.930372 
31.098909 -1.418692 15.740637 
-17.264265 -5.416775 16.626619 
23.213762 17.841743 13.272418 
-17.352707 2.709235 6.328503 
-12.468196 22.494610 11.932414 
3.157931 37.846153 5.955990 
-16.681271 -0.230556 17.812128 
-8.369846 24.786572 4.307727 
8.166866 31.638254 12.244945 
19.968653 -4.225524 16.796198 
-24.900328 -0.235743 7.369839 
-18.224016 -0.819646 2.404871 
-7.122833 28.637651 9.066003 
-20.209742 6.710482 11.919073 
13.523479 31.489082 5.548591 
22.672010 1.222159 6.781407 
9.786695 26.147476 11.297896 
-14.755531 14.111333 10.809108 
31.629824 -4.738369 12.596064 
30.828873 -8.668372 5.554932 
24.883738 -5.318111 0.555319 
11.645730 34.382832 13.065148 
-14.602038 12.330599 12.143458 
-26.509375 4.904474 12.771833 
-14.644352 9.336455 17.371300 
23.077789 23.705072 14.850618 
-5.497900 29.080313 2.775805 
6.671005 27.540956 -6.061609 
18.350258 12.620168 6.060055 
30.494934 -4.422832 3.348883 
-23.988672 13.592942 16.266100 
-19.640646 -11.462458 17.256136 
-23.003374 -9.501357 15.944535 
-18.136824 5.374459 10.769678 
9.387917 34.437874 9.620674 
21.509418 22.933022 9.256557 
-18.828310 -10.968760 2.810222 
-28.184813 -8.891264 15.844257 
-13.119572 26.642097 -2.914783 
3.799698 36.536522 10.989804 
-14.552547 10.879930 13.087277 
-15.770098 6.885970 -4.192605 
-29.530312 -7.998115 0.963868 
15.244331 18.623697 10.305328 
-18.618111 15.725834 12.867418 
20.511776 9.079365 10.422559 
14.880812 30.197594 5.498962 
32.466347 -7.431283 15.186538 
30.503548 -4.381350 4.506107 
11.790976 21.570156 17.631824 
-1.292174 30.128273 -0.941640 
25.655613 -8.165332 6.969187 
24.931419 -3.247909 7.994125 
-15.656272 10.043150 -1.755190 
24.815180 5.645036 6.656809 
0.765671 36.004784 13.304549 
-20.840633 17.529457 6.113757 
2.384939 27.575167 -7.894647 
-10.904230 26.237875 3.460329 
-21.467592 13.660795 12.330901 
13.635575 26.743364 11.159877 
15.636848 23.999981 -1.778402 
-24.113159 -2.709760 6.902237 
-19.881351 -2.929199 11.024767 
-24.033813 9.782856 -0.702213 
0.033804 30.740364 1.081216 
10.365357 24.167942 -0.667140 
28.979977 2.109714 2.040117 
-26.948210 -5.150584 15.511515 
13.405343 34.870415 3.063497 
31.054203 -3.434786 -2.559542 
9.027627 17.532940 -1.240190 
15.401949 24.180580 7.445110 
26.639463 13.526455 15.354484 
-15.431837 21.268728 1.062647 
-13.720907 25.879309 -5.224992 
-0.040804 35.940662 13.765964 
-14.976622 24.136396 -1.837498 
-27.225672 3.686109 8.537710 
-21.487974 15.148194 10.494399 
4.267455 37.071793 2.919937 
-17.286167 12.915293 3.302309 
-23.892204 -1.937595 7.633111 
-1.346356 36.976055 5.672147 
-0.962015 37.001083 6.526914 
0.368892 33.657581 5.423686 
-6.357179 29.814188 3.745818 
26.902946 -4.505963 11.393467 
27.336517 10.849962 15.485542 
3.973468 31.530619 3.650507 
-20.578903 -12.784513 14.126422 
-26.896368 -10.611169 15.879683 
11.641561 31.868916 5.657876 
-8.684100 33.527126 10.849360 
29.189413 -13.201151 15.367342 
-23.910524 -6.308581 9.595543 
-13.816042 30.174953 6.550063 
26.914141 11.067411 7.033387 
18.035761 -1.014360 0.608253 
-12.351734 15.709719 14.638374 
-4.611414 33.823368 17.538099 
-15.074856 8.276086 13.857312 
-19.448023 -11.590428 13.480272 
-12.649376 26.460342 3.465374 
-10.286440 21.272896 13.049110 
-19.670797 19.866894 5.372479 
-22.892353 6.426284 7.110919 
-5.384826 33.059025 3.995455 
10.527718 23.167152 -0.844774 
-15.813288 22.632713 11.124269 
18.203947 30.745190 14.505861 
-21.586676 17.816040 -4.094123 
-16.945923 12.353671 12.751768 
16.161903 18.301384 5.059754 
27.795084 5.198988 -5.229012 
-28.447231 -10.379344 13.141638 
-29.017038 -3.613195 15.288046 
-2.649925 36.191101 2.971018 
17.579948 27.711409 3.174290 
-20.943405 -9.017854 3.776560 
-26.449232 6.266657 1.761939 
-23.420374 4.256110 6.956711 
-12.327407 15.884146 -1.443610 
-21.627951 20.688162 10.829252 
4.616310 29.191053 2.791787 
-3.441801 25.214668 3.838284 
-18.383081 -5.631701 2.818643 
21.177803 25.714972 9.722249 
17.890659 7.003935 18.061935 
6.440047 28.728146 10.205406 
-1.268052 29.208101 1.684592 
16.033512 30.574152 8.063496 
-22.406029 5.630256 14.337135 
20.663095 14.125141 10.644967 
-28.638952 -1.655322 15.874779 
-16.067942 9.476844 11.468094 
-13.071618 14.049665 -2.379357 
4.437490 30.503593 12.297942 
30.417120 -8.617825 7.299858 
26.722055 -5.884114 3.984088 
20.222511 28.484053 11.638112 
-19.811611 -12.866448 6.131077 
18.842157 4.126701 6.049777 
18.737181 29.321974 2.389121 
12.077224 23.148205 1.293431 
24.780298 11.598419 12.103704 
25.198004 7.563730 11.511226 
30.435810 -0.871650 -0.046024 
-16.295208 7.424710 -1.148247 
12.315460 35.369289 6.703772 
23.471054 15.687980 8.659380 
8.217279 25.495924 -0.618299 
-24.902685 -7.464062 1.629252 
-18.644716 -4.624469 5.191832 
-18.262869 -8.189278 18.387739 
-7.375581 25.103739 12.670002 
30.123375 1.494711 14.723156 
-22.806366 14.406518 1.120938 
-19.750000 -0.054079 2.718043 
-27.260794 -6.751019 15.920501 
-21.254425 -12.147987 19.749273 
24.274288 -11.980817 18.659773 
19.665274 -6.456666 -2.357656 
-21.694422 9.117783 0.684564 
18.732410 1.617080 17.148733 
21.143373 26.313845 10.597334 
-21.749378 18.178732 13.570161 
-6.852941 24.109444 1.533091 
-1.737301 28.750757 0.326453 
-18.089260 4.833925 6.382599 
-17.516571 0.132510 3.611432 
-0.825099 35.070892 16.528669 
-0.785989 27.435595 6.942959 
0.380108 34.201328 11.705955 
9.367657 29.071358 12.705276 
23.995230 13.133002 1.663574 
16.522577 3.530141 -0.768832 
29.870281 1.261644 -0.760094 
27.495249 6.540557 -4.175112 
16.301657 23.081087 -0.514155 
15.575395 32.474998 11.174995 
-18.898842 -5.225424 3.479260 
-5.858869 32.580772 4.540814 
21.447338 5.472339 6.736830 
1.089676 27.294798 4.793592 
-17.991547 -7.605204 -0.100528 
-21.554424 17.405558 -2.152249 
28.457047 4.342344 -4.041702 
-14.345346 25.101980 -6.405474 
-0.628578 30.886669 12.837287 
28.202616 1.335550 4.507446 
21.893152 -5.420536 11.149940 
-26.998020 4.408877 9.332806 
14.157483 11.938837 -0.329567 
16.849186 3.584471 0.797425 
-26.017481 -13.257401 5.668452 
-19.497929 -12.579994 1.685344 
-10.524655 21.245111 -1.645423 
8.924274 28.230452 2.844763 
-2.105077 33.510223 5.993962 
-6.979183 29.861605 4.482491 
-14.898240 20.667604 1.068896 
-17.120497 0.572908 10.977799 
1.770367 34.939018 17.342255 
-22.012802 -1.294311 14.187359 
-27.863794 1.718910 18.114271 
-28.779245 -0.106157 -0.078339 
8.452118 32.102097 7.746083 
-22.350866 19.028612 6.063241 
-16.776100 -1.444770 16.451721 
27.641294 9.139374 14.186461 
-14.807778 23.195829 7.599207 
19.027182 24.577494 10.178066 
-24.567373 -10.264146 1.924343 
4.264443 30.047794 -1.742907 
26.816919 -6.347813 14.927008 
-0.652084 25.992163 0.220427 
-13.748920 25.320902 -1.483596 
19.761650 18.451553 6.683818 
15.470427 22.428711 2.505400 
-8.918410 18.133745 -2.554749 
17.757948 11.576140 7.361611 
-9.785490 24.478144 1.847383 
24.725786 17.889301 7.260861 
31.236752 -4.623477 -2.507525 
-13.034420 28.862053 12.423923 
-17.765793 -1.956694 -4.195680 
-15.452503 7.558762 13.605338 
-25.460619 8.476697 19.034889 
-1.058408 24.345438 2.948214 
18.867105 23.003759 6.424633 
-12.525874 25.265200 7.464752 
11.275088 32.377754 5.054704 
14.799987 16.566114 2.757904 
21.155739 8.515616 10.216142 
32.533562 -9.306228 9.723939 
19.522148 -1.557053 6.106843 
31.854841 -6.568784 3.131819 
-26.139153 6.056688 3.753245 
23.317457 3.862520 -1.783559 
-28.481106 -10.606017 16.846642 
21.336309 20.150465 4.814336 
-22.621662 -12.825782 19.808558 
-6.501508 28.779432 9.602861 
-22.518635 18.287687 8.511612 
-26.287142 -12.359548 8.502419 
32.049831 -8.062655 12.847568 
-25.721825 -13.326370 7.515161 
26.037130 12.626523 13.232897 
25.988157 3.283954 7.157506 
17.265619 1.268758 -3.006010 
10.552897 34.548077 6.733387 
10.745772 26.966726 7.975328 
-8.006045 20.262402 -0.497023 
23.251572 -10.843883 18.639202 
-23.573757 6.591422 6.707583 
-20.284933 -1.311363 0.316861 
-14.884233 29.960342 10.661262 
22.194122 1.448376 1.572471 
-27.675829 1.778638 19.352072 
-7.555673 31.496901 10.562476 
0.211075 27.421156 3.775791 
20.676300 15.744895 12.129082 
21.540443 6.324801 10.170952 
25.059385 -5.318450 10.855603 
-26.462509 -1.675261 2.548756 
-17.601467 -6.313001 13.513218 
-21.732826 9.697207 12.805005 
-25.901007 -11.511708 7.011498 
23.368057 14.623140 1.431802 
9.760451 27.207998 11.623400 
15.324633 30.675577 5.028846 
23.466621 -13.195223 1.205882 
18.257740 28.410536 11.042516 
23.221775 -12.831574 12.668262 
19.078577 -0.413335 9.580206 
30.208277 1.624334 15.664794 
20.300833 25.490973 11.904066 
27.831171 6.256499 9.225946 
24.363333 20.209888 16.526438 
-25.847839 -0.925429 1.644701 
-8.838825 27.491661 -0.022216 
18.747236 13.351801 6.803809 
26.271162 2.452555 6.985745 
4.206645 35.697243 15.503706 
-22.587002 18.637884 7.514696 
6.760061 25.908087 15.950209 
-2.313533 27.782541 -7.904314 
27.294170 10.791550 14.548186 
18.728033 3.475257 18.181360 
-27.599232 -12.625312 0.783787 
-0.745500 36.678226 3.553910 
-17.263748 26.233759 18.138733 
-21.446455 11.073908 14.421545 
-18.497841 24.458309 13.269005 
6.082837 37.889561 4.991909 
27.463634 5.323361 -0.115098 
-12.052922 17.994255 0.215109 
21.436035 23.289640 10.226640 
21.023483 16.619761 -4.519155 
-27.278278 1.874717 13.663271 
-11.417607 21.690809 -1.933303 
-15.150526 22.347641 0.892922 
-11.290985 15.065948 -6.310505 
12.108879 33.395767 11.093138 
-18.970629 5.762653 6.251085 
-24.157005 7.531452 4.207717 
19.709343 18.422707 -1.996595 
9.369541 35.105476 13.828262 
19.054642 -1.729176 4.658874 
-17.218172 -3.575231 15.113516 
-18.950783 13.874196 12.673744 
29.721657 2.787042 17.947052 
20.876511 -9.300011 6.656541 
21.154575 8.634642 1.697686 
-3.275707 36.609249 7.080356 
21.579218 21.403286 12.734499 
-22.011097 -1.835768 13.305512 
-15.301485 22.635181 6.557664 
-24.240480 12.515829 13.746911 
12.672604 23.935070 -7.481744 
-19.953995 -3.401119 6.800049 
-28.321754 -11.048485 11.648622 
-9.821329 23.506973 4.780282 
4.568148 37.790611 3.708173 
-23.959206 -3.425174 8.513761 
-28.846212 -8.858168 5.770165 
-21.857676 15.455896 9.778550 
-15.697049 21.316164 4.873340 
-6.804458 27.575771 -1.889683 
12.935529 20.018961 17.665854 
24.854811 -2.798377 12.114784 
26.467867 -0.513893 11.224858 
-9.774618 16.786833 -6.527205 
-26.638063 2.876000 13.091366 
-27.424593 -5.911937 15.682756 
-11.286842 18.860382 1.887532 
-24.511059 9.999014 13.498229 
-21.716869 7.928329 4.350374 
3.210722 31.898062 4.807353 
29.532305 -6.902549 9.090859 
22.650024 -2.259713 3.460549 
-14.228870 12.837652 12.689703 
23.173740 -13.003870 4.105026 
-24.182270 -4.208462 12.782028 
22.151798 -1.818193 1.643443 
-27.318144 -5.258477 7.728457 
-24.873657 4.854407 7.000730 
29.958519 -10.957368 13.575128 
-20.459269 19.492283 -3.080376 
25.164955 4.008850 13.897316 
23.673956 -7.689190 6.233202 
16.347687 21.802485 9.788408 
17.366032 2.029719 -4.804198 
14.149962 30.596695 12.439507 
-29.232986 -9.920146 11.307664 
17.709383 7.635324 3.999419 
14.958113 8.780949 -3.668452 
9.898495 16.239975 -3.280139 
-0.537122 26.700340 5.877622 
-28.787096 -8.580492 -3.344121 
21.267609 22.547625 9.937718 
18.959030 14.863617 1.174354 
-15.258857 8.232707 13.012884 
24.519361 11.603083 -4.864833 
-14.859379 15.089156 10.209928 
10.285859 25.136265 1.468966 
13.611916 26.121140 2.459947 
-24.966805 -12.804817 14.088951 
8.512311 24.268938 3.370146 
27.458202 -2.629382 13.628820 
15.580357 23.859123 -2.650706 
-24.737556 -14.711447 5.608796 
-14.252132 25.521841 3.181210 
-19.763577 3.960424 -0.469351 
22.304304 9.695545 5.546573 
-24.213036 11.461047 13.269733 
10.580665 21.439938 -0.683558 
-8.336220 30.999514 11.179741 
20.681889 11.109380 4.567101 
18.092306 2.118919 12.124818 
7.127823 26.826250 13.278885 
18.968575 0.478228 17.059896 
17.136679 15.316705 6.733561 
12.010876 26.365427 -2.500831 
8.868740 27.359629 1.271085 
-18.424829 11.817446 5.691769 
21.297163 -10.972246 1.208551 
-17.729937 -5.491405 0.225868 
6.396686 35.530003 4.554788 
-21.493891 1.608051 2.630963 
14.448277 20.916363 1.495607 
20.763062 -9.624655 5.863721 
-23.488281 -11.707296 13.316355 
-27.363619 -8.579971 16.053095 
12.468479 35.566360 5.056758 
-14.477947 10.214838 18.705030 
9.692182 29.029049 8.389768 
22.004829 14.391387 5.929545 
17.858387 -0.193477 4.937387 
-19.422773 13.877476 4.697079 
-13.836002 25.276133 5.358502 
-3.162504 31.441334 13.401586 
20.909254 7.817630 6.264736 
-18.249712 27.119329 7.300192 
8.952127 28.198048 -2.178954 
-19.835577 1.490451 14.463086 
18.046200 24.288158 12.947898 
-18.026558 15.550345 13.537427 
9.555143 24.480694 6.227974 
14.752275 29.122562 7.261750 
30.248404 -0.634925 13.843712 
-2.076375 29.920008 12.505521 
-18.497389 24.477766 9.034739 
-0.374467 25.363892 2.350756 
28.618481 -13.214726 2.671766 
19.543898 15.562687 5.056305 
26.241707 13.994553 11.748708 
14.876408 29.143696 9.854309 
18.214428 26.618816 3.624049 
-28.104141 -1.729488 13.977003 
17.781092 25.737532 5.021443 
27.746637 -7.551160 12.301572 
-20.155516 7.472647 7.900476 
9.107018 29.559458 8.820432 
8.603235 33.668533 5.168333 
-19.105497 1.284622 -0.320198 
27.574823 5.208497 6.637911 
-0.523834 22.854815 0.049111 
11.692914 34.303604 13.904873 
26.481274 -2.767704 1.418106 
17.908003 26.405684 10.794401 
-23.814453 -13.922483 7.253549 
28.251865 3.210102 3.111858 
22.989330 -11.956150 6.683803 
-0.642427 25.997948 3.039840 
-11.971148 14.435988 -4.737833 
14.057020 33.023449 15.239798 
21.101086 24.617811 8.320654 
27.880747 -1.914766 5.946149 
-20.652042 -12.680694 8.293336 
24.603769 -12.048724 4.914450 
-17.323732 14.880795 8.317809 
-3.678742 21.508579 -3.449532 
23.236830 -11.495525 7.455326 
-10.071971 20.577955 15.047219 
19.877821 20.127129 6.537602 
-28.477617 -0.489503 18.128626 
5.457888 33.397228 11.408874 
-18.507027 23.023140 9.195674 
17.109161 30.124836 10.110176 
24.711466 19.260260 9.630021 
-24.811460 -1.763775 9.986261 
18.259727 7.055265 12.159661 
18.969385 13.560614 7.767693 
-17.248650 -1.649522 0.063035 
14.655529 25.094442 3.882742 
29.749269 1.249671 0.245021 
-8.621078 19.463583 -0.211157 
14.185548 31.430017 12.038715 
-22.243868 19.655491 9.884971 
-1.436871 36.913284 8.222108 
24.623671 9.470358 2.307171 
17.511850 16.805616 10.219699 
-18.548637 -9.700131 0.541492 
19.003490 9.878418 -2.942042 
25.385834 2.133614 7.139203 
-29.154221 -10.497093 2.591558 
-6.037528 34.389591 12.540047 
1.362944 28.261084 -0.875594 
20.982769 -6.911568 6.425975 
3.154984 28.644678 -0.325251 
15.720531 11.467024 0.919156 
-5.459507 34.426403 3.120861 
-18.523472 12.965171 5.841153 
20.001768 -5.459212 13.148062 
13.258576 25.065859 -0.883485 
22.570210 0.759865 6.072285 
14.584410 22.693422 -0.423635 
12.161355 19.623032 0.499905 
-1.760095 28.458963 9.078730 
31.449579 -8.551050 8.258449 
-12.888324 23.550100 10.230093 
-22.620701 4.325172 6.737534 
-6.335052 27.847345 1.056119 
-14.534808 25.087610 4.003560 
21.033207 16.258490 6.412573 
-26.205595 -12.105838 3.579829 
-29.262075 -7.821547 10.271450 
20.800949 27.496220 17.183512 
-0.080753 26.502010 2.611392 
20.543531 24.058800 8.947280 
28.977207 0.941907 2.431181 
-14.953927 12.478244 11.344825 
-20.803869 -8.012077 6.960785 
19.590984 13.939429 8.183256 
-11.675281 31.822964 14.354624 
9.829450 35.475212 7.862382 
28.139805 3.914426 1.114438 
-17.581392 8.084240 8.622081 
5.816504 23.125795 2.562234 
-2.348485 22.333027 -0.567276 
4.134841 35.937561 12.302040 
-16.193836 6.383234 -2.048427 
-29.404110 -6.305431 18.822807 
-9.791297 20.514063 16.502317 
-2.682595 30.326923 6.828840 
-7.684351 29.690279 5.484339 
28.659046 2.530577 12.275314 
-12.792294 26.788616 -0.674862 
9.291536 23.900305 0.703238 
-19.007038 -9.578156 11.848225 
-19.979994 13.906728 0.578324 
29.378689 -12.806119 16.822115 
-15.953918 23.096775 0.127545 
29.681383 -10.589500 3.081370 
-13.031146 29.672018 5.549424 
24.036247 12.684325 4.343722 
-3.219758 30.111706 5.796504 
1.108183 29.612514 8.266516 
28.257921 -1.779673 9.474592 
23.141382 -5.919312 7.569810 
25.029274 8.878911 7.392466 
-23.314461 6.718548 12.260820 
20.975370 9.319736 4.270393 
15.831756 13.974786 16.171881 
-23.246895 3.430432 2.612357 
16.963249 21.291382 -5.629842 
8.339902 20.647558 2.298560 
-28.481079 -11.742019 4.183490 
20.409321 25.356659 3.513303 
14.008308 11.074968 -2.403050 
20.100172 2.038669 11.335999 
-16.045603 27.380104 4.105920 
-21.417959 -14.567562 3.090832 
14.819745 26.198950 6.459700 
-13.268593 15.486973 11.068934 
-29.254463 -5.059166 18.675045 
-25.143679 -0.721935 12.051073 
1.622049 35.891983 14.188616 
25.969587 -2.071553 7.921671 
-14.660860 29.425568 16.009912 
10.647719 16.548450 0.318308 
24.446495 -7.536239 0.534651 
-12.582543 24.044271 8.172785 
2.677064 32.439217 8.095581 
-16.865076 9.081415 13.283305 
-26.049501 9.202293 -2.081881 
-22.087011 17.421551 8.733323 
19.708242 5.027703 -1.914919 
-5.373764 26.202223 12.805758 
16.268938 12.464863 2.493448 
-26.005808 7.630511 16.700436 
16.893353 13.951486 3.523628 
-2.564355 27.296089 2.168412 
18.655973 11.411810 5.021762 
28.448988 -13.309016 3.499125 
-11.435560 31.062624 12.372198 
25.894180 -6.755041 7.690771 
-25.514368 6.740033 3.542830 
-25.259554 -8.266017 1.824826 
4.287104 26.450382 2.933265 
-22.117668 -13.359797 17.237110 
15.289970 12.401734 2.169570 
23.388582 22.777723 16.142412 
-24.420465 -1.495342 11.683861 
-11.865535 26.696255 6.978178 
11.322178 26.329678 -3.961521 
-25.892658 -11.363955 14.122157 
-24.011658 -2.712165 8.981130 
14.812518 8.568718 -4.576236 
-20.701496 -1.992766 11.301143 
9.082262 28.537249 1.528069 
15.331899 18.572622 6.932306 
-20.022636 -12.700073 5.031289 
11.707962 33.914719 15.948206 
12.153828 30.768982 10.776891 
24.149805 -8.433936 6.518416 
-22.827265 8.531779 1.763262 
16.721460 5.924106 2.396451 
2.774413 31.039331 1.940376 
28.469057 3.711692 10.502437 
21.492786 19.120129 13.978942 
31.280197 -3.903325 1.707732 
25.536329 -10.853653 4.598801 
7.015670 21.916857 1.651415 
-23.552141 -0.794347 0.445368 
-24.707972 -10.224504 5.719859 
27.882931 -0.939995 9.095049 
11.598775 21.277838 5.991029 
15.398118 21.272797 6.957394 
8.221375 17.667944 -6.696176 
14.869563 28.600523 10.661962 
31.224337 -5.906765 3.434228 
-20.480742 12.143822 12.227931 
-19.977674 2.378921 14.507253 
15.598037 32.550934 13.071906 
22.087435 -10.535816 1.702005 
-23.459841 13.266132 -1.417054 
-17.976679 9.137528 4.062766 
5.172812 32.097469 5.966186 
25.842346 -13.906269 4.205062 
-25.250820 -8.921879 16.265411 
18.198042 11.285776 10.025326 
-28.551916 -6.059662 8.626475 
32.118248 -5.727425 18.226269 
-4.670673 32.898075 4.867802 
17.023529 20.976480 8.253555 
30.380762 -7.362939 8.686639 
-24.230742 1.560602 0.011605 
-17.556473 13.550008 5.980482 
15.617037 29.297455 10.161547 
22.795074 -5.222489 7.007349 
23.772182 20.527872 12.160954 
20.670246 23.949701 8.102318 
-2.332322 28.892756 -5.054713 
-25.383417 4.210046 7.072980 
21.745213 16.136126 -0.155672 
15.505820 10.562169 -0.158211 
2.977307 36.503544 10.065676 
-5.033543 28.662001 3.348281 
-19.125582 -0.893597 6.632672 
18.115620 3.990396 11.618161 
21.441772 13.115441 14.084825 
25.981060 6.708563 5.997505 
14.288449 30.862047 5.583839 
23.555723 16.532787 7.616013 
12.244459 25.821594 0.521342 
21.593996 14.564963 10.648353 
-23.877832 -15.020350 3.769104 
-7.513507 28.885557 9.920710 
-21.677395 19.214573 14.677201 
17.862719 3.531968 13.669570 
12.991094 26.557764 3.519075 
-18.083149 22.769972 -2.592434 
-22.503119 14.467085 12.504739 
9.970284 34.025185 5.329378 
-28.196991 -10.905078 15.611188 
27.917210 3.938528 0.265572 
-25.522715 8.387367 15.378857 
18.598305 19.394825 -5.428892 
-19.458353 20.687696 -5.535513 
8.407865 22.509916 2.479893 
3.056236 26.208706 0.182535 
24.786648 -13.544737 14.340503 
-21.661934 -10.848180 12.593401 
23.333836 -12.777706 13.554857 
-19.203886 -9.954403 -3.207482 
19.073263 17.943636 -6.766636 
19.561880 16.141890 10.369701 
29.761839 -0.807804 1.974001 
14.210416 28.847603 11.456079 
-18.814873 -7.735638 3.716713 
-16.880682 3.319169 2.879573 
25.826269 -11.884315 4.942624 
-1.567526 35.007862 13.641657 
-1.778174 21.823364 -3.568588 
17.022875 6.495801 0.531649 
21.877176 10.233960 -0.650171 
24.222879 20.143974 17.392448 
23.608549 12.242973 -6.080996 
16.971704 22.153790 -1.851143 
8.652137 25.484026 0.962578 
-17.221117 10.147051 4.486465 
-0.984485 36.837055 9.152422 
23.931103 -11.490056 13.371199 
-21.615007 18.026094 11.377306 
-5.357253 30.234335 6.419048 
26.179619 8.326070 -5.608057 
21.987507 20.844173 11.329487 
-26.532635 6.063345 13.884496 
16.467316 16.133568 12.868915 
-29.224277 -4.584350 10.326365 
-15.869819 7.036056 -3.249276 
-26.271036 -0.861650 8.707527 
-26.712999 -13.074536 7.092014 
3.215178 27.551420 13.604567 
-17.835588 -0.651073 8.198152 
-17.682177 3.993443 5.912267 
-21.673512 14.602530 4.631407 
-21.735931 17.249763 9.458525 
23.827759 -4.003387 13.152038 
29.582533 -8.568797 15.060139 
5.471597 26.940136 6.064035 
-16.014181 22.527193 3.573125 
-20.354216 -3.265293 10.360418 
29.919380 -3.086352 7.296525 
-25.176531 -2.911903 11.976186 
-25.515305 -0.537921 4.526324 
11.716062 32.823071 12.065921 
-5.002645 31.899656 5.840200 
0.762227 31.016256 4.278652 
8.907184 33.494434 11.034276 
21.435535 -10.996959 0.311847 
26.508150 10.644143 5.948534 
23.724049 21.923374 16.273390 
21.973261 -6.515244 8.802562 
-19.250105 6.172462 11.815481 
-23.861938 5.327673 0.227215 
-7.661828 21.699848 0.807145 
-20.056463 8.423005 3.811443 
-13.792297 22.574942 8.417126 
10.780180 27.072477 -2.455241 
-14.700019 20.346970 10.687763 
-3.621951 29.072294 11.282223 
-18.713274 24.895046 16.062744 
-20.758474 22.288719 8.904858 
9.846616 16.563677 -2.004827 
10.660115 16.110134 -0.603345 
-7.475809 23.198959 0.097017 
14.985581 22.369059 0.854213 
-19.123684 -2.473841 4.458020 
22.281424 5.540674 10.557063 
31.145933 -4.227628 13.230294 
22.016844 -3.663279 7.900181 
-8.359035 28.074720 -5.226090 
21.847895 7.262738 10.147660 
22.518089 -11.801222 4.952363 
-17.916752 9.318750 13.673434 
-19.987316 17.537998 14.194809 
22.151644 -12.256104 1.680189 
-14.128268 19.722843 10.670839 
20.722136 -7.138868 3.896466 
23.999422 21.555241 8.131606 
-9.711070 17.275602 -3.168890 
-20.963718 17.124136 10.880211 
13.221963 31.254019 13.633994 
14.836579 11.325319 -0.220789 
-6.973495 31.605408 12.281882 
-26.449589 -12.688212 7.783694 
17.526085 11.992055 0.580949 
-12.562111 19.116484 2.835835 
13.744085 21.020597 2.755565 
25.405947 1.431619 6.691868 
21.828585 8.028460 10.769146 
17.036243 25.415161 5.635962 
-20.087128 -3.335326 8.275103 
0.344217 28.836323 0.830117 
-19.364017 0.425565 -0.190216 
19.366819 -5.335578 -2.415019 
21.091911 2.721328 -1.916282 
-24.802849 13.465627 7.238785 
14.737242 33.967815 8.071079 
-4.343599 28.123203 5.444500 
-23.195744 -13.477897 8.687794 
15.442386 28.368652 4.911885 
-17.645075 12.487557 13.845364 
21.668549 3.508221 13.775171 
-23.314436 7.766423 3.221687 
-26.652985 5.954644 17.143621 
-22.319645 11.685756 6.297194 
10.074020 35.959576 3.858777 
-8.336478 28.319475 9.914855 
-6.078277 26.808357 1.341275 
-14.432154 10.155213 17.438580 
3.355068 34.124218 10.685962 
-7.410876 28.969080 0.918522 
30.532400 -12.005862 16.873226 
18.477985 25.783072 13.497571 
19.029797 14.587969 8.472939 
10.594245 32.853779 10.051222 
-20.206453 6.957706 2.639604 
-15.345731 12.012245 10.759395 
-5.645680 20.270653 -5.307584 
26.743486 -8.764404 0.969429 
16.504847 31.979755 7.100939 
9.196367 23.800966 3.162246 
-18.173777 21.588127 -7.089246 
26.009417 7.203530 12.063151 
9.914448 36.157089 6.752322 
-21.238770 2.997548 2.160394 
-21.850599 3.453830 6.437163 
-22.336205 -9.965412 1.319067 
20.965490 7.949291 8.471765 
-15.772845 24.471060 -5.173055 
-26.441988 -3.426564 14.678551 
27.263010 -9.037343 4.560016 
23.641075 -13.133490 0.026140 
23.943691 17.862991 10.826875 
23.812992 -1.617603 10.668242 
26.727825 -8.925767 7.879655 
22.361027 -2.486919 4.952664 
-10.893423 26.525759 6.395625 
23.491741 -12.671379 14.589894 
24.992765 14.729990 11.117933 
27.115582 -13.124337 10.861832 
30.966953 -4.828066 -4.006829 
21.503069 3.912726 -1.973642 
-23.674255 7.680694 5.506580 
30.871508 -10.833615 -1.571242 
23.612703 10.194280 14.115471 
27.192822 7.655532 11.569928 
12.495526 12.977073 -3.016461 
11.826359 26.693699 -0.113366 
-12.411205 23.040920 -0.084338 
20.781309 24.268316 9.816053 
23.588619 16.097559 11.040645 
18.852661 18.327591 13.948157 
14.045300 25.770239 1.863952 
25.818298 -2.587809 8.623895 
-14.783575 10.808785 -2.839825 
-6.426269 34.699009 3.298236 
-28.617529 1.128206 0.445785 
6.242360 30.828459 7.193089 
20.992935 24.818516 9.114319 
22.905127 -2.354757 5.698166 
-20.845888 7.741616 4.012731 
-27.047319 4.236887 3.786852 
6.808614 35.101303 16.345083 
11.540002 26.499550 4.425210 
-19.293522 8.815478 6.144475 
25.198147 -12.682530 3.149101 
22.473091 -11.417743 14.839967 
-17.950342 -0.369098 6.391034 
31.751339 -5.694580 12.817215 
30.777212 -0.313951 18.044397 
-0.350369 26.300751 1.536934 
26.565340 7.561979 0.701217 
18.625656 -1.351015 12.351542 
15.680993 14.575630 14.722199 
11.448101 24.048008 1.640963 
19.618481 8.514590 7.660258 
-13.478487 16.337999 10.976244 
-15.017912 21.284712 7.097581 
-24.469339 13.699205 6.081186 
-22.175941 -8.944230 1.096245 
-16.096527 5.243064 13.496205 
10.889324 27.001633 9.427678 
-0.002833 21.683762 -7.162228 
12.122619 26.994547 9.109197 
-25.127689 -14.543317 3.848013 
24.151197 21.340363 12.898886 
-4.192116 35.756004 11.337196 
-5.612569 31.729971 9.066718 
-17.372810 10.925392 11.032440 
-28.784983 -0.034816 1.000389 
13.631147 26.666800 10.273310 
-21.731695 0.241747 3.101139 
-24.092690 6.987144 13.829098 
-5.052868 23.765650 1.415089 
-2.342318 26.372038 16.137726 
19.142836 1.710537 18.241179 
-13.408496 17.212343 11.790276 
-14.481299 10.090405 15.237585 
16.552727 20.417814 6.433910 
-16.232422 28.288532 13.705864 
22.525221 24.326380 17.267672 
-9.135724 21.663935 0.571173 
-20.222855 -13.651342 3.731902 
-25.734173 2.912133 14.665512 
26.433683 8.903357 -3.182888 
10.094728 25.632799 4.949542 
-9.439251 27.114439 1.382771 
-10.576499 28.223923 11.952447 
-13.284678 16.801960 10.345910 
-20.335142 -10.290715 8.447043 
4.482376 34.974388 11.871863 
-15.719934 29.820948 11.042032 
30.483196 -9.724282 5.525349 
-25.066679 -5.959113 1.799385 
24.004047 9.079592 5.962978 
-17.048227 9.784614 0.263351 
19.593939 13.957912 -0.177851 
-25.089678 -13.541954 3.838546 
28.750710 5.735085 17.853733 
9.629658 36.543720 7.525883 
-23.364159 -13.940260 5.625979 
-21.739960 11.126534 6.654064 
-25.443848 11.234076 -1.851055 
24.280697 15.244005 11.029568 
20.624649 10.870953 5.429080 
-23.935659 13.161723 3.876409 
-8.933658 34.992630 6.877857 
-21.219837 16.557081 9.187163 
15.683450 17.283205 2.859603 
32.471886 -8.345262 18.321232 
10.543067 27.295248 0.862312 
-22.543295 1.261290 6.823202 
-18.312767 10.484255 -2.637094 
-26.232361 -13.147510 4.287296 
26.202057 -0.168447 7.032032 
-17.037575 1.015847 -3.420043 
-25.667587 10.016752 -3.501826 
-3.916921 26.268066 1.481577 
20.066120 29.305490 14.351669 
29.286779 -0.834977 2.744784 
9.706081 28.128204 -0.760966 
-21.417427 -9.500862 1.157178 
-16.390745 4.420854 -3.631894 
28.413351 -2.703244 3.232626 
22.355413 -11.591993 7.037744 
-3.202617 31.529329 10.746398 
20.515612 13.769863 11.506061 
-22.365559 3.321157 -0.519684 
-23.463659 3.254045 14.876414 
-5.580700 25.567730 -1.284424 
-23.948137 11.240244 -2.132770 
15.112373 27.629385 12.750281 
27.441021 3.543666 13.476912 
25.645643 10.855157 13.107607 
-10.556565 20.640137 0.415113 
-21.205763 8.530361 -2.275178 
2.089494 25.321835 2.924153 
14.685804 32.290279 17.139652 
-18.004910 -1.566941 8.772049 
24.051054 3.302013 -1.611839 
20.743696 -9.609679 -0.139003 
-22.498829 16.391098 -4.154297 
21.965118 -9.941377 9.771412 
26.140009 -12.447958 2.560640 
9.702969 34.349751 4.585547 
-7.905839 32.404755 10.933687 
-13.493443 31.612028 7.687384 
32.297955 -7.094383 9.268322 
-14.269295 20.091810 0.872414 
-15.733734 11.506986 6.669193 
-24.691162 12.764911 2.298739 
29.603765 -1.610955 2.812506 
-13.244258 30.840216 8.182286 
13.788573 27.881613 10.757503 
-18.934900 19.449686 14.648613 
31.577888 -7.139845 -2.385695 
19.559738 -3.461232 13.185040 
-1.488806 36.863487 4.723767 
-26.188276 3.680780 14.493536 
27.353354 -2.850598 1.651625 
-15.203323 22.493879 -1.650945 
-20.362482 -12.427175 -2.899540 
15.153440 7.823995 -4.405441 
-25.954918 -10.295262 16.052691 
13.938089 25.645391 0.881207 
-2.339781 29.953325 -0.841755 
29.363987 3.843868 17.913828 
-12.860189 26.352453 10.849163 
-22.891758 7.362330 6.815265 
-11.483853 21.841656 0.174536 
-28.706766 -3.149410 2.243651 
30.155163 -0.817318 1.047192 
17.310585 20.710505 6.402346 
-18.790600 -9.232627 12.817926 
22.494661 8.973276 6.655381 
18.966581 0.367540 -0.777891 
25.189949 0.980382 13.965041 
17.978231 1.438196 5.803396 
20.011917 29.157274 15.176497 
-3.674795 35.336800 12.782598 
27.451727 -8.654821 8.353364 
-28.226732 0.500292 16.851322 
-23.696802 -8.113715 1.258345 
24.288330 -2.587155 10.487755 
-10.661263 24.032574 11.456859 
25.586538 9.337807 -5.730457 
31.676136 -7.775510 8.407401 
20.034306 -5.216460 3.093993 
2.467330 26.851469 -0.411681 
8.472050 25.928785 2.814769 
-8.732940 34.993092 3.937734 
7.308772 18.913363 -2.776859 
-25.371347 0.661599 7.020351 
-29.569815 -7.438993 3.772898 
-4.767448 36.277225 8.587806 
23.035494 -1.551252 0.900486 
-27.347486 3.549260 3.367996 
-22.422956 15.045567 10.603587 
25.966978 4.267961 1.553842 
-23.203131 8.258465 7.057719 
16.921862 30.367876 8.887168 
9.186302 16.699501 -6.580352 
-26.096544 -7.666780 16.215025 
17.787441 2.807367 11.696051 
-18.927999 11.532573 11.578691 
-24.172941 8.997468 12.699164 
-24.612568 5.202718 2.712515 
-5.572448 36.031639 4.218262 
26.544428 -6.142079 8.156650 
-2.382832 36.437241 10.125051 
25.738539 -13.655796 5.009755 
19.745487 -4.353117 15.379255 
-24.150267 13.414300 -4.228024 
-26.931158 5.009433 17.337185 
-21.034142 4.319114 1.829678 
-25.593756 -4.987942 15.580837 
-27.881826 -10.638368 9.609612 
-21.048588 -3.769922 7.287358 
-23.902567 11.180124 5.727486 
26.026714 5.213929 11.278453 
-19.868641 -9.535254 14.560558 
-8.795140 25.747272 -0.536990 
-22.997347 14.588377 -6.212344 
21.013475 25.719923 4.141768 
11.899342 22.465412 -1.065441 
23.951351 12.972856 -2.340860 
23.735477 13.937348 1.151249 
-16.199257 9.265036 8.337744 
-20.684616 -10.071851 1.301449 
17.991230 5.159762 16.556499 
-19.618565 -8.017984 6.886388 
20.497406 -2.216908 12.561575 
21.516602 25.587572 7.068664 
-14.300297 18.060253 4.687478 
14.461926 34.518314 2.971934 
21.453012 23.269205 6.583280 
-11.152316 28.431648 9.049316 
23.811424 22.020145 15.297235 
-14.986481 15.763535 6.173501 
21.203079 -7.028914 11.277572 
-18.241961 8.820985 10.715174 
2.369684 33.243450 8.445037 
18.006758 23.906275 9.711661 
-9.444715 30.997881 6.516913 
-0.056747 30.006102 -2.577134 
-5.120980 28.364294 7.627749 
-24.503866 -11.506526 15.712194 
2.364238 30.403433 8.443678 
17.799736 20.402763 -5.467521 
-14.780624 23.351202 10.661758 
-18.930500 -9.746745 18.389111 
21.512136 -10.090271 14.117848 
20.495102 13.756769 5.990696 
-9.963224 27.626625 3.474945 
10.905991 34.659069 2.982156 
18.160669 13.355157 5.335012 
-17.044224 29.083843 10.702807 
18.833910 5.463913 0.803317 
-11.516418 26.737833 7.742071 
-13.432699 22.334726 -0.021329 
-21.941763 -1.550657 11.418697 
24.479815 20.818670 8.064745 
28.235785 4.633542 9.125315 
-21.996029 19.452522 5.480234 
-20.631948 9.982658 4.925441 
-29.572592 -8.913359 3.860551 
-2.274541 29.241875 11.921336 
-9.665353 27.012857 2.429393 
0.966060 28.461550 6.903497 
12.592544 23.895544 9.871188 
-22.863825 9.481146 6.604707 
8.104124 34.215927 11.404030 
-28.868093 -7.628626 5.642981 
-6.427364 29.124578 8.784663 
-18.272175 0.874031 0.182500 
26.723656 4.832735 -0.822833 
32.686863 -8.224601 10.248734 
-13.491473 19.226057 9.599256 
24.084944 4.680677 11.174913 
24.276411 13.637822 4.950504 
29.606970 -11.685509 4.346526 
-24.459223 8.158295 12.823209 
-23.802616 2.509395 14.916479 
-7.200056 32.320313 11.312915 
23.129944 1.823438 -1.590075 
-22.757416 1.192422 14.895461 
11.829587 34.945408 2.717290 
30.292135 -1.384868 -4.427911 
19.021664 3.882632 0.696532 
16.684067 10.453831 -0.121220 
19.954927 -1.714057 18.357094 
6.463598 30.105595 8.747030 
-17.964621 5.459838 5.867744 
-19.697418 -11.229106 -3.049089 
23.587683 6.958478 10.328831 
-14.711383 9.415241 18.742157 
13.796273 31.341154 10.576777 
-29.087465 -3.471299 -0.331890 
26.940897 6.978840 10.872613 
15.586769 20.837193 10.725226 
-11.732583 19.187874 12.450500 
20.718391 27.799337 11.230073 
-10.721752 31.383995 13.258321 
-5.090527 24.697229 17.909870 
30.821936 -8.993730 14.804406 
-17.781691 8.555485 12.693560 
29.941126 0.161332 0.832881 
-28.328255 -6.444633 6.558013 
26.702232 -0.858835 5.065372 
-17.354004 -0.846087 -3.157072 
-0.327452 34.027431 5.273928 
22.544468 14.619006 11.419146 
21.159666 -4.958699 2.758174 
21.240221 15.837496 -2.263705 
11.483585 23.352341 13.502817 
-0.870120 35.239059 12.737411 
-22.794874 -3.021378 6.160510 
14.593953 9.997498 -2.637964 
-15.528646 7.668719 -4.395064 
-11.501035 22.668062 6.505004 
-17.069387 0.525043 10.080940 
10.134797 26.565302 5.228223 
-13.720546 19.984257 5.603672 
4.218216 32.042423 5.153132 
-9.454893 27.796618 2.125202 
-27.498837 -9.725747 3.577186 
-29.608812 -7.803865 2.056143 
-20.659618 5.078621 -0.330328 
23.354162 7.686881 9.999987 
18.115877 19.430214 0.206599 
20.415840 -4.035695 18.437807 
-22.087254 20.643837 9.141089 
3.242393 30.597784 8.282835 
22.700453 24.472328 15.976394 
20.124636 2.668492 13.378369 
23.208126 11.079284 11.633214 
-13.837171 11.517681 -4.610841 
8.512059 23.158104 3.315882 
-29.144882 -3.825555 17.554077 
-15.428974 24.507078 0.886657 
-4.022658 26.919699 2.016516 
-5.820490 25.764723 1.657633 
17.131697 9.583534 16.679358 
23.685698 18.272398 12.672144 
-21.479229 21.190542 5.498307 
-26.121088 -8.574994 16.238951 
-22.700829 -12.896851 10.754221 
-13.338493 24.242439 -0.324915 
-24.995884 -13.728627 -2.723909 
-11.723742 17.859831 13.145425 
25.353670 7.269973 12.654846 
-20.533947 1.520525 -0.538453 
-4.769070 36.398777 5.750510 
-5.856678 30.402157 7.680057 
-8.557529 31.143787 6.695472 
30.576246 -0.517334 14.682018 
-16.364283 29.125637 11.978934 
-20.926888 -3.395243 12.101775 
-18.371214 -6.321718 12.987963 
-21.442230 -0.343927 12.033728 
18.340200 3.396218 16.849569 
-16.515755 1.933696 19.080505 
-0.051998 35.775276 14.584908 
-28.880587 -3.864177 19.603550 
13.341009 26.192701 1.492686 
21.290386 -3.111750 7.200171 
18.232597 -0.314541 5.793732 
25.452955 10.095186 11.510886 
21.124292 -10.569111 6.027508 
7.660914 29.275537 -0.451919 
17.147221 11.959002 11.505060 
9.537410 37.057213 6.546481 
19.454281 -3.352677 14.189782 
-18.032820 -6.207228 6.271545 
10.832803 32.532188 12.049950 
3.664862 37.364269 9.094901 
-8.636221 33.054096 11.861702 
-25.098110 7.148682 2.171046 
28.426758 4.046950 13.048715 
17.160427 2.064873 -3.820285 
30.440651 0.723270 18.011446 
-11.273607 15.286780 -4.914515 
16.550846 33.447178 5.282201 
17.605640 14.570317 3.958687 
6.434016 34.240074 6.363513 
-23.579651 -3.061039 3.642637 
3.293405 33.154957 9.908000 
-20.145647 15.524166 10.653032 
17.437534 0.162017 -0.549638 
18.198954 5.429788 13.063833 
20.719727 28.683861 13.857620 
10.566840 27.587543 8.881481 
-2.333859 26.231932 2.396075 
2.277221 35.103703 9.253439 
20.552525 -9.409352 2.155196 
-17.366930 1.314000 4.092206 
21.034302 11.692669 5.848278 
-20.519205 21.873680 15.624186 
-15.667953 24.217096 -6.218615 
-11.755963 17.093985 14.528059 
31.839266 -8.344047 0.323376 
21.721972 -11.073283 7.202499 
-18.933565 14.416843 10.423803 
24.577311 -13.744092 12.382518 
12.672336 22.233322 -1.041969 
-10.580763 15.920418 -6.417959 
13.620886 25.647337 7.256574 
-28.552198 -1.572751 19.505255 
15.571288 32.486645 13.919205 
22.463634 18.324276 11.607339 
24.056269 15.079491 10.169469 
-18.311348 -8.522427 5.511413 
-18.583860 24.893589 17.118500 
20.187014 -5.393466 16.813169 
29.180779 3.595000 -0.913158 
-12.740083 15.040714 14.393730 
19.339165 14.994725 10.545230 
-27.976622 0.440783 -4.456059 
6.996284 34.501266 11.913110 
22.127813 -2.448370 5.944067 
-14.740722 29.575100 15.121982 
-28.979944 -3.291161 1.071606 
-12.334240 31.378176 13.993034 
20.387136 -0.558299 6.994801 
-21.109785 -11.870332 13.792747 
10.004025 29.337622 9.991765 
-10.935796 28.289856 10.084295 
20.217939 24.657331 4.203409 
4.723104 22.492174 1.728312 
24.667620 20.219603 7.524058 
-6.857169 29.678160 9.743042 
-3.164975 28.477810 0.023113 
23.548130 17.185844 5.606124 
14.840154 22.823572 10.578568 
-22.805374 -4.459852 14.935622 
-6.859008 25.912966 11.718182 
12.962254 19.610260 2.086782 
-26.745655 4.125615 12.188419 
15.535712 28.986853 11.852732 
-3.867003 27.861681 1.314565 
-20.955236 -5.979345 0.971834 
13.956734 23.989841 9.157249 
-26.784458 -12.173310 18.585087 
20.907312 1.118103 13.590144 
20.113789 23.133476 8.115977 
21.393116 -9.662795 -3.380120 
1.392168 29.381044 1.244270 
19.808508 -1.959381 9.998618 
17.159565 15.846806 6.031497 
-29.036684 -10.036887 12.400887 
7.210949 36.006561 11.742087 
-6.518107 19.726973 -5.033118 
-4.755428 33.411118 13.584933 
11.895960 19.269520 1.708767 
22.152573 25.152418 17.243917 
-16.816429 -1.628747 15.329561 
-25.759104 -13.800972 -0.660464 
-29.555122 -9.153658 2.033457 
-23.543259 -4.949356 1.446568 
-26.948921 5.932901 -3.566759 
22.683067 -3.233595 11.774086 
31.838045 -10.273641 8.954152 
26.688726 3.748977 7.016559 
24.962467 10.329906 -5.850338 
-26.159081 -4.396358 15.271177 
-12.475085 26.821688 -3.534576 
20.027620 15.581346 9.962024 
16.216459 3.327399 2.650131 
-13.852141 29.922121 9.482702 
-16.377811 28.750217 12.698330 
26.445112 -7.442984 14.976285 
9.252308 25.122499 7.586961 
-19.057211 8.174106 6.743070 
18.904486 18.662800 10.736286 
-16.337488 15.963936 13.828279 
-26.298244 -13.863298 3.875689 
-24.842779 5.307938 14.385715 
-1.667321 35.964699 12.140772 
-0.578195 34.314667 13.389707 
-26.357546 3.211948 1.132564 
-23.769875 14.300133 11.039931 
-25.932430 0.599405 1.103898 
-0.482133 24.983109 3.276956 
23.133970 8.540341 9.980213 
24.405722 11.957096 -1.746769 
18.168299 10.397130 10.106677 
14.029428 32.854221 16.147205 
4.105161 33.937904 13.894448 
24.756454 19.947855 8.375750 
-23.087128 5.388796 0.014777 
-20.084949 21.646698 18.386969 
15.827474 28.564409 9.390436 
-22.639473 -0.377140 0.048489 
20.789951 26.770414 3.524298 
25.041571 6.428307 13.229671 
16.535042 2.623811 2.085969 
-29.188623 -4.553231 -0.162623 
6.419271 31.944870 10.498189 
-21.778711 21.343420 8.598214 
24.843687 7.021590 -1.184568 
16.422632 12.600289 1.237481 
31.435587 -4.238840 -0.066198 
-26.345238 5.970380 19.154900 
21.964634 16.007105 1.268410 
-10.039185 25.900246 9.581491 
-16.335506 22.364986 8.136428 
9.248314 34.283058 17.190292 
3.256943 30.637938 10.244136 
16.601580 19.833509 5.842290 
-7.903048 32.781826 11.674218 
15.578681 18.836985 9.506726 
2.061027 28.988192 -1.077247 
-18.971964 7.809859 9.055304 
29.576576 -3.644746 2.524280 
18.928394 2.625470 18.210150 
5.217130 27.595257 6.551669 
5.134033 34.944405 14.307411 
3.967131 29.312368 1.399715 
11.477007 25.542747 10.521750 
2.078826 35.048569 8.243898 
16.087917 22.127510 -5.792602 
29.502993 2.315187 -2.329630 
20.358934 10.455515 -3.051308 
-7.595579 26.019682 -1.768790 
-0.235621 36.915722 4.246263 
17.934370 5.630861 6.335733 
-24.150995 -13.172677 13.966084 
6.692576 19.893578 -1.793984 
-14.689483 9.340721 -5.595113 
28.957762 4.549495 12.206319 
17.447737 30.315039 3.054753 
-18.332075 -1.744711 3.901637 
-28.054031 3.313586 -1.087164 
4.388230 30.326021 -0.629828 
24.061817 1.454393 14.077202 
30.080406 -1.679691 2.081689 
8.993332 24.354006 4.034452 
19.869833 16.416601 6.145265 
19.103565 -2.329898 13.480000 
-13.355502 25.295176 11.152979 
-9.005732 26.989954 -7.784315 
-15.446250 26.074497 14.391071 
-19.045660 -11.230124 0.275527 
16.115749 4.179987 2.981559 
