20.739315 -8.025005 -0.174686 
24.937078 2.358922 1.335113 
-22.230560 13.116826 9.592474 
27.544043 -15.058845 4.929048 
-22.344242 -2.639989 6.170673 
21.955437 2.366967 10.497903 
-3.573384 23.366266 8.931728 
-23.976936 0.810293 -4.192346 
-26.129074 6.067971 10.411000 
-21.220058 17.586655 15.432840 
6.721545 23.724176 3.865356 
17.603842 10.286192 4.385291 
23.486816 10.589347 -1.489040 
21.875338 13.657935 -4.271998 
-25.167860 -2.686013 -0.171963 
21.463564 8.538078 10.375499 
8.962499 18.066566 10.233786 
27.874098 -4.621918 5.796800 
18.406263 4.223031 1.453293 
-3.281495 16.801001 13.798466 
3.239624 30.013567 -6.341616 
-6.702164 19.440193 9.332530 
-19.915138 2.894334 7.148974 
-25.228067 9.352545 6.527669 
-14.610378 12.154391 -0.619433 
-2.397464 27.695101 0.690642 
24.535460 -0.864193 4.650818 
-13.467114 24.643492 -1.363930 
10.098835 27.542212 3.520103 
14.631474 19.795706 -4.698285 
-5.524815 27.997303 2.508233 
13.912759 19.238304 0.564811 
28.681126 -6.749247 -1.374880 
-15.410995 14.111115 10.190428 
19.247681 8.024702 4.726454 
21.829433 1.850778 3.781524 
22.344215 13.256550 0.430277 
8.322723 25.195313 4.706973 
-7.334004 26.969917 -2.407093 
25.179106 -9.100519 5.431332 
19.637709 7.067354 10.395514 
14.287621 26.589033 -4.349208 
-23.423677 -7.618341 10.784575 
-14.482120 11.139768 11.025146 
-13.760747 13.376193 -0.802532 
-21.028133 18.515352 13.029149 
-28.971449 5.563457 11.156976 
-19.826889 17.466768 -5.685626 
13.436128 16.243828 10.992604 
22.851892 14.601587 -0.926191 
-19.065855 10.054132 -5.067622 
21.998329 -16.151068 -1.536178 
25.174547 -0.974400 -2.776549 
-27.948910 -2.944768 3.230138 
2.262060 30.006336 -1.768939 
-9.746353 27.182957 -4.684525 
14.365517 20.650690 -5.031610 
-28.469437 0.963336 9.946835 
16.699514 -1.867831 0.872205 
-21.750343 3.596702 3.296625 
18.833298 5.420248 4.048024 
-28.203369 6.074023 6.924383 
21.243147 -8.982174 4.357738 
-18.687450 11.746215 7.938796 
5.574136 29.617247 -7.016772 
18.880606 7.058813 10.461280 
23.438654 7.665581 14.177567 
-17.289755 20.386200 9.337964 
5.770473 19.145487 8.110415 
7.245889 15.188519 10.047332 
6.650257 23.091303 15.500267 
-27.342886 6.472765 9.133611 
-24.553493 1.346448 7.884541 
-25.770496 -10.209229 -2.247169 
-22.644445 -3.459505 -0.135611 
-25.142904 8.932768 5.845955 
-1.011599 22.010744 -6.792445 
-27.836496 0.905783 10.492466 
23.285709 -0.656810 5.835937 
10.228578 22.761747 11.729317 
-29.097383 -11.132400 1.811439 
-29.177338 -3.826354 12.095789 
14.385365 12.517285 6.580736 
14.819159 8.831163 9.114040 
17.304602 15.957607 -4.268960 
-25.320255 -11.326258 5.510880 
-25.639042 5.373597 1.686870 
22.082615 -11.513484 4.028513 
-18.059046 14.383945 0.635006 
17.007717 -0.725959 -3.569597 
-12.200202 24.247496 -3.052010 
-25.520121 11.424586 7.503231 
4.562925 16.222950 10.856942 
-29.434784 -10.316005 -1.520468 
21.492220 11.603569 6.484208 
16.589273 13.310370 6.702273 
-15.717443 15.197792 -5.002337 
18.927317 3.493520 -2.005555 
-7.721342 24.667286 14.370252 
15.582661 6.043114 -6.609901 
-15.908526 21.118933 -9.616457 
-21.068186 15.343001 -5.997036 
26.994320 -7.716760 -0.812470 
-16.781065 21.120447 9.100078 
-24.238029 1.970277 5.098066 
15.802721 21.174461 5.603909 
22.137432 -14.641227 3.872504 
12.415276 18.546928 7.406713 
-18.394510 7.505012 2.524863 
15.798267 14.460859 2.576695 
-30.133284 -3.496161 9.739585 
21.695211 0.683274 10.166835 
29.625402 -8.715602 -0.893668 
16.953243 0.764025 6.557441 
-7.039136 21.572903 -1.791255 
4.261720 23.159649 11.921831 
-14.261177 21.237469 11.577509 
-14.758040 17.916315 6.085306 
21.380838 -12.592906 3.631664 
17.487801 23.769958 -3.520792 
18.293768 0.551598 3.139031 
-11.640856 19.894754 12.168533 
21.026949 -6.574457 -3.046176 
23.552223 -17.418364 1.382520 
19.779259 -4.229940 2.327688 
-30.644938 -12.113591 11.239059 
-22.787498 -1.480335 7.357907 
-33.441204 -4.200087 10.414517 
19.244400 -1.084022 4.509784 
21.344559 -0.393809 4.066462 
25.851637 -6.902373 1.201406 
24.423241 -14.513428 0.532138 
19.287519 6.616118 2.281325 
-4.156421 28.372561 2.510925 
-14.028580 15.396832 -5.043137 
-2.952979 20.532400 8.518480 
-15.271688 10.295663 10.641290 
16.654373 2.066310 -8.032519 
3.653762 24.870893 10.569926 
-14.715500 23.443878 7.979901 
23.123005 6.565826 1.471676 
9.288047 20.169119 5.660375 
-31.322834 -11.561103 0.416744 
17.429625 17.196775 7.733835 
22.024269 4.487982 1.215567 
-18.404100 6.402351 -1.156340 
-9.603857 25.492104 6.107538 
12.097834 16.893826 10.490441 
-22.756371 -5.720475 0.262134 
22.335720 5.916072 6.543587 
-16.977110 21.205379 6.813786 
22.719933 2.137916 -3.440574 
20.053343 -9.898645 9.415652 
16.449039 22.125666 4.167523 
24.870462 -8.533486 7.998380 
-27.227844 3.080820 0.559906 
-19.458185 19.210665 15.529923 
10.188435 27.991646 -8.130161 
-19.432175 -1.240622 -2.627228 
25.631689 0.611809 1.681761 
-21.513954 -8.113997 -4.749322 
19.725655 -3.169061 4.896692 
-24.618244 -5.415131 -2.164995 
28.426090 -8.307863 0.840603 
10.024642 24.460043 1.599146 
1.594129 30.288818 -4.736479 
19.067507 -3.482780 8.693213 
-24.352253 13.921762 12.129821 
-3.034167 22.114157 10.203517 
10.241188 19.053833 10.728197 
16.864922 4.974830 0.697683 
8.814109 23.250830 12.632198 
18.426134 -0.309364 2.231529 
19.446552 -6.470986 -1.495016 
24.681608 -18.536135 1.357817 
-22.709108 11.504140 0.404629 
-2.967214 25.770708 -0.706845 
10.014807 28.565968 -1.002030 
24.014357 -17.274275 -0.549995 
12.834851 26.478991 -9.096482 
-6.953976 20.430286 -2.852255 
-10.969912 13.873888 -7.559375 
-5.709607 24.743950 0.501312 
-22.147709 -9.534296 -0.717268 
-18.894609 2.115250 2.957822 
21.013235 2.360297 10.449174 
22.027601 1.598058 7.944306 
-8.657220 24.215580 -4.408675 
6.986574 24.568899 4.044275 
-7.945926 26.668802 2.662883 
21.126087 12.289670 10.275177 
10.896359 21.943186 9.447668 
-5.145815 28.165802 -9.138978 
-23.965830 -12.364985 3.970464 
-31.505226 -12.482473 1.334798 
22.123144 5.624568 -0.389391 
-21.026356 12.035821 4.181632 
-19.759165 18.889355 2.244505 
21.133474 17.718409 -1.233850 
-28.456806 -12.536440 5.303425 
17.397436 1.248845 3.993507 
-11.005904 15.424068 -3.478088 
18.564495 -3.924592 6.799208 
-16.530376 9.892839 2.785757 
14.896442 25.351904 -8.878078 
-24.748663 5.004392 3.788331 
-24.148016 -2.720889 11.357894 
-29.056986 2.917582 8.378006 
-31.461388 -6.931280 -0.611427 
21.969889 -10.480280 -1.211971 
17.379276 15.186690 9.456484 
-15.118914 11.077697 0.142567 
20.062811 11.898503 8.372545 
-19.756025 15.984545 2.880398 
-22.831217 12.816687 -4.672109 
1.728999 17.952467 9.226881 
16.519442 17.496756 14.975384 
20.429255 -10.978767 2.521165 
26.907701 -4.237434 0.562515 
11.295938 15.888749 5.943798 
-29.614183 0.104909 10.838095 
-25.987347 9.987149 8.279322 
8.305752 22.764420 -3.921884 
-20.967201 -2.713824 2.926390 
-3.399194 28.028984 0.098791 
13.896917 11.980051 -6.895626 
3.270342 24.182892 14.900341 
19.267380 -11.280124 -5.488623 
19.853725 12.333949 6.261513 
16.905853 4.245820 -0.788843 
-7.128897 25.122591 13.152810 
-24.828552 9.976393 9.117693 
20.561480 -11.883564 -1.623432 
22.870770 7.477722 1.896750 
-10.911123 21.721760 -5.126908 
11.879308 24.802158 1.955804 
18.109238 1.867141 2.793545 
-8.265910 25.243349 11.775482 
-18.252216 14.671451 -0.102605 
9.308977 21.954697 10.909852 
-26.382425 6.042500 -2.375801 
-26.099468 6.666080 -6.274325 
-6.938608 27.573244 -9.193758 
21.770845 -9.019418 -0.676366 
24.889582 4.597275 3.836018 
8.860791 12.547553 11.784291 
-19.930113 6.179452 6.191526 
-17.619495 20.546576 2.387320 
-29.648516 -7.430591 -1.841596 
-25.841974 3.916184 2.496688 
-23.828362 13.454274 4.105222 
24.790335 3.068114 2.799631 
-19.094963 2.419905 10.302112 
26.403446 -9.067676 8.235853 
-14.255716 18.191601 8.219882 
-20.727177 5.481512 -2.987549 
-11.965629 26.263163 -5.505226 
-19.856758 20.411119 6.635341 
-20.236704 14.001819 0.445489 
10.183339 21.940346 10.422895 
-28.941092 4.427354 8.794660 
29.824556 -10.192491 10.397653 
-29.698347 -3.531294 1.944042 
5.060690 17.814774 8.355661 
11.071050 28.447601 -5.387319 
-0.113870 30.230654 -6.022901 
20.447899 -5.898068 -3.497207 
3.337454 24.716417 12.685332 
-24.233934 -12.114019 -4.315719 
0.411187 28.268209 -2.116162 
-25.693403 -13.701569 1.639813 
-16.593178 10.175976 -4.502265 
16.651915 23.005997 3.100809 
-28.880621 -1.600466 -0.151851 
16.819359 12.135716 -4.069685 
-17.780977 13.186135 9.356933 
23.242401 9.580916 -1.074460 
-26.009912 6.909863 -5.064539 
20.916727 0.582960 3.222577 
10.942479 25.557459 -4.740393 
-10.786710 22.798164 -5.241250 
30.170874 -11.263318 1.015593 
-5.219524 26.523918 9.652637 
-19.997337 14.693330 4.854198 
0.503018 25.952534 -0.719817 
23.264011 -6.599864 2.450746 
2.403681 21.863218 -8.305303 
0.786245 23.034832 6.333723 
-16.782518 10.907838 -4.216945 
-12.692671 25.443823 -0.258770 
25.869297 0.531974 8.727571 
-15.008188 16.181507 11.043386 
2.426299 22.310789 -6.754928 
16.413818 9.605862 3.469879 
16.668863 19.405724 0.191259 
-26.583645 -8.062899 11.475009 
12.674133 20.742519 -4.775287 
-12.339366 17.765409 0.444950 
15.362261 1.748801 12.320726 
-20.600750 12.332932 -1.776450 
21.647861 -5.873449 -3.290486 
24.966995 -0.097717 7.342802 
-29.595230 -8.072513 10.074059 
19.330982 -1.193273 -4.640181 
13.349957 23.706459 5.047327 
-17.129473 4.115403 1.601696 
-24.558733 8.811042 -7.944181 
24.807177 4.607032 9.201228 
-1.354773 29.369297 -8.144652 
24.330956 -16.163120 5.198298 
2.620098 29.082859 2.257735 
-25.664354 -9.123795 4.152745 
21.553854 -3.751863 7.353102 
23.647827 -9.931417 4.062366 
-23.761635 1.743430 -4.313972 
21.965832 7.496552 8.252971 
24.560793 2.833461 9.657043 
17.273935 7.922990 -3.283955 
20.371761 0.219830 9.921755 
-32.159927 -1.045044 11.823755 
-26.681082 -0.814271 5.391692 
14.502789 8.458589 7.332875 
-22.275566 7.095516 1.551377 
-18.282404 -0.241497 -5.946785 
-22.547424 -9.663483 1.526012 
23.394257 -0.096924 8.370402 
18.049192 13.222557 1.972141 
-12.290195 24.326952 4.245912 
-24.641674 -11.552318 10.670795 
-16.608820 8.647438 -4.262564 
22.786615 -1.015825 7.642760 
2.075402 21.473938 -10.052444 
11.594452 17.364281 5.355051 
-18.869633 20.932581 7.933648 
11.521301 23.697075 3.523485 
19.188274 3.772177 1.105101 
10.918590 13.314885 8.871761 
15.551047 9.326426 9.560102 
25.204237 7.613809 -5.451342 
17.638378 22.207899 0.607665 
6.247653 26.638430 3.969918 
18.294436 15.447962 -1.933037 
28.209751 -6.202864 8.452637 
-18.193272 19.933348 1.515643 
-4.541265 21.853773 -3.595339 
-20.717617 1.467277 9.252006 
-23.535519 6.272746 -2.593992 
-22.236902 -6.482918 8.915232 
-30.359644 2.575305 13.278730 
23.582087 7.877629 11.014018 
-24.920761 -9.127408 10.673240 
21.795216 -9.291945 -2.485217 
-16.000114 17.853960 -4.939531 
-1.157003 25.473211 5.640310 
-0.515443 25.513479 8.396297 
-12.908988 23.252344 -2.678833 
24.802813 5.030175 13.011601 
-31.254749 -6.882340 5.929837 
23.788891 -5.585514 3.557235 
19.462057 -5.420238 -3.776017 
17.547611 10.783414 10.104544 
26.522299 -12.388173 -2.055868 
-6.584771 19.809387 10.889209 
16.687649 25.225483 -2.362691 
20.800051 -16.186001 2.053882 
-21.584631 10.008571 10.906180 
-24.659807 0.789340 5.597171 
-20.841537 8.762302 8.056105 
19.353970 -9.884911 6.927365 
17.345385 6.099030 2.945347 
-14.664537 7.802417 -4.975934 
-32.163975 -9.505969 0.848412 
1.013022 26.456078 -0.079240 
20.514801 1.062059 7.326550 
28.606655 -7.599400 5.977417 
11.312522 14.621503 6.134573 
12.524371 23.990995 -1.217193 
-18.624250 18.673923 -2.875191 
-10.812662 20.580828 12.231941 
-32.031391 -10.192052 0.212667 
-27.401697 3.158412 -0.339917 
-12.285978 12.663341 -4.078598 
-0.188224 21.263071 11.092337 
18.458424 12.636489 5.851003 
23.693750 13.121517 -6.587470 
-3.458135 18.430611 10.732063 
24.568119 -13.155178 5.975360 
21.646172 7.460960 8.974128 
7.388871 24.233213 8.887027 
-19.442358 1.637258 13.202348 
-19.857531 7.106515 -2.795557 
21.861574 6.538077 -4.149502 
-6.024518 23.930073 -3.787201 
12.754069 19.235582 6.174903 
-17.549072 10.452397 5.058504 
22.619593 14.185617 -2.316871 
16.916912 11.378824 7.398011 
5.820546 23.995665 8.932962 
-30.566414 1.957609 11.294993 
0.655427 23.743057 9.068526 
-8.716858 15.810603 12.903068 
-26.697632 -2.321352 11.916177 
-22.105383 9.094357 -1.574773 
-28.245928 -11.635874 -1.428244 
-3.944223 28.419325 1.393170 
20.052944 7.611583 3.736347 
-32.189991 -4.083768 6.775783 
-26.433746 -12.951717 11.179894 
24.334337 10.351638 -3.859739 
-11.970075 25.778606 0.766134 
-5.125796 24.591282 -0.083446 
-23.295141 5.994370 4.629116 
10.397308 17.691963 -6.703352 
18.755926 10.005965 1.401973 
24.477644 5.365076 -0.835143 
0.674689 26.659256 0.608386 
-30.962118 -5.032773 1.463370 
19.857874 -13.872722 9.010158 
-22.168497 -2.765258 3.680980 
16.756084 -1.030221 0.698656 
14.149686 20.784855 5.529683 
27.243469 -2.815153 6.386655 
-23.878862 10.274202 -3.309391 
25.632404 2.013445 5.865792 
18.145906 1.621733 -2.452774 
-14.389467 10.208432 13.251229 
-32.301857 -10.292771 10.677418 
-18.230988 15.559740 -3.112678 
-23.989870 -5.206256 9.013725 
22.611444 -17.250860 1.530421 
17.988131 15.810011 5.366974 
24.348333 -11.863104 4.421679 
15.845921 13.960875 -1.460928 
-26.186357 -7.059550 4.165153 
-21.591099 8.661706 4.370392 
5.653909 28.871777 -1.970581 
8.087049 27.022686 -0.383145 
21.450844 8.240442 -4.176042 
-23.069391 -6.496255 5.913092 
13.568433 21.273125 5.580655 
5.296574 22.402805 10.829339 
19.676411 -6.930477 1.101786 
23.178228 5.131551 8.654271 
15.385218 13.226106 10.316280 
20.241459 13.095596 14.610760 
14.437588 24.144194 4.086164 
22.642447 10.019853 -0.969328 
18.345333 10.173412 8.023248 
-28.338690 -4.151003 12.215318 
7.384036 20.907421 -5.380497 
-13.196460 15.090549 -4.798352 
-29.052904 1.460631 -3.822069 
3.946860 25.366989 -1.386749 
-26.783463 -5.173337 0.643354 
-15.742523 17.456659 11.595553 
1.655472 30.263084 -2.667115 
-18.249565 6.747930 7.222669 
-28.561028 1.177678 5.281723 
-20.508327 19.252335 11.746439 
17.030596 -1.097984 -4.536938 
-24.036785 -6.627585 -2.594434 
18.691525 2.078247 9.732623 
1.109359 23.009020 -4.983222 
17.918625 8.085093 -1.964647 
-27.937202 2.109407 5.017457 
-25.583448 -12.522943 -1.203207 
-23.208809 14.987654 15.267544 
21.915470 7.491721 3.742145 
13.483090 27.012981 -3.255227 
-25.151735 8.814129 4.878104 
17.988789 3.087758 4.159092 
3.928199 21.208382 -10.060954 
15.675863 18.701260 0.076541 
-4.636257 19.950775 9.227786 
-18.735567 16.130987 1.218946 
18.203352 -5.262194 5.757189 
-17.242731 19.124216 2.492450 
-21.968153 16.021765 8.300460 
25.797752 2.061079 9.558442 
15.362000 23.991894 -1.799571 
26.928717 -0.314066 11.610933 
22.118048 1.118295 -3.979052 
-10.569217 26.047173 -8.653399 
-25.410814 -7.697972 8.813871 
18.571796 -6.642684 -2.530163 
-17.234142 8.906506 5.315390 
-20.888876 7.882221 -3.972173 
-20.090008 7.753740 -0.298563 
-4.730211 28.577902 1.042992 
-24.060247 6.530045 1.779996 
20.016388 6.525930 2.791021 
-16.945200 19.966980 -9.454976 
-16.846704 19.466036 1.254671 
22.759258 11.728383 -1.042182 
10.530284 20.760723 4.317878 
13.695212 24.672707 3.840935 
6.403919 24.943577 6.579979 
18.449907 -5.163588 2.135178 
20.711054 -7.022726 3.007633 
22.961374 -13.532756 3.745315 
-17.918392 18.086956 2.425299 
-12.109451 23.365301 14.909705 
-19.418938 8.561803 10.360460 
-25.014364 -7.144662 3.887180 
5.435542 29.991518 -1.157950 
14.427226 24.518099 -1.063116 
-5.511730 29.363556 -3.115899 
16.447266 14.703189 -4.854037 
3.532892 27.634960 4.087255 
16.234476 3.259579 -5.958027 
2.951902 25.739765 -1.046174 
6.561915 25.722504 5.216390 
26.587126 -11.640002 5.901801 
0.883156 27.045214 1.424158 
-27.180454 -8.627148 11.263832 
22.622543 4.984160 -2.996974 
-26.000555 -11.618955 -1.698024 
-15.656374 8.486376 -1.275989 
6.686621 29.097990 -7.662564 
-11.227089 22.078865 5.775611 
24.416357 -7.322898 -0.984862 
-20.185585 1.190544 8.429598 
-25.837711 -2.010973 3.155670 
24.253534 -6.988124 -0.076104 
-24.025702 9.327846 7.701988 
3.769342 15.397179 13.282027 
21.380133 -16.025715 10.269005 
-11.274748 20.857244 2.175915 
-21.575428 14.357914 -3.226122 
22.469954 -1.037194 6.867896 
-30.861050 -3.312884 -1.832165 
15.818687 10.403520 -2.261684 
-19.747133 12.008574 9.750647 
-27.557518 1.273732 8.124381 
-26.144737 0.908210 6.647441 
-7.702662 22.786507 -2.706663 
28.066690 -2.831782 -4.800759 
4.869781 24.136503 10.389142 
-19.634939 10.932887 -4.932166 
17.768394 11.398273 8.765684 
-12.755798 14.991536 -2.405671 
16.930048 14.084133 9.703197 
12.987048 18.408827 -2.735883 
19.417845 -6.607957 1.743746 
19.348984 7.130168 4.735610 
15.714507 20.213697 4.849944 
11.322129 22.690111 7.171485 
20.536852 19.688028 -8.488477 
25.365314 -4.988554 1.756825 
-25.625904 11.388857 4.929087 
12.323933 17.671135 6.880480 
18.913782 15.464905 10.658268 
-28.614460 0.089332 10.970374 
-3.231440 25.557745 5.321318 
24.160009 -1.687431 7.634062 
8.176994 21.667292 5.293765 
-2.211782 23.604946 -2.598688 
-9.171766 26.786879 -8.731013 
-15.479932 8.563688 14.707903 
-27.752390 -2.794567 1.722572 
-7.051432 28.829325 -4.310468 
-6.401974 26.969435 8.524351 
26.844860 -2.305776 8.466566 
4.462307 27.379345 4.034350 
5.692305 20.158327 8.158937 
-22.858458 -9.415519 -0.501566 
11.244994 9.777367 11.577263 
22.250521 -6.519218 3.107320 
14.885610 17.884317 1.122939 
-8.787309 21.279881 -0.093485 
-30.769230 -12.662658 12.182377 
20.684956 -4.151870 10.490515 
17.541290 21.945076 -4.104125 
18.273766 2.841789 9.351926 
17.691797 8.899365 10.613889 
24.500242 5.892890 11.143286 
27.168579 -8.287128 -1.415004 
11.216193 16.553778 -7.094170 
-13.554509 13.683676 -1.737236 
19.442337 5.429863 8.251835 
18.631788 7.183954 2.395548 
1.777098 27.522255 0.208199 
6.909748 15.787939 9.594995 
5.818255 30.275082 -4.264424 
-24.532701 -3.980632 3.526885 
-18.996834 3.184131 9.218715 
-19.053242 18.011127 -1.423119 
-15.948689 9.169735 2.932723 
16.883804 3.846327 -1.959622 
26.831875 -3.331198 -0.937205 
2.355649 24.735100 5.053397 
-19.910604 -1.619148 3.415624 
-20.775360 13.551585 1.359685 
16.101685 13.251410 1.583809 
-15.071489 17.531162 3.936164 
11.147722 28.623272 -3.429413 
19.484266 6.100847 -4.770259 
-17.287230 2.960777 -1.411647 
-15.758563 15.332997 6.426221 
-12.674549 25.626028 -3.907084 
-16.163465 19.762753 1.025616 
-21.945637 -5.703734 10.396740 
-24.170515 -6.372776 4.681478 
-8.479003 24.598959 14.146173 
14.706133 19.928253 5.210699 
-16.329021 10.233675 -3.738933 
-29.911798 3.315922 11.229232 
-2.757450 23.260952 -3.157434 
-18.065161 20.926363 11.043454 
-24.840309 -9.702083 0.260191 
-19.569851 9.239574 2.894337 
-25.471212 3.733666 3.331891 
-29.869030 1.300211 8.600723 
-16.167833 21.879040 -6.759075 
-26.754448 -6.118099 4.673418 
15.402014 18.886127 -2.759192 
13.982966 5.597785 8.451084 
20.709267 14.467075 3.892845 
27.468998 -8.944185 4.004405 
13.615376 22.632109 5.818079 
16.849997 18.014957 1.783099 
20.417810 9.451576 -0.912427 
15.988506 8.270600 9.959315 
29.189104 -11.572989 0.219743 
14.864469 6.744924 9.012083 
-20.155418 5.075830 -0.444053 
-3.438908 26.479733 -4.819530 
16.931087 18.220072 6.982264 
23.588503 -7.334091 -0.848597 
22.945126 -8.547471 -0.045294 
21.534683 -15.472239 -1.888396 
22.092451 10.465511 13.588791 
11.282770 15.612187 -9.547397 
26.918770 -7.042156 3.960468 
25.136772 7.273977 -7.590889 
-23.236488 7.889276 4.052991 
28.101963 -2.722232 -2.627606 
29.315273 -15.165359 -4.360560 
-23.488258 13.685245 6.596933 
-14.694273 23.845015 -5.436089 
14.369427 7.565489 5.362403 
-10.588862 23.501459 15.736075 
-26.141256 4.954565 0.966336 
-23.403805 -5.785257 -0.902262 
-21.033003 3.841293 -4.538814 
-13.713889 22.510651 11.813022 
16.612875 8.045612 0.923076 
21.978315 -11.814728 7.934700 
17.845844 15.834259 3.814871 
19.002314 6.055939 1.766278 
19.316147 16.447159 3.711314 
-7.086255 27.106960 7.937153 
18.997444 14.581855 8.562352 
21.855972 11.401931 3.707577 
14.742838 5.717303 8.459450 
-10.483204 14.893091 12.444102 
25.348007 -12.190149 -2.616832 
27.390730 -9.430425 7.260168 
21.931215 -7.985241 3.679839 
20.667795 0.177542 -4.469249 
-32.466549 -6.722191 -0.858559 
-25.760040 -7.010687 5.091695 
-23.327393 -4.920573 0.164939 
-0.955033 23.416748 7.398932 
-10.660007 13.262441 14.992113 
-12.576863 13.879548 -1.803523 
14.600070 7.995391 4.298287 
18.897255 -9.899418 -3.721364 
-5.989866 27.670517 3.022914 
-23.635294 -10.328624 12.486286 
23.834885 6.401194 -0.799181 
-20.749865 7.216022 -0.474151 
24.945978 2.454446 3.198869 
-6.565725 28.042370 5.444292 
19.543602 -12.961265 1.174470 
-12.947265 14.435634 0.375645 
5.754031 30.143728 -5.057566 
21.298944 -2.117926 2.904941 
-17.719713 7.505757 -0.859207 
3.442131 26.357353 0.208407 
24.592773 5.321988 9.535365 
-13.965421 20.574448 -0.471806 
20.876408 5.535046 6.785325 
-24.818956 -7.458920 11.362892 
5.513480 24.897839 8.848883 
24.264946 -9.820323 10.501014 
-3.357654 17.335463 12.630257 
-18.679764 11.695556 4.976764 
-27.447500 2.801922 -2.325415 
-22.796503 -1.366899 9.397950 
16.538742 4.955469 -1.330380 
-16.313379 21.195742 4.707654 
-21.341436 2.449610 -4.687438 
-31.848368 -3.547346 5.474036 
25.095713 -7.203195 11.152893 
24.875172 -5.279845 2.259878 
17.431053 -6.445797 10.153762 
-29.990908 3.330231 12.207186 
25.391678 -7.578438 4.262187 
-23.674030 -12.322879 -1.091472 
29.693865 -12.905690 2.541999 
-17.635374 20.972347 9.729229 
-28.848146 5.469177 13.617367 
17.616812 5.314603 3.892774 
20.840855 -15.919069 -1.649626 
23.043247 -7.364336 2.986737 
-29.960173 -12.915328 1.664256 
12.352559 21.757666 -4.681461 
25.992613 -4.883103 4.909210 
-22.687382 13.030528 -3.434683 
-11.849566 17.764206 8.596313 
5.333681 23.786236 4.248138 
-19.178268 14.000192 10.127431 
-23.527372 6.622039 4.190129 
-27.484997 8.170399 10.353169 
-16.762098 15.394847 11.398034 
-20.662724 6.230531 7.384994 
3.340533 21.655865 -8.687127 
15.669207 25.842810 -4.795889 
-17.588827 8.138492 8.801869 
-5.686066 29.053270 -5.907810 
-13.281056 23.307846 -4.574950 
-7.382026 21.046333 12.324572 
-9.912852 26.848839 -7.211082 
-14.419138 23.183271 -8.564816 
0.087568 21.598989 7.096908 
17.672577 -8.383495 10.620755 
-13.240458 24.816744 -0.451176 
1.110918 23.140200 11.998849 
-15.327265 20.062191 0.219415 
22.989771 5.851199 4.279082 
20.857952 1.409871 -4.181629 
14.718974 4.362563 9.060756 
-18.340256 -0.667610 3.289909 
11.709641 21.603884 13.262127 
-13.910792 21.954782 10.330332 
26.642309 -7.675978 4.358071 
-21.403055 0.993188 9.880466 
-15.571658 14.347772 -4.727877 
-25.883820 -4.225309 9.246696 
-14.304053 14.615285 9.876884 
-27.594687 -4.293811 6.245078 
-18.761768 19.248737 -3.385433 
12.182508 19.521257 6.635469 
-9.904890 24.041679 14.815057 
5.061758 24.849396 11.125300 
8.770713 21.618938 11.387145 
-16.390879 18.502607 11.803565 
-17.900980 19.534208 -0.826526 
18.230726 5.670182 3.484266 
-20.567600 12.678060 9.465779 
-20.082205 18.784924 3.012448 
28.930540 -7.614039 -0.701450 
20.091906 2.869826 6.887957 
17.468588 -0.259663 -2.482684 
-5.416414 20.825615 8.278955 
-8.003964 27.649605 -1.917389 
27.139862 -15.255757 -0.507880 
20.693371 -3.542722 2.412195 
-27.065670 2.513331 1.821642 
-20.682262 7.316701 -1.275694 
22.852610 -0.331613 8.869558 
27.694445 -5.651106 4.356511 
3.162508 23.939137 11.801889 
-30.669117 -7.206351 10.742905 
21.868540 5.378734 8.257176 
-23.287003 3.037581 10.921646 
-3.412965 21.585629 8.466602 
16.999922 12.956739 4.543325 
-3.340878 25.211338 -0.073599 
6.581611 29.176594 0.760999 
10.331946 10.648616 12.072968 
-32.827560 -7.201957 9.299503 
27.259995 -3.075496 0.343256 
-23.467524 -11.261299 0.313235 
-20.218344 -4.130374 -6.479599 
27.952524 -5.803556 -0.569417 
-18.952101 -0.174641 3.443823 
9.770667 28.920441 -5.436784 
-8.408073 24.326538 14.938885 
4.958612 22.170656 7.459446 
-28.854719 -4.592138 5.095397 
-29.434191 0.009221 -6.776935 
18.295835 -7.950308 8.989706 
-13.630968 22.147196 5.205612 
22.610962 -5.076657 5.475418 
-26.868748 3.255751 1.208404 
16.551498 21.077856 4.381060 
16.839191 9.139928 10.301035 
-20.556448 2.247173 9.899072 
-4.620989 28.121752 4.593976 
26.079884 3.028557 -8.354557 
27.039650 -0.685861 -0.931531 
28.329662 -16.537439 -0.831237 
13.290939 26.916681 -2.244235 
-16.874626 14.771263 6.016962 
-25.927479 -4.789401 -2.522000 
-13.796268 18.260599 2.194910 
-16.383799 16.877028 4.199406 
27.368156 -14.403792 -0.811508 
-23.508148 -8.121788 6.977131 
-21.484915 7.038756 2.015209 
6.731493 17.833517 8.607245 
1.058457 29.617142 3.466318 
23.659180 -15.422984 9.483603 
18.088329 8.233613 10.683250 
-12.629963 19.957266 12.185741 
-21.699856 -8.932734 -2.864553 
-20.569597 19.300802 6.287617 
22.696032 -10.813812 9.881314 
25.422579 -11.030315 -2.697108 
12.066982 23.578743 -0.733862 
25.025011 7.058134 -8.817068 
27.771008 -8.951070 5.521293 
-4.540560 21.980043 12.936909 
24.371399 -11.173566 8.439084 
-9.948878 24.353100 13.880055 
-23.156706 -8.570354 -1.818223 
-14.604122 9.054409 -2.076589 
14.397203 23.597387 -4.742660 
-15.573652 22.158882 -8.200019 
-10.878969 20.269053 7.959729 
6.128888 20.444521 10.634177 
22.509581 -9.758168 2.912709 
5.238345 24.469198 -1.653544 
17.349264 0.427992 8.737290 
15.227265 10.106258 -3.831947 
14.261345 11.703945 8.351392 
-29.565781 3.169473 9.594033 
16.733074 18.092476 -0.409847 
17.831347 9.264242 0.456899 
24.960308 -0.659720 -0.274838 
-13.698443 20.904995 0.686388 
1.004865 23.806725 11.359676 
-14.554394 18.885017 8.167511 
-24.536093 7.938700 -2.201739 
-24.079424 -9.822311 4.617037 
-11.180539 26.148611 -2.864920 
20.160259 -0.850921 6.637053 
-18.388037 11.167439 8.362164 
-30.561153 -2.454378 -2.611065 
-13.037700 22.882980 4.349044 
-13.297826 18.854729 1.645133 
6.560574 24.195585 4.593100 
-5.162417 24.734068 12.581253 
-20.960707 17.599579 6.589185 
7.503003 25.395172 -3.069566 
27.591570 -2.161982 13.413064 
12.615617 11.611174 8.506046 
-29.656673 0.897987 7.171647 
-19.110857 4.525102 -0.542048 
-18.754721 10.787751 10.101037 
-22.754574 5.333381 7.008491 
-11.873381 13.255612 -4.422857 
19.613770 16.980461 -4.410572 
-11.269218 21.301826 12.550299 
-15.248761 6.739543 -7.898118 
-21.625721 17.750532 11.219068 
-24.681126 -3.136834 2.993861 
15.547729 9.544431 3.249464 
-27.576920 -11.525438 5.467275 
-18.873775 1.827745 -3.523302 
3.143268 28.086128 -0.705606 
-9.949115 26.156637 -0.797406 
-31.616211 -6.773343 1.696607 
-27.934423 -8.211432 -2.449388 
21.218697 2.613373 -0.170612 
3.876697 23.262793 -4.245591 
-2.948804 19.318939 9.642752 
-15.207360 11.651585 9.254449 
14.293747 12.501460 4.971471 
14.585841 19.504694 13.837527 
-25.168556 12.412963 10.205619 
25.301374 -12.409625 7.689602 
3.370589 17.485062 9.680108 
20.355240 -3.410743 10.167645 
-0.309075 16.995197 12.427959 
-24.552343 12.899245 15.131680 
15.267246 24.602636 2.346521 
18.779963 13.516698 -1.904874 
17.474092 -5.494714 9.933400 
18.529997 21.540432 -10.420226 
21.635120 4.389987 -3.276174 
22.893463 5.792127 1.370235 
24.927977 -1.520630 3.968389 
-6.007442 28.569973 -1.169982 
13.454201 12.380365 -7.909861 
2.729960 20.589855 7.927436 
-12.036069 24.446257 11.185369 
20.601944 10.485526 10.545835 
15.769941 15.199450 0.749290 
-31.423370 -1.412434 8.033199 
-13.924332 23.736147 -2.685688 
18.776438 5.445608 -4.653952 
-22.269768 8.450299 4.033961 
-3.030728 21.984919 9.058414 
-24.329960 0.594042 -0.763994 
-7.481512 18.197042 10.350020 
-29.005693 -2.939397 0.828101 
-11.030571 24.702009 4.384077 
23.240280 -14.630159 4.693180 
29.718540 -8.921705 -1.730630 
-22.344645 -6.996011 4.211024 
1.029643 29.881807 -1.007032 
1.124086 15.704782 15.028976 
23.845688 -11.597956 4.932526 
-16.358908 13.066470 8.577127 
17.250586 6.805007 2.707383 
22.382954 6.105844 5.717672 
25.263708 -8.710626 -2.548911 
-19.750380 -4.104197 -4.165341 
18.225443 -4.829059 8.599319 
-21.418741 11.494126 3.259156 
-6.910490 26.949450 -5.078959 
8.466391 25.358788 2.156072 
-9.323534 14.800014 13.902867 
-7.746885 19.999702 8.534739 
-10.180201 23.499548 9.549072 
29.745499 -10.516862 0.991335 
-15.464513 6.179506 -3.566506 
-0.196317 19.091450 8.888474 
-13.761194 17.470247 1.938786 
-13.295942 14.325151 1.071605 
25.566246 1.159814 5.649532 
-8.575370 17.703203 -4.848108 
23.551554 -7.754494 3.441836 
-20.304945 19.774637 8.723525 
12.016812 14.499621 -9.429378 
-24.126448 -3.480633 2.189643 
-18.278364 11.967337 -4.743104 
-10.998011 14.071939 -6.419620 
4.288127 26.870811 6.144463 
-9.158611 26.141979 8.280271 
24.617239 4.823867 7.750639 
4.756319 24.222073 13.824105 
20.690952 9.509243 -3.820298 
25.647184 -13.130038 6.342324 
13.523886 24.366682 -3.526944 
-3.115727 25.762024 -2.807226 
-11.822828 19.888584 -3.143125 
-22.009212 -6.359425 11.004548 
19.464937 -11.311687 -6.481876 
18.668322 16.710073 -4.523133 
20.341373 -10.977381 6.006579 
-3.995881 27.888735 -3.180755 
24.445665 -9.009447 5.277703 
-22.475416 6.120403 9.135582 
20.108076 -0.978035 -4.622888 
8.431782 19.763412 11.418739 
-24.471552 -2.441035 -3.100003 
16.202871 13.776799 -4.918493 
23.184160 -9.217283 7.642472 
-7.330153 27.133726 3.145869 
10.490948 16.283007 6.913787 
-17.500042 9.744653 4.162228 
-15.958125 19.354565 10.438725 
-21.558712 0.539952 6.025978 
-16.367178 21.548309 14.568119 
-25.395998 -5.754291 4.008843 
26.607674 2.244640 -3.938952 
11.766356 20.804161 7.853960 
-9.840518 19.264914 -1.934224 
17.661833 -2.676749 8.103717 
15.117254 12.145190 9.569394 
14.217611 4.858849 9.479009 
22.263216 8.788370 -1.043295 
26.570784 -7.289124 0.332179 
7.135055 27.158390 1.758290 
17.534916 17.395771 3.694695 
-19.114159 18.038557 10.176123 
-19.017981 20.185444 9.864590 
-11.244105 25.020212 -2.539694 
-0.487221 24.127987 9.192528 
-20.774345 3.770035 10.008544 
-32.082043 -7.651267 -0.096261 
12.988630 16.387835 4.205184 
-24.044371 -12.211039 -3.325127 
17.332359 14.492999 9.138620 
20.873823 4.271500 2.026467 
19.903240 -4.335142 6.889721 
13.031381 24.214067 4.431741 
-24.319445 9.431733 -3.594886 
25.425905 6.804239 -5.097155 
-23.052700 -10.223713 -0.029074 
22.005430 10.336374 14.388972 
-22.625494 -8.538236 -0.434043 
27.703125 -2.519469 10.660766 
-12.651544 12.968047 11.704083 
24.538868 -6.832488 4.846900 
23.425169 -4.216804 -0.169450 
17.648684 16.450949 7.854022 
-8.040675 24.455551 1.608586 
-28.410116 3.773388 4.280444 
-12.182459 25.032448 2.953406 
22.056160 -5.782498 -0.282213 
-23.182837 -11.409578 3.370374 
-16.697994 13.774343 -1.313042 
20.470989 -10.568918 9.274913 
9.549490 26.817530 -5.108797 
11.373405 19.994310 8.185950 
-20.806993 18.343630 14.575871 
23.729267 -11.832483 6.847467 
-15.768157 22.300417 11.985252 
-30.664137 -4.976907 4.333631 
-22.381540 13.578472 3.205947 
25.044502 2.482587 -1.940794 
-22.310144 -2.023443 8.525987 
-22.503532 -6.277461 6.988128 
8.680811 22.627447 -3.227939 
16.511135 15.908454 -1.755843 
20.914085 1.394940 10.361423 
-20.987650 1.100804 5.548098 
-26.765450 -7.789922 4.025490 
-20.198080 18.893211 14.706613 
-20.657785 19.355639 8.076544 
-17.138704 20.383013 -8.083211 
15.693871 1.023004 13.786903 
-28.745848 -8.939586 6.776108 
-21.387320 -4.237207 0.647147 
-21.094080 0.693056 7.287211 
20.755621 4.938737 3.828433 
-21.602936 9.188883 10.792154 
-9.937132 25.507212 3.600182 
1.144564 27.035507 -4.419944 
-22.296942 13.593162 -4.409861 
25.373112 -0.006866 2.119244 
11.731308 21.460939 -4.375609 
20.808783 9.070162 3.268061 
-3.252807 28.099865 2.389220 
11.552525 26.318432 -3.457734 
26.031588 -10.219863 6.514376 
6.068312 23.576258 7.112710 
19.123465 -6.500408 -0.528712 
-24.633820 -5.486524 3.109113 
-12.673111 20.768356 3.717702 
-18.834911 1.157312 2.389908 
14.139898 26.593327 -3.154330 
21.133675 12.065117 -1.181234 
-23.965357 -3.980433 2.935013 
2.677445 21.054070 6.950221 
6.701431 27.948238 -0.212487 
27.105501 -14.633123 5.539930 
24.436081 -1.269364 9.229183 
1.397430 20.639513 7.232726 
15.327807 25.242847 0.126620 
-13.979932 22.756445 0.032471 
18.974049 -9.693060 -2.969330 
-21.944284 11.865608 2.157583 
-20.317379 19.853552 6.922528 
-25.017481 -2.206401 5.114130 
-14.979354 21.538033 9.424415 
-24.658440 7.400756 4.021681 
-21.191055 -2.843202 10.732367 
-26.562119 9.919489 13.577456 
27.451164 -5.814472 0.169393 
17.845627 -7.261997 7.092974 
17.556707 20.860779 1.214677 
-1.889199 26.716450 0.573638 
19.424557 -13.930289 2.700480 
19.449341 4.307273 9.406237 
21.243004 -8.974858 10.340130 
-20.500607 16.150961 -3.846487 
26.213806 -1.795827 4.806406 
8.105608 23.870153 10.759202 
5.470241 23.159002 4.802595 
-20.263428 7.432944 -3.549400 
24.078360 -18.274708 -2.450250 
2.539810 28.226976 5.181878 
-21.756611 7.878261 3.833261 
28.587667 -6.829517 6.669297 
-15.948284 5.047774 -6.310828 
19.305712 12.370465 -4.885654 
-16.921877 15.401935 -1.430503 
-22.930725 2.111977 -4.512364 
-1.740347 28.861101 -1.214881 
-8.856316 23.453297 11.508245 
-12.838056 11.355401 -5.490868 
-7.909416 28.195770 3.865686 
-3.543445 23.432722 -3.489978 
0.871403 30.337107 -1.628737 
-22.243393 9.393065 -0.400360 
-14.567002 23.184122 4.345966 
18.416298 23.497875 -4.769428 
14.713217 8.869383 5.215580 
-25.155010 -12.418258 13.297219 
17.266577 17.671585 10.145071 
-1.281844 29.436989 -4.486846 
20.839466 -4.594650 3.863069 
-13.666190 23.335974 12.832106 
-27.062632 -1.251890 11.595845 
-26.112587 -2.842871 3.894908 
17.019213 10.918957 9.101786 
3.192644 28.719503 -2.748369 
-29.618095 -8.297463 8.773974 
-31.614979 -1.409167 10.394560 
12.868743 24.391253 -0.608306 
19.163305 -11.187722 -4.606963 
22.537786 -12.399027 3.573314 
6.258645 23.680632 5.165605 
-25.488869 0.954202 9.458623 
-17.651539 21.119318 12.436727 
26.121958 -4.663530 -1.218362 
21.582056 17.335512 -2.411038 
-17.630136 0.555483 -1.721810 
-11.297917 17.448027 -1.546564 
-2.709875 26.380451 3.198536 
-27.151739 -9.647910 4.194513 
-10.729905 25.451817 3.104900 
-28.700218 -7.216781 6.249141 
26.855293 -1.396474 -1.189427 
-4.588782 23.670647 10.500897 
-25.875372 -4.363616 -1.760949 
-18.284948 19.597181 -6.177668 
16.365927 12.481256 4.856988 
18.785976 -6.881433 4.311850 
-13.469857 11.974170 11.659381 
18.905621 -5.017048 -3.446094 
-19.813751 -2.163130 -1.621897 
-22.920008 5.465535 10.463089 
23.778330 2.984963 2.718396 
-19.012892 7.217706 3.857358 
14.730733 12.768774 -3.705276 
5.260880 24.527670 9.500897 
-11.521681 26.113708 5.560338 
-12.367131 18.800537 11.102124 
-5.229034 26.692448 5.122301 
-29.144039 -0.688893 -1.073266 
-22.382673 -5.131363 2.095047 
-26.025244 9.346360 7.610449 
23.107878 -8.205903 10.996409 
25.826931 4.910928 -6.946282 
17.224026 8.466643 7.803803 
4.892988 22.368500 11.662935 
-14.339602 22.706249 14.189974 
-14.809743 23.037848 9.044994 
11.760322 12.374109 6.904640 
-28.439825 -7.536353 -2.339646 
17.526434 6.449394 1.868777 
28.329288 -14.797390 4.166654 
-5.026735 23.211294 -4.072219 
-5.989160 26.864479 4.734342 
28.008814 -11.873807 4.909319 
-11.372812 16.002495 -2.253276 
-3.032770 24.000494 6.356061 
-29.388502 -4.134135 -1.381454 
17.545671 -5.087529 -0.139905 
1.630705 28.258850 -0.888655 
22.762463 15.641544 -1.251972 
5.406819 25.793259 -0.649147 
-14.305027 13.959913 9.377023 
-24.446377 -9.229208 9.192989 
15.803233 7.437976 -3.089750 
-28.507359 3.021587 5.185401 
-16.825571 6.138744 -0.763580 
-31.972538 -6.070747 8.589689 
-27.856861 3.022432 -7.174524 
4.720841 27.078833 5.233870 
-15.054127 6.880856 -5.645798 
-23.716438 -8.276251 4.111205 
-30.067888 -8.138128 6.846804 
18.892286 12.097634 1.757695 
-20.460539 -1.559862 -4.127521 
20.564903 4.641137 -0.206308 
16.910582 0.218540 -3.581259 
-19.056007 20.108149 13.736546 
-28.487066 -3.731226 4.382794 
25.018732 -3.745242 0.530452 
26.041656 4.127027 -6.727903 
-10.223393 23.100702 6.267963 
1.337839 28.419636 5.495112 
-24.195360 9.948922 2.931795 
-6.982886 25.416334 5.547229 
3.629050 18.963497 9.111871 
15.680442 1.389193 9.998056 
-5.609553 27.682882 -2.645974 
3.209406 25.779579 -3.166191 
22.603220 -10.817277 2.725925 
17.680635 -0.496840 1.878591 
-25.726946 1.917613 7.722603 
-25.007708 -6.997298 4.843783 
-31.740427 -7.274345 2.440087 
-27.944633 -9.087583 9.772142 
23.777145 -16.031630 10.281286 
24.745489 8.889771 -2.849831 
-31.431694 0.317944 14.298678 
-28.101435 -9.216287 8.989103 
-20.234680 17.982704 11.853447 
-16.356838 18.971468 8.662745 
-12.110720 25.380993 4.032481 
21.270075 12.158624 11.726847 
-20.618881 15.485241 -2.778687 
-27.045860 4.022891 -0.073700 
0.267650 25.649155 10.018976 
21.458469 17.951433 -8.472755 
-25.047535 -1.773795 8.323170 
-26.390579 1.467490 -3.119630 
18.555445 17.422045 -1.820460 
-9.300457 24.388638 7.976659 
-30.444263 -3.701964 0.411320 
16.336340 12.628046 -3.618438 
20.950991 -9.860814 9.860415 
-29.525988 0.385490 -4.371660 
19.320759 -1.636751 1.792207 
30.127827 -12.921750 1.677129 
26.658892 0.478212 11.644773 
-28.424812 -9.717139 5.475719 
20.372246 3.673180 0.719382 
19.733234 20.059341 -10.268058 
17.558332 11.073967 -0.161256 
20.523201 -14.309546 -0.809194 
23.050167 -1.872487 -3.978591 
-10.719173 22.010410 12.408560 
-9.039335 24.787951 10.095332 
23.365799 1.880622 3.696398 
12.199593 19.026062 -3.986526 
21.173819 5.059567 -3.980899 
19.476099 13.641127 -5.335060 
25.778204 2.931265 11.507812 
-28.516390 6.334020 10.167051 
-25.091646 8.494390 -5.251650 
5.298421 21.971161 6.095327 
-14.919874 8.220768 -2.298063 
21.002581 -12.110110 3.157456 
18.143774 -9.789383 8.249985 
-17.732645 0.665215 0.396891 
24.050592 7.352818 -2.225057 
6.026887 23.117008 5.597907 
-26.552746 -3.489733 -0.423445 
18.660112 11.476313 -3.158554 
15.734004 2.204088 8.789719 
-27.787525 -13.561996 -5.177561 
-30.715704 -5.957887 9.192149 
18.885895 -4.382373 -4.142476 
-4.380420 21.167818 8.169802 
6.348612 23.460775 6.197470 
-22.238382 9.925885 2.549678 
18.394829 -7.505900 5.541335 
-24.525007 -10.744923 9.178110 
-13.384433 21.184441 9.806881 
20.142464 10.376961 -1.666693 
20.047026 13.250999 3.704093 
-23.639923 9.615682 3.462100 
20.441038 19.041292 -2.516128 
24.602617 -14.999442 5.938481 
-18.845860 9.064988 7.873266 
-19.619810 14.741219 7.331404 
-29.989885 3.294928 13.293733 
23.073196 5.555593 7.538374 
-27.589626 -2.651034 12.053024 
16.187950 19.430351 -2.709179 
16.887985 20.168097 -2.830481 
14.690172 19.612803 8.913732 
-18.415665 16.576071 1.985714 
-26.033997 -0.753756 -2.968081 
-29.605139 -9.186393 8.249693 
17.907728 16.697426 12.978722 
-17.099672 21.546440 5.839879 
-0.626442 30.186119 -0.103152 
-22.849056 -6.206925 4.341930 
-0.232127 18.566532 9.570566 
-30.282558 -4.665709 2.803520 
13.266100 9.781157 8.039922 
20.796078 1.155513 3.813368 
-20.539341 16.796415 3.479245 
10.882956 13.278618 7.569321 
16.656811 17.766111 8.938579 
17.799929 14.243877 3.736319 
-26.794661 9.258783 10.030799 
-30.494946 -8.957876 1.270690 
23.283875 -15.520606 5.080733 
-20.252283 -4.867517 -1.874068 
-30.649557 -6.192941 3.985264 
-3.219298 24.286221 -3.481858 
-7.884026 24.047436 0.950988 
-18.966990 12.405889 5.239138 
-21.507017 14.667380 -5.934908 
21.840717 14.067114 2.122618 
-5.008666 25.463886 12.796080 
-24.774231 5.871026 10.599428 
-17.564125 15.002324 5.428751 
-5.525081 22.409473 9.780409 
9.150986 24.260296 -4.777410 
-22.677078 6.703332 -0.622028 
9.373978 22.241455 -1.728125 
-20.692169 18.772722 5.704294 
-21.830765 11.180314 -4.181088 
-21.563631 3.791566 10.418590 
13.979611 11.214240 -7.801729 
8.432245 26.123331 5.080502 
-27.221134 1.733666 7.423317 
-14.014881 22.714087 0.856972 
-14.564840 15.618065 7.192198 
21.430967 18.524355 -3.800371 
17.817381 6.676766 10.247520 
-18.607687 -2.061926 -2.610833 
21.558235 -11.798481 5.570434 
-1.837087 22.220268 -5.494468 
-6.182764 20.971674 8.228687 
-25.335779 0.393558 10.413499 
-0.942738 23.585365 6.490498 
-17.351603 4.217060 2.466837 
-19.074230 6.569785 2.396000 
-20.925009 -2.225555 11.627364 
21.341463 15.492440 -2.537208 
-19.087626 11.908094 8.599860 
10.272590 18.765940 5.968241 
16.217739 19.028341 -0.360095 
-26.800520 -8.211029 4.692876 
-21.784021 10.601871 8.617759 
-26.684509 2.660611 10.277146 
-21.011570 8.588962 10.639770 
-3.007594 26.320124 9.301529 
-7.130636 22.729700 7.212387 
10.388312 25.758902 -1.857939 
-24.245502 13.998329 10.545159 
-1.888741 26.602983 -4.177089 
-32.175148 -11.275062 1.303212 
7.866385 19.014017 7.691105 
1.533364 27.460897 5.519738 
-23.278120 8.415424 10.189363 
9.702877 27.570358 -1.886725 
-12.223228 24.292110 10.297112 
-23.660006 2.852487 8.301493 
7.001441 24.027702 6.412654 
-4.626070 25.106165 12.025071 
17.662216 -6.751241 12.055717 
-8.303012 22.789978 1.609996 
17.994827 11.619204 -0.925472 
0.053075 25.894655 4.389684 
-20.884609 -3.112773 -0.546278 
4.095257 29.799252 2.554132 
19.572298 3.434443 0.438800 
23.314732 13.962362 -1.951589 
-25.332455 -2.884135 3.503479 
22.341879 0.286101 -4.095381 
-25.927923 -8.309514 3.243819 
23.520628 -11.677795 7.892754 
-16.228914 7.571347 14.644666 
9.928400 21.834347 15.369663 
-29.148664 -8.089333 11.352942 
-19.291521 15.511728 3.361970 
-7.685890 25.563263 0.835834 
-15.916901 7.783416 -0.847939 
-15.271556 23.430660 6.437259 
17.144640 13.961032 -5.249312 
6.866011 24.425358 8.142855 
27.803093 -7.832028 1.558481 
5.977286 21.806501 7.657908 
12.552556 17.535456 -3.216004 
18.188400 -4.670304 -7.254275 
-20.599947 15.017851 5.267973 
18.840137 19.448469 -1.177832 
-8.604011 23.051056 2.374319 
-30.408270 -11.197817 9.824551 
-23.379858 -10.951193 -4.649405 
6.134817 21.073355 -7.174432 
-8.391909 25.774630 4.635536 
-18.978132 -1.490426 -1.120048 
26.493187 -9.911508 5.895264 
-13.750190 11.312499 12.383272 
20.414160 -5.045784 10.510960 
0.621579 22.012430 6.770676 
1.613509 27.166040 1.289609 
-4.156096 23.654337 -1.811940 
-5.101612 25.260328 13.562156 
12.382531 20.947916 14.083076 
13.695130 20.987965 4.839132 
-6.294901 28.944086 -5.447731 
11.151463 16.682028 6.631859 
28.272318 -8.454010 5.835838 
-7.180017 24.071703 11.397579 
-13.941824 22.127594 -0.523525 
25.960148 -0.453688 1.625183 
-3.548125 21.021620 9.312223 
19.958176 11.814830 3.646713 
8.620378 20.710983 5.965525 
15.997719 5.563214 -3.375120 
-24.252184 6.478122 3.788619 
-23.782036 4.132521 -4.050720 
16.798498 0.526572 -5.622440 
-18.371399 20.932039 3.751754 
-31.794571 -5.518532 11.256063 
18.592855 8.903979 1.945937 
-14.474307 16.602175 6.934115 
-24.888975 12.699387 5.934407 
-17.078228 11.205593 7.439365 
-26.254557 -1.738884 2.408456 
-2.565516 27.262503 7.127730 
25.308683 -10.343295 10.184362 
22.083042 10.554381 2.584044 
6.503058 25.373377 5.939524 
-22.196556 -5.361013 12.891752 
-8.960341 21.858389 11.869433 
-22.805622 -6.309122 13.713542 
17.674072 1.001897 9.087704 
25.603926 -16.340286 2.976138 
-29.347868 -13.264303 2.114903 
-16.555269 6.922348 -0.740138 
-20.450371 17.058611 11.687969 
-30.459866 -6.192062 11.628503 
18.083643 12.537595 1.485495 
27.840393 -15.401490 4.242260 
-25.786837 1.203348 5.006909 
26.550337 -0.172023 9.977102 
10.527351 19.811623 -2.909325 
12.920665 22.756380 -1.445829 
-27.767693 2.250376 7.141119 
-10.556737 25.915531 5.871947 
7.423503 21.753992 8.220144 
11.981530 21.437922 7.472486 
-31.366308 -0.918381 9.412121 
-1.894638 28.135443 -10.768375 
16.063988 19.097401 6.124039 
-20.832449 18.404673 6.445775 
-14.978517 22.204681 14.798295 
7.053184 26.100834 1.687109 
-4.968023 25.953167 10.638779 
5.029506 23.583414 -2.825824 
-26.953846 -10.088327 -2.253331 
-5.545911 21.981091 -2.661617 
17.876579 10.163757 10.434929 
-26.854753 1.191390 3.133770 
8.735815 24.410254 7.008861 
11.026403 28.000229 -0.896090 
1.431691 22.472965 6.612335 
21.829037 8.364781 9.551575 
15.629223 13.655187 3.752625 
26.287584 -15.086392 -1.190555 
-19.986061 19.767214 9.530745 
-11.101373 25.060188 -4.718778 
13.835207 19.996485 4.375700 
16.694853 10.256308 -1.134206 
-10.595330 24.674330 5.294781 
17.970984 -0.174084 8.913661 
-9.563387 16.102243 -6.103661 
27.593285 -1.861068 -6.394099 
-13.262622 18.735250 9.399353 
23.362293 9.384873 -0.122264 
-23.257984 11.676174 -6.389019 
19.231668 8.055208 8.317555 
16.760696 24.119373 0.848013 
-12.361514 19.686932 0.488644 
7.117807 22.683649 -2.755124 
-13.358841 14.208540 -3.020799 
1.600628 26.215637 -0.525464 
16.312559 2.561172 7.198517 
-31.382956 -11.593424 1.323384 
20.298647 -3.012977 4.401281 
17.458214 9.227372 3.712793 
19.989353 -13.043444 -2.214447 
19.541605 21.567648 -7.282391 
-2.373218 22.171062 7.576035 
5.407885 23.829762 9.868283 
-21.629169 0.538627 2.403079 
-20.563562 -0.740086 14.091861 
-4.654862 27.190006 4.783576 
6.022099 22.770523 7.796766 
-16.388212 11.254677 -2.842194 
-30.186785 -10.489742 8.939004 
4.530874 25.094048 9.486135 
-17.527163 4.165401 0.060952 
-3.675064 24.689463 11.640574 
-0.542049 24.867165 -3.324877 
8.953764 29.058262 -1.494793 
-4.224277 20.326065 8.522721 
-2.698031 21.227009 -7.467533 
-11.802754 24.784960 9.230893 
26.375305 -10.092303 7.519003 
11.336319 24.233410 3.003595 
-7.908158 20.058966 9.412987 
24.872709 -18.509844 0.405361 
-23.474649 -6.612885 -1.681117 
-25.536865 2.677732 8.190034 
-21.901108 16.883091 9.780674 
-16.948320 2.606124 -4.727077 
-11.909563 20.635077 -4.550734 
12.007133 24.338816 0.477181 
-9.122403 23.137579 3.162723 
19.229643 11.289744 -1.782983 
12.871797 19.835728 -0.151567 
-3.026808 25.787189 -1.539034 
-9.396456 21.283985 8.237947 
-3.222067 25.976427 -3.954346 
3.202365 28.365370 5.510415 
17.640388 17.346329 4.440656 
-13.744951 24.932581 4.465965 
-19.377296 5.283937 -1.550457 
-24.597481 8.242746 4.592195 
-24.662285 9.089115 -6.679671 
9.421826 23.322790 10.573761 
10.254178 11.630503 9.696290 
-22.463121 16.513071 10.822499 
-30.014082 -0.754277 -5.261828 
-0.966315 25.954895 -0.620444 
19.703545 -13.528684 0.704339 
-27.193708 -6.188221 5.287779 
-2.485351 26.478436 8.290024 
-22.710218 3.629401 10.836635 
-22.072649 17.219574 12.241697 
-26.892225 -0.513063 1.942525 
22.744038 7.217850 6.034780 
21.154177 -9.566262 -1.986116 
-19.664171 1.980146 8.440796 
-3.286067 28.063332 3.291073 
3.688098 21.891863 -7.668443 
-13.704703 18.166586 -3.543560 
21.840033 10.962520 8.337203 
-18.107882 13.245861 -1.650749 
-3.345655 27.555130 -0.510447 
26.706043 -3.405861 -0.048980 
20.803263 5.405241 -0.915120 
-5.683876 27.693865 6.937571 
-10.693475 20.323706 0.483625 
-19.725809 7.649372 -4.337237 
-24.871006 -13.399963 -1.877131 
-31.262819 -6.722304 10.345923 
17.265987 1.672686 -1.184859 
12.861389 12.264657 6.156827 
-4.732805 25.437437 -2.814107 
-29.184870 0.978974 8.589512 
-1.856942 29.234627 -2.441588 
5.898600 30.320608 -3.043742 
-24.902042 -8.778406 3.907392 
-4.568287 20.764824 -5.760689 
24.098738 6.576936 10.062634 
-24.021492 -1.627656 4.199774 
-11.719838 19.547405 -1.803566 
29.262375 -13.655201 0.938879 
23.212641 -18.176508 2.611941 
27.784485 -15.840089 3.544266 
-5.091721 27.551659 -10.628124 
-31.662643 -11.844750 -1.982487 
-28.066236 5.161182 4.736839 
-21.819700 -4.367095 7.041733 
-27.193899 1.469306 5.929522 
-6.136168 27.264870 -10.570729 
-20.692759 12.151257 3.350499 
15.765842 22.059305 5.171336 
2.251639 20.655399 11.996519 
-20.959293 3.335402 3.848549 
19.675077 3.354530 1.572615 
-14.643625 19.375292 -2.726691 
-30.867367 -2.235945 11.434201 
27.468086 -13.854818 5.540396 
-7.683386 20.356823 11.334261 
-17.169920 20.877895 -5.710773 
21.326984 13.782598 3.046244 
16.472895 11.175228 6.700516 
14.567930 19.920990 11.574190 
12.092691 23.323627 -1.957550 
-17.246964 6.114489 11.082337 
19.362265 8.316271 -1.679283 
-24.581785 -1.126446 4.644821 
-10.627667 25.013748 10.499639 
28.664448 -5.904247 -2.594519 
19.119942 -3.460504 7.252895 
-12.689507 25.674980 -1.371145 
28.298512 -5.967068 4.688911 
24.694336 -8.835711 10.839523 
16.502213 0.064493 1.155557 
11.442491 16.757778 -6.057094 
6.186446 27.081688 3.057832 
2.470002 22.536585 12.690284 
9.039884 22.983652 -1.414045 
16.993223 24.412552 -3.843685 
6.570889 21.528978 7.234862 
