-19.888279 6.073269 -5.601539 
27.633320 -3.636933 2.399076 
-22.779942 1.964401 -12.601852 
-16.273815 3.558473 -14.737383 
-25.440508 2.641869 -10.750166 
24.283674 -4.967261 -14.565310 
-9.928437 30.253105 3.745857 
22.408134 11.289497 -19.408844 
-25.147171 -16.759697 -6.055461 
23.777792 11.057299 -4.467000 
-30.479151 -4.391358 -11.417396 
21.771969 -2.067118 -6.337573 
-18.222345 6.384056 -2.868016 
5.880715 22.736271 -17.437477 
-22.727905 9.475121 -6.640001 
-19.759960 15.248301 -7.390833 
-19.411669 19.770741 0.867969 
-29.757288 -10.198231 -8.308256 
14.966975 19.011814 -10.217981 
9.432227 22.087891 -15.006202 
29.092892 -2.132331 -2.080216 
-19.956793 -1.740125 -1.833250 
-17.936159 18.501854 -13.914382 
25.274302 -8.192196 2.081247 
20.782690 7.518067 -0.681542 
26.209726 -17.024443 -4.865229 
-9.720517 28.757887 -7.383512 
-16.884140 26.102135 1.073652 
6.387685 31.514339 -8.351407 
15.927655 24.944901 -1.210706 
10.188615 25.054832 -8.382782 
25.072199 5.422129 -13.524772 
-19.341404 7.161403 -4.279871 
-18.184034 -2.949883 -13.829147 
-28.908100 -14.403778 3.750926 
-29.572954 -3.266293 -9.497373 
4.360262 30.865234 -6.744203 
25.309868 -16.403076 -6.352218 
-3.912374 24.219681 -0.845783 
-19.555037 -9.540646 -15.335793 
27.851383 -1.458195 -12.830768 
-22.904949 -15.160645 -6.377044 
-12.079432 29.257637 -7.968246 
-7.533342 31.010952 4.028886 
-16.956404 1.319962 -16.324394 
29.316385 -7.218061 -2.359166 
11.241839 29.724949 -6.803725 
-19.208599 -6.495343 -10.654321 
0.243313 28.826866 -10.667933 
-21.507774 -17.686243 -9.225505 
2.603607 28.471821 -4.497657 
5.241603 31.414076 2.113439 
-13.822469 28.592793 1.827926 
22.809664 -4.739616 2.049484 
15.283957 17.187849 -11.399337 
22.615929 -0.035604 -3.055044 
-14.345344 16.637207 -13.240088 
20.272182 16.107533 -16.758507 
-10.218737 18.940819 5.069168 
-21.514465 12.370966 -6.387913 
16.867279 -1.769814 -15.953924 
-25.162914 15.777416 2.947999 
19.228510 5.384991 -10.450963 
25.461344 1.299232 -9.360873 
-7.140862 24.559437 -10.773156 
-20.815260 6.278125 -0.426065 
-20.104303 6.467718 -4.816555 
27.058821 -19.001930 -5.004343 
29.470478 -6.385019 -2.693889 
-18.706144 12.775255 -9.923026 
24.752357 4.919596 -10.558538 
27.716698 0.354419 -12.647080 
-24.084892 1.931163 -5.313351 
-0.827359 32.893276 -0.689781 
-29.144133 0.355357 -2.189331 
-28.721975 1.155972 -14.086956 
27.837929 1.567889 1.911362 
-16.564785 18.237177 -17.717329 
-21.654238 11.843186 -10.474025 
-16.950272 21.190533 -19.751640 
15.840182 18.239674 -10.761987 
-19.858047 19.661045 3.526341 
17.156891 8.259386 -1.957144 
22.148672 4.286800 -8.291547 
-30.236113 -17.390646 -9.594421 
-8.236822 32.631611 -3.462616 
-19.371017 15.711075 0.145392 
-1.719844 20.844894 -16.092451 
-18.427155 17.590458 -3.588925 
-29.529270 4.662405 2.837344 
27.870686 1.481306 4.154058 
23.093132 13.609600 -1.429040 
-29.084671 -1.064248 -12.295532 
21.790415 15.090324 -1.114581 
19.274317 -11.705759 -1.214814 
-4.811749 20.557234 -15.505621 
-31.533569 -4.414155 4.543931 
23.888086 -16.684273 -6.584721 
20.404755 17.415138 5.177454 
-7.960937 20.553076 5.042242 
-21.847155 5.722282 0.195258 
-14.143193 8.838834 -18.719568 
6.557591 23.727350 -1.880321 
-21.151085 17.533855 -13.872633 
-20.989494 16.119949 -9.434228 
-17.741762 15.908804 -9.609807 
25.198166 -10.831879 -4.805129 
-1.934337 32.876457 -4.234512 
-29.693468 -6.963536 -9.560155 
-11.533579 27.366339 -0.502345 
-15.963111 4.529435 -15.025165 
-15.173059 14.868960 -0.357354 
-16.928446 11.051839 -7.661268 
-24.725727 -17.801844 -3.859626 
22.253408 -15.411714 -9.173649 
24.770866 0.641407 -0.374723 
-12.335644 28.957029 -3.098740 
-14.091205 17.144978 -14.615541 
-23.878084 4.963948 0.780634 
-26.873877 4.759660 -14.049031 
18.720686 0.585601 -3.638361 
10.468086 21.751284 -15.543911 
-24.157848 6.818322 -6.298660 
-8.584398 21.425743 0.812709 
-11.086205 15.665913 -16.949062 
-17.138525 26.576435 -5.131122 
-25.506927 5.967288 -11.499228 
22.559349 -13.597598 -11.377685 
-22.077131 22.381262 -1.231638 
-30.178200 -20.559355 -0.231004 
19.393944 -13.514793 -1.933152 
-5.802574 31.412226 4.030624 
19.818682 5.089195 -12.790919 
-22.470472 -19.466421 -9.039872 
26.513338 -11.857299 2.046768 
12.456084 18.268076 1.195328 
24.537464 -9.454929 -6.902945 
-18.839039 -3.901472 -12.196825 
-22.642323 15.463795 -7.370324 
-13.140409 15.369514 5.134069 
-11.239042 30.093180 -1.207668 
-0.682412 34.389996 -8.555675 
25.294239 5.468408 -12.690800 
19.317122 11.272085 -9.119946 
-25.975203 13.994312 5.129463 
-10.553763 24.940762 -4.513408 
-2.321422 25.821869 -11.413488 
-1.468650 27.420387 -8.055100 
10.626852 23.923433 -4.063194 
-5.723990 27.899637 -13.494599 
15.216792 22.216747 -14.226169 
25.775351 -19.934677 -7.512828 
-21.923685 15.107530 -7.002711 
28.690208 -9.806604 -8.610069 
-31.651262 -12.690197 -3.481520 
27.565121 0.754326 -13.967384 
-21.688042 -8.826999 -12.452270 
13.586340 24.713104 -2.679235 
-10.710500 26.536018 -0.568503 
-5.622516 28.657967 0.869740 
27.729212 -19.313459 -8.340226 
5.156473 17.100868 -20.352741 
-21.536650 23.202713 -4.881873 
-17.672438 4.705047 5.338470 
-2.695077 27.435022 -8.376723 
-18.700024 2.421272 -12.039186 
-5.052775 25.498945 -13.052230 
0.527240 32.193420 1.171409 
15.542113 2.106376 1.434633 
3.452855 25.587311 -21.887224 
28.072369 -18.670330 -9.914375 
-2.560068 29.179642 -1.540174 
-25.379816 -10.316546 -3.598836 
4.773314 19.628393 -14.855630 
-26.953991 -7.941720 -4.518564 
-29.844032 0.036558 -2.862874 
2.404792 26.745245 -10.090540 
23.633228 -7.260229 -4.269916 
-30.752638 -6.680630 -0.103000 
-14.133413 16.590599 -16.780409 
12.024773 26.193748 0.068635 
-27.203245 -22.209167 -12.977407 
-18.658937 0.625725 5.418545 
-10.942851 26.801592 -3.729790 
-15.068627 12.496354 -10.750010 
-21.095125 6.328306 -8.938782 
-23.850254 -20.489386 3.179614 
7.495663 28.484219 -0.356507 
15.909215 21.861506 -11.172513 
-17.399387 25.372757 -6.784006 
-23.248945 13.108091 -8.265443 
25.580078 -7.090837 -4.018504 
-17.393515 9.483173 -6.396100 
31.242207 -20.977196 -11.452761 
-17.476189 4.353345 -14.279591 
-21.950233 6.709018 -12.973447 
-23.842216 -20.012432 5.823174 
15.127935 10.891924 -7.910945 
-22.832787 2.879619 -6.435653 
21.867292 9.642593 -1.852724 
-10.128388 29.170212 -1.485345 
16.687977 19.817644 -18.124023 
-19.914190 -1.229517 -8.106441 
-23.920767 -19.412399 2.449020 
23.418104 -17.257635 -11.459361 
24.650089 -18.209803 -2.252139 
-2.100819 32.220425 -5.955972 
-18.483219 1.469504 5.401910 
-29.153746 -13.130443 -10.320335 
-20.090918 5.163949 -7.356788 
15.793787 2.393118 -14.684060 
-16.552496 13.255374 -10.166776 
-14.072424 23.115225 0.066791 
-3.898057 23.050808 -15.512625 
27.756355 -16.285772 -10.603900 
19.716509 7.929739 -4.146481 
19.075285 -2.070352 -3.501375 
-20.447960 4.104025 -15.482247 
-11.744287 20.459160 -14.439532 
-7.683370 27.269613 -9.427327 
1.444441 21.865694 5.039447 
-17.342800 18.102911 -10.301064 
-5.644214 30.947796 -6.279301 
-28.419632 -2.874935 -12.927722 
-9.637699 17.800402 -15.954729 
27.723867 -2.357309 2.184202 
-18.972496 15.407422 -14.083073 
-25.518764 -14.511326 -4.784554 
22.388052 1.838669 -12.463749 
-28.497351 -0.231860 -5.133885 
22.462629 -10.107230 -8.441802 
-26.776993 -20.243729 3.273443 
14.623018 12.737758 -2.695025 
-24.488270 -3.117793 -4.827317 
19.329700 -1.340470 -1.173514 
16.891819 22.003328 5.075706 
-15.713397 5.415643 -14.871298 
-24.056063 -0.931412 -7.885124 
-5.951117 26.592211 -13.395511 
-18.429178 0.576024 3.809831 
29.616617 -21.169088 -7.943287 
15.345350 8.045204 -3.866827 
10.765252 21.442234 -13.787560 
25.194733 5.576321 -18.386711 
-20.554605 23.379084 -6.662715 
-23.902935 15.074976 -7.542165 
29.657869 -11.599243 0.318537 
-18.982035 6.542441 -9.837182 
22.336718 -15.557918 -11.536497 
17.488077 11.748008 -2.756736 
14.715669 6.213410 -14.974159 
3.129562 29.462177 0.980875 
29.345232 -11.447321 -2.435993 
-29.933083 -8.435223 -9.151726 
2.030685 28.407856 -17.592016 
16.090229 20.783226 -9.783248 
17.924915 18.520952 -17.913618 
-15.218347 18.866287 1.501847 
8.650731 21.063364 -15.615499 
-31.440660 -2.074530 2.684692 
17.796091 12.874029 -6.031671 
-16.728546 10.696061 -13.897911 
12.876764 11.929296 -1.556860 
27.575691 -6.367849 2.410263 
-23.761305 9.267628 -6.851354 
-16.274212 23.057203 -11.060925 
19.891638 6.507632 -9.885235 
-19.135841 -8.061801 -14.008024 
11.014609 25.204458 -1.166267 
-3.735417 24.976267 -14.271862 
-27.483227 -4.182760 -6.730249 
24.513119 1.901017 -1.005894 
-26.092527 -12.457363 -11.324131 
-24.271128 -19.641932 -7.605780 
11.600017 23.703499 -12.220460 
12.965997 22.041695 -20.320866 
-16.977659 6.151540 3.449791 
2.282348 25.771126 -21.912928 
28.868345 -3.605307 -9.080505 
28.521587 -0.651762 -12.783921 
20.596643 5.498162 -15.884489 
-9.342812 32.314930 -7.934463 
-28.725801 -20.950703 -9.549398 
-25.176287 15.777621 3.984888 
-22.278423 22.430128 -3.185341 
-5.973391 31.652723 -8.712337 
-25.159840 0.627240 -0.161736 
-9.922279 28.355740 -1.585380 
12.087193 23.838337 -2.658221 
20.551029 -16.947617 -8.936858 
-13.815775 29.074207 -7.037144 
2.593210 32.702133 1.931316 
-10.588507 14.908318 -18.718060 
-23.096716 8.772962 -8.222374 
-21.011524 12.553940 -13.359886 
-26.023876 -1.000384 -1.742117 
20.939289 11.021570 -14.023439 
-0.454380 26.115540 -12.294382 
17.033741 11.632404 -7.636751 
-2.015731 28.965193 -8.110236 
17.933611 23.159332 -3.822060 
24.391680 -2.810659 2.197771 
-24.417658 15.622175 -0.974659 
17.221392 -8.237468 4.152569 
-3.223905 31.141821 -6.947890 
29.007671 -12.205507 -3.651089 
-24.461920 7.565535 -9.318170 
-22.314363 -3.584515 -6.647368 
29.189667 -3.546276 -2.671227 
11.543339 21.407597 1.431015 
-26.470570 -2.305935 -4.533730 
29.027348 -2.907250 -0.295173 
22.497276 7.807093 -2.889868 
-23.207706 -0.214819 -8.470275 
-26.126272 -20.819853 4.622294 
20.947641 11.994693 -16.697247 
15.932467 24.603910 -5.098380 
20.250452 15.694292 -1.795796 
-20.077877 14.208070 -6.433658 
-20.835419 9.471926 -0.565074 
-25.376640 5.635770 -6.355654 
26.787439 -19.752125 0.074723 
18.722345 15.448056 -1.800881 
-11.282939 29.232901 4.858160 
13.180909 21.432764 -16.610735 
22.993568 8.816288 -10.916121 
-3.679349 20.181973 -16.752148 
-15.650313 23.818256 -0.417159 
21.764509 0.858364 -4.588519 
26.061037 7.087840 1.371512 
-24.520718 -10.717235 0.561648 
-26.908911 11.888897 5.169717 
-16.427361 19.240097 -15.199777 
-23.246168 18.565332 1.351739 
15.681896 14.372176 -15.845561 
-18.408005 5.673701 -12.884848 
-21.949509 22.660416 -2.111821 
-1.671690 33.702591 -2.794088 
10.535568 25.035877 -9.300888 
21.064125 12.915828 0.836444 
-27.436432 -21.431578 2.533013 
11.352021 21.574734 -1.498712 
21.391436 -16.523609 1.583971 
-6.575093 27.058411 0.112861 
21.399921 -19.116243 1.146304 
-8.174341 21.024548 -14.439226 
15.806319 23.440060 4.400959 
26.670780 -17.259775 0.222248 
-17.785135 21.551941 -13.152434 
-21.128939 8.749763 -9.423308 
-21.019323 14.793989 -14.643372 
-28.788866 0.381085 -10.399973 
-28.508211 -16.359493 -4.099534 
-12.960860 26.997677 -7.329534 
-9.951056 25.318378 -3.104779 
27.420126 -17.828880 -2.007139 
19.568430 -14.513442 -3.017699 
18.091825 -3.330236 -8.095320 
-24.426504 5.727454 -6.014824 
12.284981 27.374207 1.125466 
-27.145348 -21.334566 -8.472163 
14.356996 12.145281 -6.504965 
-15.522714 17.183489 -14.697845 
20.121334 -9.422049 -4.123203 
-17.105625 7.342181 -13.465774 
29.306244 -2.102264 2.268753 
26.766811 0.801320 -10.402149 
21.004503 -2.207004 -14.884304 
-26.658371 -2.474082 -14.011201 
21.839090 15.906058 3.219078 
25.140192 -7.346951 -9.491170 
-19.654766 4.834822 -15.726621 
8.704525 27.489771 1.267250 
9.293988 24.961189 -8.081298 
-16.367735 17.517664 -15.077099 
-24.733549 0.986949 -2.613585 
-11.072537 30.952679 -7.618469 
-20.433054 22.455677 2.522750 
10.809869 20.038593 0.698087 
-13.078944 25.649946 -1.163877 
-26.086782 -11.715278 2.106431 
-24.362635 -5.044177 -14.503764 
25.899645 1.025039 -3.505224 
12.022201 10.783548 -16.813795 
21.471403 -20.179472 -11.613344 
21.708101 -20.314852 -12.563862 
18.871021 6.902963 -10.379743 
-21.457674 -3.237484 -9.035732 
-5.992904 25.198982 -11.250340 
1.950720 22.234671 -14.272142 
-0.569931 27.488819 -19.352831 
17.104452 10.429308 -10.352265 
-25.267496 -8.844892 1.378352 
-3.142456 33.808224 -6.821684 
-1.478222 30.192366 -0.046172 
-30.062147 2.707464 2.619210 
-24.955973 2.455774 -5.208687 
-31.668816 -14.543409 -3.475610 
-22.341610 16.300047 -13.832191 
19.348690 16.277779 -10.856187 
22.833435 8.476237 -13.532408 
-21.686466 20.830200 2.879562 
-0.519993 33.133137 1.133596 
-25.021339 7.221471 -3.019183 
-1.282498 27.810844 -13.817752 
6.479623 30.848612 -2.190759 
22.051823 3.413558 -12.002424 
18.349077 -3.407938 -3.716479 
21.074726 -1.119658 -3.172415 
-17.289604 1.859389 -13.481777 
15.604773 4.755732 -2.025152 
23.259716 -0.056278 1.087760 
24.171753 10.949840 3.918672 
23.024014 -10.834599 0.117293 
-22.330631 15.739638 -17.637451 
26.921682 -9.082453 -3.648141 
29.617468 -4.335133 3.883627 
25.597464 -12.958855 -10.964690 
-18.459972 2.710530 -9.444876 
-14.018238 10.062593 -15.773924 
2.093607 23.762060 -0.217000 
19.028856 13.400925 -17.501242 
24.750818 7.821814 -13.182045 
30.571390 -13.797527 -5.972765 
18.109016 0.965087 -2.964435 
21.329813 12.818500 -16.694124 
13.458877 7.305395 -18.623672 
-31.816084 -12.674936 4.864922 
18.363930 8.224179 -1.641401 
30.716000 -15.960463 2.795996 
-6.741734 21.508406 -13.613196 
-0.441074 29.363844 -3.204212 
5.669332 25.588945 -3.799260 
-20.157661 17.406862 -4.448329 
-22.729170 18.278093 -4.558293 
-26.446669 5.762060 -13.298013 
-3.767819 20.701557 -15.789921 
8.218019 24.167866 -15.440634 
-24.586931 9.883847 -7.082718 
-18.105503 1.302430 1.322611 
-27.076763 -4.999461 2.113532 
-14.827842 24.924000 -5.677016 
-6.609640 33.418137 -5.494991 
-27.136675 -21.649019 -9.705716 
-16.464813 9.924384 -4.652482 
-7.426015 31.564060 -9.409923 
-20.248314 10.140454 -0.366398 
-8.905187 27.215454 -4.026386 
-28.480099 -4.369671 -4.087722 
8.332010 17.673838 5.141703 
-24.886299 -17.569956 -11.128212 
-23.484764 -11.345555 0.418774 
27.969275 -14.608711 3.176032 
-20.580322 5.889906 -4.286648 
-17.952650 18.629066 -12.447885 
-0.892889 31.152395 -5.649912 
27.319052 -10.152137 0.048210 
17.345524 22.949030 -7.541257 
17.864674 16.981451 -3.630956 
16.918686 -5.837899 0.506950 
17.690559 18.047318 0.267649 
23.767603 -7.751276 -7.245650 
28.608879 -15.955624 -1.823222 
26.330256 2.679279 -17.866562 
-19.994556 24.081095 -4.704671 
19.982555 -17.022913 0.322752 
-0.579562 26.937071 -11.161805 
21.719688 -9.531788 -7.913632 
19.717007 8.963082 -5.828082 
3.201236 30.269800 1.217472 
13.089757 28.397938 -5.923431 
-25.614470 8.345743 -4.698161 
24.354671 -3.265102 -7.641078 
-26.433270 -19.105167 -1.425006 
12.115868 28.067854 -8.116109 
15.047212 22.667624 -13.401613 
27.144482 -21.427139 0.774722 
1.564776 24.204245 -0.805042 
18.877811 -5.400725 -8.838704 
-28.876213 0.255398 -1.097007 
-11.448310 25.288166 -10.034039 
26.591076 0.140965 -13.113080 
-1.284968 25.942724 -16.510193 
27.287846 -18.512131 -3.377017 
-28.617323 -19.186205 -8.607874 
19.057030 -5.766632 0.149197 
25.070738 -17.897787 -6.675644 
-14.254980 23.430092 -2.246405 
-17.407335 8.197288 -3.876873 
7.863900 19.093336 -14.121801 
-29.081482 -15.149868 -2.970324 
-13.767998 21.724209 -2.820637 
-4.137795 33.932301 -8.534754 
21.822651 2.136017 0.491574 
19.416706 1.630677 -9.942032 
12.205669 28.966793 -6.525210 
23.900354 7.598857 -1.005599 
-11.281959 30.163290 -5.513425 
16.420351 19.692633 -15.188036 
20.132515 -13.346436 -8.523781 
-7.162299 26.322691 -8.077318 
23.784342 5.023432 -14.889168 
23.091352 14.010706 -3.945040 
19.942724 5.622938 -9.498976 
13.753213 17.626207 -17.709017 
-27.909624 -19.807156 3.946874 
19.208694 19.770863 2.614791 
-14.541793 22.106148 -21.133553 
-27.028152 -15.397049 3.895003 
21.640425 -21.259390 4.384247 
-18.498861 16.446878 -8.426564 
-16.839972 10.892472 -10.799081 
12.044976 18.418211 -12.540352 
15.386559 16.127743 -13.165066 
-18.196556 20.498760 -14.506758 
21.464546 -21.206560 -0.053138 
13.220264 21.614090 -9.577658 
-28.465385 -12.613570 -10.559811 
-25.020178 -6.333539 -6.581519 
-32.638783 -14.400406 -1.177680 
9.243984 21.441256 -1.780270 
-24.170250 -2.795034 -1.332543 
15.465560 18.430094 -17.809031 
25.296698 8.586086 2.792009 
-4.609950 34.038845 -6.505572 
28.526316 -2.929484 -15.753720 
-23.834560 4.460106 -8.606272 
-11.571475 29.763767 2.659241 
5.227553 24.547203 -10.713730 
22.994539 7.960482 -8.775041 
-31.894117 -16.206585 -1.862005 
20.859596 16.034288 -5.822962 
-6.247610 26.182346 -11.031179 
-27.769447 -15.230118 -1.704501 
-21.179876 -4.279559 -11.980827 
18.356741 -6.182062 -9.318727 
5.612120 20.410191 3.677217 
26.383799 6.221272 0.917672 
-28.293610 -0.972804 -12.902263 
-26.838665 1.531712 -5.236797 
27.581652 -16.876034 -1.858170 
25.414881 -16.489986 -1.625545 
24.376703 -2.641702 -4.190413 
-10.135509 26.167513 -2.554514 
28.613678 -18.703846 -6.806174 
18.975315 15.460021 -2.762295 
-16.726713 21.227978 2.704440 
-18.018156 10.793261 -15.134140 
14.674922 14.013826 -3.027167 
1.408250 31.914860 1.362426 
-4.887954 31.596981 3.944003 
10.800422 26.854786 0.011740 
19.853642 4.927437 -9.961260 
-16.637468 2.270112 -16.557056 
30.116240 -8.596514 5.728495 
16.602684 12.805977 -10.365541 
-20.026571 11.480015 -15.420509 
23.817253 3.769373 -14.556853 
3.133174 27.406548 -17.044113 
25.668850 -7.218957 -13.519338 
14.272607 21.086428 -20.401806 
8.094561 24.513685 -17.513771 
-9.091355 31.499527 1.038350 
17.846214 -3.137762 -11.217406 
21.865250 6.295122 -5.601380 
-18.066010 20.818972 -17.841776 
-29.818295 -8.585666 -4.604933 
-15.290517 16.211790 -11.139249 
-32.251637 -14.094845 2.196980 
-0.450077 31.461098 -1.906623 
-20.667610 -1.505802 -0.907912 
28.716545 -2.779892 -9.242339 
18.632681 6.681219 -2.604637 
-7.154088 25.282766 -13.915926 
11.973194 16.047619 -1.055088 
16.239740 21.290934 -11.802282 
25.538887 -9.086329 -12.637250 
-23.481337 -5.262391 -10.932148 
-2.425520 31.830139 -7.726225 
-19.663006 -8.335033 -0.192480 
17.916882 8.537727 -0.246842 
22.273500 5.743795 0.811476 
16.207056 19.978380 2.810175 
-8.351276 27.165043 0.011814 
24.465906 1.616418 -10.860909 
25.804184 6.209417 -1.756728 
-5.820171 25.084248 -12.187649 
-21.043884 16.428131 -10.337594 
-1.656996 29.226870 -4.090675 
-22.001663 16.665266 -13.058002 
-12.419163 22.933990 -15.197737 
18.449390 -0.266951 -12.085185 
18.963217 11.706067 0.838318 
22.852339 -9.590657 -12.579484 
17.564148 -10.667773 3.902752 
-29.150858 0.054857 -11.135879 
-17.140268 25.177288 -3.156343 
17.917440 17.075449 -2.511201 
10.342592 27.331182 -6.725398 
10.146914 24.740793 -13.282272 
-18.970449 -6.845724 -15.084474 
-22.421907 7.575095 -4.600269 
-22.466005 21.062595 0.522155 
-25.665022 -18.938395 -5.812140 
21.404657 4.095989 -4.535583 
-23.074879 6.005749 -6.176947 
-4.285143 33.547344 -2.179661 
-19.866976 1.483977 -2.156574 
-22.034971 22.253712 -6.333956 
-20.308912 -10.466021 0.331642 
-22.049725 -15.731903 1.570248 
-26.265326 6.336366 -17.229183 
23.646126 -2.815822 -14.758654 
-25.334900 0.562048 -3.070560 
-20.738014 0.748240 -12.972468 
29.528179 -3.264483 2.586330 
23.588608 7.900806 -5.734590 
-18.630880 -5.231622 -13.427690 
-23.090334 13.976211 -8.189595 
17.934437 15.189350 -1.902460 
-18.006199 20.938799 -12.608137 
29.183605 -20.344454 -5.679445 
-18.641964 24.466843 1.025477 
7.411127 21.192764 -0.754187 
-22.540602 13.911778 -11.860784 
-25.417099 -7.382329 1.804370 
-25.130373 5.195000 -11.207294 
-20.517223 -14.856891 -8.853963 
30.103773 -14.329191 -8.376578 
-5.403991 22.516731 2.010639 
-28.383032 3.635509 -5.893174 
-19.688929 12.151017 -13.147998 
-8.126796 27.884912 0.489074 
-17.504652 3.991061 -1.379924 
-18.768757 -1.569586 -12.209008 
-27.416412 10.610382 5.194313 
30.436735 -19.420662 -5.749517 
-27.793200 -9.755575 -1.462198 
-31.026714 -3.240286 -3.453375 
-2.793435 32.146229 -2.407213 
12.302284 14.458136 -13.732545 
3.631742 21.105347 5.060365 
-28.581228 -20.848120 -0.800389 
-3.099908 21.913292 -14.137594 
22.419558 4.007768 0.939079 
-30.185934 -1.753651 -12.092291 
-15.453431 27.407591 1.150547 
-21.994776 -17.457022 -8.332044 
22.472937 9.069263 -10.285764 
1.085551 28.864326 -7.804411 
28.671179 -1.017020 -1.553398 
17.911137 23.059826 -1.717249 
-8.101750 27.379751 -15.326585 
-25.044376 -9.441344 -4.634056 
20.333572 -13.592587 -9.419244 
-29.431316 2.494977 -0.276573 
-14.411632 15.258199 1.021809 
22.789724 2.641098 -2.305062 
17.831278 2.804559 -14.881536 
-15.475651 19.250746 -12.318174 
-27.325850 -9.608341 -5.469306 
16.930012 18.543018 -20.693665 
-27.381311 -21.057995 3.875640 
25.379141 7.966094 -0.916189 
-21.703596 12.502767 -14.370774 
-21.443619 4.136274 -15.378959 
-18.753307 11.182645 -16.358143 
21.239370 -10.310599 -4.280654 
-20.193781 15.702026 -2.758221 
-19.897251 9.923182 -7.362848 
-11.160177 21.907732 -15.437517 
19.946684 -7.082333 0.563065 
20.609209 4.362179 -15.824929 
-0.366715 28.533064 -9.336071 
-13.255924 15.129467 -14.409091 
-23.094990 -10.291768 -9.805231 
14.588979 22.812105 -14.496832 
27.223625 3.305645 4.161067 
-3.572540 19.187931 -19.145676 
29.469147 -5.137086 -1.209641 
-13.794433 23.904432 -13.148487 
13.239123 26.080662 0.774228 
-25.935253 -8.925857 -8.649083 
4.189577 25.118856 -16.097675 
-25.379141 -6.717484 -4.411234 
16.239414 23.457438 2.062555 
11.124220 23.563156 -9.975762 
-2.312118 23.439539 1.565451 
-20.460682 20.064798 -5.807200 
-16.320744 23.567480 -5.753910 
-31.536266 -11.798784 1.126154 
-26.263802 -17.301006 -5.521952 
23.553106 10.224404 -17.006670 
-16.741667 4.626450 -11.985557 
-27.891645 9.318690 5.219256 
-12.221086 26.836470 -6.565298 
21.704834 15.462437 -3.562736 
29.787245 -18.541531 -8.530699 
17.434788 23.780552 -4.129331 
26.404970 -14.514899 -3.856333 
-30.626661 -1.167335 -4.132400 
11.184360 24.368523 -9.474229 
25.127724 -7.624058 -0.955098 
-25.793449 -9.536071 1.172772 
24.496504 -0.757282 -4.663491 
23.138578 -8.011369 -1.661687 
20.004934 -5.861199 -5.502606 
16.047579 8.649960 -5.557606 
16.554157 17.251215 -12.831697 
-9.098189 19.046124 -15.000799 
16.046967 13.342514 -10.678719 
20.557459 -19.545557 -1.058086 
-21.597857 5.764969 -15.820425 
-10.575280 22.861544 -10.970310 
-18.902302 2.631709 -4.456309 
-30.494486 -9.246839 -8.921610 
-11.777750 18.671457 1.765451 
-21.426306 7.152017 -5.627266 
-5.087391 21.828440 5.023690 
-29.530846 -12.151722 -4.433245 
-14.336718 20.371439 -11.627284 
20.161310 1.564979 -14.229795 
16.434629 3.136135 -1.798938 
-19.154806 -4.095138 -12.981692 
-3.796554 33.359665 -0.521257 
18.657658 20.540783 -0.502693 
14.513594 21.915653 0.172358 
-2.994167 25.021770 -17.044588 
-27.851028 -16.108488 -4.649951 
-29.603565 -17.799709 4.162244 
4.522830 21.611006 -16.023001 
-0.652627 27.322527 -12.255075 
-16.906391 15.679348 -16.934458 
15.337288 22.665705 1.440631 
-14.633993 19.584232 1.187189 
-26.559687 -9.028081 1.405541 
-5.982542 18.918148 -17.542171 
-18.116123 23.259842 -4.532683 
-21.019718 10.633622 -10.399183 
22.032833 -14.279892 -11.430678 
25.031303 -7.222489 2.276180 
-24.989519 14.327151 -3.637224 
12.072887 17.234552 -17.282757 
-29.790611 -13.009919 3.134613 
-14.879843 12.292802 -11.645654 
-24.374355 -12.696933 -11.516888 
25.567657 -18.182264 3.164605 
13.024497 12.351213 -13.238848 
5.070391 25.099333 -10.078843 
-29.285021 -15.531923 -2.104424 
7.548263 25.036131 -16.882549 
-15.104324 11.239115 0.107450 
2.830053 25.285898 -14.234657 
-28.158834 7.188854 -1.010177 
23.779594 -9.025003 -9.301699 
28.168745 -18.494764 -1.860005 
29.709736 -19.160631 4.766415 
22.581686 -7.554681 -7.733102 
7.888211 29.096006 -7.412885 
-10.816139 28.424526 -5.642801 
25.379442 -19.812664 -5.902348 
-11.174561 20.489840 -13.427447 
-13.050838 23.931511 -11.562310 
-29.596842 -10.138011 0.079045 
-25.137749 -9.052266 -7.376385 
30.500513 -11.676876 -15.279307 
-16.678940 10.895139 -14.829643 
-7.523151 33.072147 -3.772140 
-28.767435 -10.819955 -3.342170 
9.027206 17.385864 -14.712195 
22.147537 -5.276371 -6.215696 
6.571384 22.246262 -14.778799 
8.028100 30.323448 -7.814894 
19.871950 -8.378871 -11.820529 
18.440607 -6.173017 -11.364139 
-17.338932 22.010136 -10.687568 
18.684668 -7.695940 -2.013083 
-7.399190 32.897568 -8.898222 
-21.989891 -11.648498 -7.744616 
26.434175 -0.364723 1.652666 
22.914875 -20.622782 -5.504501 
-22.086916 22.652935 -4.070267 
-20.991508 17.777882 -16.267143 
9.352135 20.676216 -1.178067 
-23.934187 7.293275 0.039087 
10.768050 24.367449 -8.716743 
24.887602 -14.007722 -4.635229 
-24.667240 -7.199872 -4.263451 
-20.650446 -7.296435 0.243723 
10.544633 23.967924 -13.067540 
4.016751 32.690399 -0.650583 
-22.774689 11.156221 -0.097686 
-25.992088 -8.325814 -12.542378 
19.035059 16.880447 -19.425112 
10.266410 23.412224 -3.493201 
-11.890579 24.041319 -20.342920 
-10.622516 25.921537 -11.981944 
-22.881205 -19.437241 5.813961 
-10.274528 30.635363 1.644317 
-30.899117 -17.355131 -8.145737 
18.930252 0.672015 -4.480285 
19.329319 -7.444134 -3.927291 
-17.410034 3.865171 1.400723 
23.337276 -14.102496 -11.497831 
9.748777 19.756754 -13.967482 
-8.858300 29.653858 1.011672 
13.235856 18.124321 -14.589211 
-11.107342 24.675650 -14.406911 
25.560297 -3.226191 -14.242227 
27.719994 -0.978378 -9.253961 
-14.821547 15.025294 -10.019639 
21.219925 12.823276 -9.818491 
-2.573115 28.486622 -7.716875 
2.846123 27.493273 -7.947514 
-20.151207 20.446747 3.678007 
27.560862 -8.130022 -12.025808 
24.891661 -22.466658 5.996030 
27.136791 -5.200345 -9.770900 
-22.566542 14.374630 -18.882494 
-30.158358 1.759657 1.564913 
-11.733223 29.918962 0.650368 
15.836784 20.081600 -9.219516 
1.190066 33.716843 -1.197522 
24.159409 7.317865 -6.014905 
1.015130 27.973877 -15.708118 
-12.155096 27.344446 -7.471446 
13.153578 16.611744 -17.106823 
15.807418 21.842386 -10.314846 
5.413712 25.602386 -12.480513 
-14.640727 19.813770 -2.602103 
23.446777 3.233560 0.800295 
-26.008244 7.516414 -16.056700 
-24.414734 -20.569101 -1.891563 
3.135337 26.970516 -19.872663 
27.515091 -14.198270 -3.415986 
18.968130 19.848501 4.272679 
30.631372 -16.770765 -4.577193 
23.580566 1.249075 -7.897167 
15.470500 19.418404 -18.048204 
21.689081 -18.881723 -6.394910 
-32.555195 -13.998096 -10.409481 
19.331913 8.865432 0.013728 
26.052256 -12.779987 -1.135885 
22.967276 -14.104403 2.169946 
-21.693846 -16.100243 -7.105383 
19.011227 10.617353 0.667173 
26.761902 -21.176702 0.023557 
19.767447 -13.533777 -0.771041 
-6.769737 24.783005 -3.050215 
15.523820 3.455863 -14.414033 
-31.720192 -16.491135 -8.423296 
-4.414875 34.035683 -7.610459 
31.492256 -18.322538 -6.512641 
-1.846557 18.935482 -20.640381 
-21.986456 13.465234 -15.632417 
21.791241 -12.562502 -3.835937 
-21.134329 1.445797 -12.403277 
-29.672726 -10.099753 -6.947701 
22.448847 -11.581595 -9.877328 
-16.220917 26.523392 -1.293771 
-22.867992 -13.112428 -9.979459 
18.033733 19.876135 1.316442 
2.075854 24.216406 -12.850425 
18.634647 -3.582997 -0.249182 
-22.800251 8.318015 -5.893613 
-25.527996 4.714289 -6.632699 
18.061825 -1.133034 -9.992395 
25.013170 1.003698 -12.118361 
-3.559143 27.047758 -17.469179 
14.129530 15.877970 -14.864436 
28.767332 -2.258532 5.596800 
18.611032 21.677429 -3.693398 
23.277601 -0.989187 -7.468061 
-23.122192 -10.454457 -1.945191 
12.162345 22.179064 -15.990367 
-26.944609 -13.339219 3.233735 
-24.471144 -9.169414 -8.381589 
26.835453 -15.302470 -3.965246 
15.323432 2.926316 -17.838417 
-21.008272 13.135054 -8.378549 
20.932741 2.690753 -9.357139 
-20.495132 2.284936 -12.607485 
-26.250486 -1.401234 -14.139762 
28.230194 -5.490789 -7.542549 
11.134121 22.151709 -11.136878 
19.704132 -0.405982 -11.910663 
-22.264517 9.761402 -13.310705 
-18.367634 19.127228 -0.928279 
18.799437 -2.730933 -3.927140 
30.213812 -9.851501 2.855446 
28.944355 -19.988480 -4.869674 
-0.996995 26.372347 -10.509709 
15.331862 19.062103 -1.849593 
1.651766 33.892101 -3.427543 
20.808189 -5.513314 -12.169126 
3.643480 28.728445 -12.596140 
19.734789 -2.626363 -5.449247 
-15.320759 28.254595 -7.348766 
12.192372 19.055714 -18.016312 
23.581144 -20.694965 -6.945670 
-25.365662 -18.996500 3.547149 
13.365950 12.362393 -3.115573 
27.007843 4.271385 3.104859 
14.355882 23.652809 1.980472 
-26.164793 -9.016143 -6.713349 
26.454733 -23.147308 -9.473044 
-27.473438 10.594913 3.662436 
23.193487 8.649539 -3.065456 
21.021431 12.062245 -7.044622 
-19.835114 11.620430 -16.349752 
32.270054 -16.299843 -12.844666 
15.310562 3.032529 -17.004940 
24.258099 10.049952 5.336271 
26.483564 -12.407472 -3.439168 
10.183458 21.723412 -12.420867 
21.256826 6.362626 0.472538 
-28.113106 0.124214 0.817359 
-19.262426 1.110324 -2.980096 
-8.216337 17.052729 -18.765846 
21.293434 -10.687952 -2.188969 
-24.065758 11.666983 -18.015091 
-15.421450 23.599638 -13.796125 
18.059044 4.524804 -12.769751 
-22.256969 -6.651001 -1.190383 
-23.639013 16.935034 -0.545856 
25.119402 1.019692 -3.850902 
16.235312 0.599892 5.507267 
-15.022304 11.588356 -12.972939 
20.150583 1.765154 0.051085 
-21.248257 13.804677 -16.622551 
-26.355925 -21.437103 2.074445 
-23.901098 -14.881875 -11.605244 
7.025044 28.103964 -6.377929 
-18.739395 11.107013 -12.460166 
-28.412796 -5.091419 -7.967893 
9.390785 23.239927 -16.178368 
4.294880 33.371948 -5.235931 
-15.820101 8.104159 -13.694245 
24.115049 -17.901234 -5.622962 
-9.553725 27.485729 -1.825468 
-17.602407 8.637071 -12.839502 
15.662475 2.010954 -17.673937 
21.695177 -21.148178 -7.661663 
25.647680 -9.728105 -9.167695 
-30.853651 -18.393034 -6.984493 
-5.746842 19.921181 -15.755959 
-24.022026 -12.618731 -6.760966 
-20.978735 -8.750044 -3.564909 
-19.686352 -4.173428 -14.198533 
8.028119 30.684431 -6.132928 
24.754004 -12.658613 -11.044484 
-22.752041 -8.256079 -1.479041 
-1.728815 32.431927 -2.338820 
32.135479 -20.028435 -13.768939 
-17.640034 8.911182 -5.502155 
-21.452230 -14.260550 -1.313672 
-30.795692 -7.027801 -0.951693 
29.413834 -8.953475 -9.857325 
23.774111 2.448118 0.553726 
-7.228959 27.745792 0.527996 
22.504202 11.056586 -13.923418 
-20.835157 -3.668178 -14.923500 
-7.307311 22.003078 -13.014993 
-26.028046 1.977955 -5.403244 
-20.360281 17.293713 -10.837475 
25.888474 -0.739032 -4.500536 
-10.938971 20.107689 -0.036763 
-19.406219 8.742107 -3.959670 
-0.352813 32.343658 2.920183 
19.651651 -14.385630 -1.260621 
4.093002 26.888901 -3.060649 
-29.597689 3.529400 0.703723 
-24.789627 -7.802711 -1.141371 
-17.278820 0.550602 -15.180947 
7.771379 28.001822 -2.146204 
28.119638 0.034561 -11.675497 
1.113866 24.089046 -13.065646 
-22.798140 -15.895097 2.200422 
-18.206671 20.281460 -15.398328 
21.300488 16.692308 3.116349 
26.882820 2.289763 -0.386820 
10.270293 16.784592 -13.941172 
13.006044 23.826126 -12.042826 
17.618595 10.853844 -17.248863 
19.536358 -8.729488 -9.104805 
28.310020 -20.042459 -1.027105 
-1.717599 27.016785 -16.398691 
29.047087 -3.739199 -14.747739 
20.182661 -9.256427 -10.254788 
-22.303446 18.347008 -5.349489 
20.023211 -7.629950 -13.483759 
-23.567711 0.722275 -2.866588 
22.124014 12.531448 0.676813 
29.831676 -6.858371 -12.299335 
24.070692 11.584332 0.838083 
14.979815 13.696795 -4.991529 
30.645311 -15.643923 -4.797101 
-16.898413 19.051931 -17.963856 
23.163944 10.986547 -17.198092 
23.713034 -9.740486 -12.196206 
-14.521634 28.640026 -7.786461 
23.866768 3.756162 -5.179175 
12.894976 17.513151 -17.602972 
24.459007 -16.326794 -3.308716 
-14.887012 7.985945 -16.110626 
-18.254189 24.977940 4.096184 
-29.773006 -10.239491 -2.030426 
-14.166267 9.064730 -17.493645 
27.438820 0.535479 -2.551196 
-31.391680 -18.545481 1.755475 
-22.777880 5.593442 -15.504432 
8.888148 29.547049 -1.112715 
23.638697 -8.958979 -6.780757 
9.055292 18.563995 -13.907594 
21.562313 1.296271 0.107672 
29.082998 -11.008793 -1.518797 
-26.959454 -8.707467 -1.338517 
-22.536268 -9.879166 -0.616153 
21.535343 0.013010 -0.588260 
-31.954727 -15.955743 -6.495271 
14.657284 17.733469 -11.528312 
-21.837704 -7.265883 -10.536452 
26.782352 -18.659250 3.193093 
-28.456207 -14.992684 -2.214926 
17.799894 13.352050 -8.337410 
-31.356081 -15.959142 -2.598374 
-12.454001 28.078365 -8.456039 
-23.493717 8.909006 -14.510106 
-23.755234 2.725833 -5.186080 
-4.909464 29.276987 -4.850030 
7.288613 21.694397 -12.425966 
-16.382999 17.709873 -16.735199 
19.997509 3.784697 -10.417601 
-19.894060 -5.874544 -0.836776 
1.461768 29.941399 -4.753418 
-17.494049 3.861514 2.586323 
-3.876787 23.040863 -14.651140 
-27.028030 -0.223030 -5.041419 
13.130900 17.041538 -1.944641 
-24.032291 -17.033787 -6.309993 
-25.138683 9.710727 -3.762219 
-23.084955 -9.870837 -8.289460 
6.608457 30.480080 2.771611 
-18.956587 0.433229 -10.331768 
-16.554800 14.117410 -9.797241 
17.225737 -6.940390 5.662392 
16.017502 2.543267 -13.710551 
-22.667690 1.215146 -1.035892 
-21.346561 -0.908020 -1.301551 
28.223181 -7.426493 -10.318643 
-11.178138 29.922171 -4.393124 
-26.835819 -19.726397 -0.852629 
12.109096 12.838124 -14.829544 
-12.293070 29.339191 2.834397 
-18.005428 17.682682 -2.630430 
-16.755699 26.196198 4.045002 
-26.575052 8.269860 -2.437078 
-27.085749 4.423294 -16.674498 
-23.859652 -7.228488 -7.187689 
28.466677 -0.090997 1.496633 
5.841544 30.950800 -0.860647 
-6.727768 22.843779 -13.874996 
22.037556 -1.522803 -11.971762 
15.668463 14.063206 -3.328004 
-18.288509 -3.466448 -9.402280 
19.555861 -17.843065 1.738902 
13.292781 15.702991 -15.247321 
-18.756409 24.670912 -3.574105 
13.679026 21.899542 -19.668482 
20.071930 14.298015 -17.156534 
14.830777 4.364649 -17.023195 
-20.190725 21.042809 -6.590246 
-27.172314 -10.094679 -4.806573 
-3.075406 32.368748 2.684617 
16.372574 1.500522 -13.824760 
26.690851 2.679697 -13.507527 
29.025827 -19.880226 -0.586584 
19.409294 9.912683 -5.690475 
24.283245 -19.536476 -2.056615 
-25.793682 12.882463 -5.305133 
-20.917551 -8.018975 -8.397650 
5.458610 31.961124 -0.611844 
-12.188113 19.008989 0.495623 
-31.580549 -11.276785 -1.439836 
-1.414883 28.537539 -0.918469 
-29.144962 -5.635438 -9.982438 
-9.885419 21.074289 -0.423954 
9.695321 29.131861 2.095101 
-16.253382 22.264641 -3.564319 
-16.686199 5.286863 -11.356183 
6.132968 16.862459 -18.919382 
-23.851934 8.153096 -3.647148 
-20.913284 -15.077476 4.119986 
18.021818 -3.979504 -8.762710 
0.013281 20.636967 -16.701605 
-14.986691 25.920744 -7.552444 
-24.132362 -1.210573 1.150289 
-21.379389 -18.122185 -11.318055 
-8.881124 32.111347 -2.525428 
28.517040 -8.493692 -8.978844 
-17.662565 6.332530 -15.147835 
25.014730 -4.214801 -6.972163 
-27.938307 -7.370143 -11.967656 
-26.326944 0.833823 -1.204968 
-30.380404 -17.432949 -7.370774 
20.423691 -3.870412 -8.603719 
13.078722 25.937792 -2.589036 
-21.629738 18.607759 -5.914384 
6.432604 25.206911 -3.423831 
23.869789 -15.375039 2.846045 
17.988224 11.657524 0.707300 
-11.215431 19.637857 0.725542 
24.964853 -20.605080 1.027984 
-1.227314 28.850550 -8.613598 
16.167372 8.520254 -12.273471 
-7.536219 32.896637 -2.797194 
-27.558056 0.591751 -13.029431 
-23.578674 -5.914367 1.671483 
6.725755 19.695089 3.445689 
-22.147669 -2.759578 -8.817509 
-19.539867 12.135727 -7.291492 
-25.936157 5.506550 -1.912498 
-18.720953 11.239425 -9.906622 
6.727798 23.802567 -17.956696 
-16.692442 23.433041 -1.847203 
1.018825 28.364429 0.265624 
-27.488861 -13.695930 -2.988154 
30.611109 -10.854991 -11.080212 
9.702825 22.997862 -15.172502 
17.711498 -5.779771 -2.085411 
2.117017 27.838663 -4.153543 
13.889641 25.525160 1.509564 
-27.879211 -5.647765 -4.549250 
24.693544 2.724742 -11.079209 
7.684838 17.841818 -15.447847 
21.188866 -15.122249 -4.785044 
-5.310487 22.712269 -12.992931 
22.429985 -1.327910 1.322235 
-19.518433 16.091162 -3.954381 
-29.518456 4.599009 1.798275 
21.603653 -11.016381 -9.367255 
0.186979 24.612129 -0.770321 
7.039380 21.085924 -14.187744 
27.306099 0.232652 -9.966460 
-21.712969 3.814869 0.274278 
-29.171371 -16.915123 -3.612285 
29.214554 -3.989487 -9.857462 
25.006605 -9.955288 -7.582767 
20.956860 -19.790085 -8.357709 
-31.625420 -12.228467 -14.765998 
-19.929436 -10.231302 3.956751 
-19.672390 -6.501781 5.560249 
30.162561 -17.725574 1.796832 
-10.854844 19.385059 1.947809 
16.765478 11.244123 -10.853948 
-24.903919 -20.127491 2.137895 
-14.600062 22.568882 -3.065556 
-18.425234 -3.723359 -16.402918 
-6.407108 21.228376 -14.889776 
-3.493846 23.965643 -13.812550 
17.037701 9.244607 -10.898036 
-9.695824 24.825790 -17.206274 
-22.690998 8.835756 -15.192897 
-27.584974 -17.009518 -4.971242 
20.869009 -11.402288 -1.999966 
29.766405 -6.262951 0.800953 
-15.569504 16.467663 -1.870596 
-8.643431 23.828371 -2.687723 
-5.845912 28.487421 -9.141764 
31.391863 -13.229567 -12.090371 
-13.381070 11.607054 -15.560785 
-23.571672 -2.862814 -8.783317 
-12.494138 17.748384 1.999236 
15.899932 23.753756 3.304293 
-32.074402 -15.943449 -7.320405 
-29.929707 2.747238 5.347116 
-12.137944 18.029150 -14.123165 
-32.075455 -16.905128 0.524411 
7.028429 27.030327 -10.335528 
23.881475 -1.219670 -14.475444 
-21.305029 6.967032 -1.149949 
-22.858284 -20.009579 1.867185 
-30.869995 -6.964773 -2.017846 
3.109287 22.543968 -13.790875 
-25.188816 -8.872708 -12.511033 
-27.721113 6.621454 -2.674354 
-24.577198 10.626359 -15.800257 
-11.772075 29.883961 -0.253343 
-28.100468 -1.852796 -8.142992 
-26.033838 14.017525 4.043468 
-21.917921 14.983562 -16.426775 
-6.565976 25.714491 -15.795071 
16.082811 18.419500 -16.270964 
19.293692 8.102382 -14.034318 
15.725268 10.006135 -7.679452 
20.387014 12.609333 -8.290092 
-21.373634 0.904757 -9.178575 
19.500566 16.760695 -16.396769 
-31.334877 -19.299309 -0.818224 
10.534190 16.473412 -15.996015 
25.591722 6.552278 -14.796678 
22.319118 -6.567490 1.783622 
-24.976240 11.935739 -8.286201 
21.466280 -15.102666 -11.406629 
-14.549255 27.947342 0.511438 
-13.639078 27.801725 0.136009 
27.383717 -9.495388 -1.550156 
-17.468826 26.025103 -4.184621 
9.637461 24.849022 -18.061388 
5.553782 29.452482 -2.913348 
-27.193909 -2.617545 -6.785515 
14.231366 19.885265 -3.893883 
-16.970821 18.013811 -11.393042 
-21.938786 21.774055 1.389519 
-18.636372 19.076200 -14.165151 
11.488929 12.007635 -16.693779 
-15.520975 21.547329 -0.586552 
-17.120518 15.662355 -0.868201 
0.701695 33.904995 -1.913818 
22.073786 -10.333379 0.119358 
-17.638832 14.085432 -4.971313 
-23.053816 -1.165491 0.827192 
-30.834528 -0.211294 4.140029 
-24.369699 -10.516751 -1.676929 
-17.557573 25.197474 -5.016359 
-17.669619 22.579399 2.051850 
-15.430116 22.725143 -17.720539 
21.013525 15.255495 -12.491307 
-15.888976 21.278994 -20.973936 
21.260761 9.519401 -11.618968 
-25.880325 11.806633 -1.836434 
-23.585030 -20.568727 -2.054589 
15.992517 16.710920 -13.727334 
-15.012634 28.554094 -6.628654 
26.547028 -14.696325 -2.673655 
-10.875265 24.029362 -15.074533 
-17.649458 3.883635 3.903481 
29.209217 -19.207762 0.938775 
-19.432089 3.998103 -15.420627 
23.338074 6.221161 -12.815773 
-21.011974 19.093807 3.428035 
29.887901 -17.623995 -8.714849 
22.100306 -4.116849 -6.533751 
-26.285719 2.357366 -2.651357 
2.996322 24.352316 -1.524278 
30.774332 -13.179441 -6.881016 
22.188517 -15.508121 -6.047535 
19.816204 -6.030599 0.641695 
-31.457085 -1.917100 1.314698 
-21.558512 -18.393230 -13.709987 
23.079906 10.789632 -18.201258 
20.837252 -16.758968 -7.113596 
18.078238 3.187383 -0.481680 
17.324440 23.738304 -2.521714 
14.068630 18.748438 -11.372696 
16.767721 -3.967230 4.086650 
26.216890 -13.595720 -10.969326 
-30.870039 -1.271602 5.426083 
-20.603647 4.097979 -8.038919 
18.511486 6.540491 -1.529984 
15.958200 16.237267 -10.646180 
28.563221 -0.285286 3.264201 
-14.089154 23.802694 -11.913729 
-20.787813 -2.620633 -12.250392 
-23.652824 -15.562322 -6.643988 
21.236475 15.665404 -1.941604 
-18.623980 16.942894 -15.796028 
-15.188425 12.027415 -15.278543 
12.420788 26.454832 4.105111 
10.079620 27.643959 1.504424 
26.674303 -9.745618 -2.490545 
24.149471 -14.648115 -8.269595 
25.690729 -3.766999 -6.519345 
1.039320 26.316029 -1.930629 
20.593096 -14.955024 -13.601845 
-20.452211 14.409420 -16.962177 
-25.759083 -13.602742 -4.664844 
-17.989277 13.350591 -1.791421 
-16.292170 16.426769 -10.479410 
-22.817696 -7.286181 1.234855 
-19.814919 18.953848 -16.915285 
15.152761 21.423361 -17.338831 
28.058308 -8.835605 -0.826075 
-5.488353 32.940765 -0.633331 
-11.760097 23.629490 -2.943240 
-12.860296 18.055672 0.786709 
6.000520 19.035738 -14.847095 
5.081202 23.426123 -17.059628 
3.437750 21.008646 -14.891989 
-14.698125 20.613857 -16.372829 
-24.086546 11.870879 -17.003681 
-21.203701 16.223427 -5.057186 
-15.507447 22.792057 -4.491861 
-20.269062 -6.677207 -2.407464 
-0.439399 26.183483 -2.312907 
-29.725761 -9.264832 -8.064139 
-22.460812 20.100313 -5.626264 
-20.289553 -3.990211 -3.518531 
-18.128000 15.137230 -8.666901 
-27.854939 -7.091922 -8.029163 
-13.442192 23.616835 -4.293796 
5.207757 28.493055 -0.111081 
-27.883101 -2.735271 -4.853700 
5.307940 17.633841 -18.217321 
13.423986 22.403698 2.398353 
-31.546057 -11.494017 5.631282 
-2.929062 33.479614 -1.280733 
-23.992609 -3.611068 -5.666817 
-19.309397 -6.890649 0.185413 
23.753107 -15.209023 -4.550355 
-28.168657 2.578725 -3.725492 
-9.016492 26.637236 -8.346796 
19.904610 13.550968 -7.793551 
-27.437805 9.792325 1.069687 
6.699511 29.393890 -4.724180 
29.405371 -9.997039 0.604225 
-18.676680 14.457416 -8.043504 
17.106590 11.864133 -17.538263 
-22.060593 6.333227 -3.890525 
11.702388 19.826273 -14.848720 
23.589502 7.857790 -14.321268 
-12.911730 17.050192 -16.874565 
-22.081690 16.660776 -3.753285 
-28.734827 -6.010579 1.900162 
-23.723505 2.879653 -9.762270 
-22.659441 10.103345 -0.391358 
20.907755 -17.306820 -3.604321 
-0.869971 27.161476 -13.220807 
16.933290 -2.790951 0.125498 
19.065399 3.912371 -7.285306 
-27.386503 -8.004774 -9.258349 
18.009604 19.975786 -6.214692 
-15.619596 13.840489 -0.714757 
-23.119404 5.762349 0.556030 
-27.512312 0.989227 -9.162940 
12.432634 17.293697 -2.585525 
-26.444529 -0.442804 -7.514709 
22.353397 -15.207396 -3.167716 
17.503428 -1.775950 -1.201282 
-20.968781 16.911238 -2.172942 
18.564491 -2.309488 -2.724416 
29.986803 -6.597532 3.700861 
-2.763386 23.357473 -13.061186 
-0.617904 29.844870 -4.385793 
-18.004686 12.391498 -3.567853 
3.909973 27.811729 -3.412008 
13.224066 9.250149 0.985236 
6.185833 31.255051 0.820816 
-13.320658 17.596668 -17.457611 
25.928511 -14.943009 -2.069982 
24.409523 -12.153011 1.830098 
29.960712 -8.151561 -14.286393 
-14.009328 24.841858 0.853063 
0.246745 27.107098 -8.321106 
-15.069422 13.380322 -16.390976 
-22.142254 0.579708 -3.937304 
28.629017 -12.168855 -4.550804 
-22.286774 -5.324004 -6.114926 
28.896999 -18.262661 -4.883900 
-0.184737 30.815424 -4.977562 
-14.039210 23.217684 -19.590010 
-23.865656 -5.887658 -5.551972 
-10.690669 29.912649 3.737519 
11.337288 28.987528 -2.696075 
9.282886 18.701683 0.819014 
-22.550255 -8.874051 -13.064597 
-16.730604 6.833260 1.769967 
-12.986614 21.622280 -18.336353 
-24.084227 -15.343105 -2.632166 
-12.168644 23.120998 -11.254904 
10.498095 28.645885 1.938696 
-17.544914 18.852879 -15.871085 
-20.950191 -0.387161 -14.482327 
-20.075045 -12.767054 -11.847460 
14.783779 25.041395 -4.401945 
-23.471518 3.118737 -11.262594 
20.854752 0.168475 -8.830977 
-12.450151 29.407249 -4.759124 
20.840265 16.353468 -0.975344 
-25.078503 -12.042763 1.938468 
12.058928 24.238707 -3.563413 
12.937638 8.940306 -16.753340 
-17.888262 21.166126 -13.978778 
15.350760 16.755440 -15.490376 
-18.570896 21.391371 3.422939 
-25.808231 -5.621880 2.075092 
-20.373489 -1.862750 -0.190375 
-21.472187 7.927850 -3.745277 
26.858192 0.432810 -12.141460 
13.682594 21.150316 -1.343631 
-26.185425 -21.089710 3.605991 
7.041623 30.901869 -1.060649 
-25.524397 -19.828886 3.452019 
28.194342 -20.826508 0.912982 
22.361494 -21.919449 -12.045738 
24.158318 -15.091391 -11.583613 
20.893274 -1.388296 -8.687485 
22.082323 1.425862 -8.395428 
-2.557869 29.069832 -9.011768 
15.618935 17.207783 -4.432935 
13.928529 25.459246 3.211901 
4.437898 20.709200 5.070422 
-27.084122 -0.886917 -13.657043 
20.063744 7.561488 -3.016682 
-20.723768 18.519621 -5.559205 
-24.442984 2.859071 0.533629 
17.218529 15.052116 -13.918138 
-32.120857 -15.226057 4.602600 
-7.109435 29.626989 -5.645477 
29.974337 -9.538150 -15.665379 
-20.894354 16.911846 -15.928011 
17.525000 -9.606711 1.384737 
-30.921539 -5.434914 0.998494 
10.157791 20.691807 -1.791351 
18.908802 9.212156 -10.930514 
12.281655 22.876080 -0.100764 
19.219439 3.442750 -10.242143 
-20.607933 16.620220 -4.339327 
3.458839 27.264277 -14.836017 
-26.410988 13.164829 2.225763 
27.323601 1.017339 -13.153981 
-27.329987 -1.671285 1.584409 
-28.513636 5.172423 -5.657007 
21.119211 -0.579580 -4.012980 
-26.379959 1.706943 -8.657908 
-14.934525 23.620996 -11.728049 
11.095613 26.980103 1.370602 
-29.748631 -10.666075 -2.816450 
20.543993 11.038733 0.730020 
-4.560017 18.466118 -20.536856 
9.926346 16.312202 -14.609929 
16.004803 5.557572 -2.283482 
11.613568 21.854710 -2.826050 
26.729206 -1.604075 -7.399483 
23.583656 -19.472666 2.258936 
-18.232983 -3.384765 -14.923828 
21.723673 -5.770516 -7.940410 
-18.125711 12.594763 -10.517276 
26.546387 -9.020275 -11.267119 
-31.780231 -4.412629 2.944517 
13.776831 26.639784 -4.815011 
-23.603981 -8.631717 -7.747526 
-30.698847 -5.409926 -13.425196 
18.400709 15.347026 -8.053724 
-0.385599 24.413645 -0.186417 
16.729984 9.309161 -13.641681 
9.805240 29.222683 -0.611199 
24.593306 -14.222800 -11.455239 
4.741328 28.608282 -10.653161 
-25.072783 1.960678 -2.951217 
-1.645847 31.955078 -7.150559 
-18.407499 19.797220 -19.857008 
-28.575424 -2.007978 -0.806869 
11.188889 24.267656 -10.436052 
13.413609 22.953476 -9.542201 
14.049910 17.457199 -14.062760 
-31.702269 -17.573700 -8.447588 
22.911659 -10.230800 -5.180324 
6.416742 25.469957 -20.532541 
-6.995942 25.669210 -3.494384 
-18.826494 15.957484 -3.447895 
-30.940617 -0.687774 0.204376 
-29.548132 -4.129109 -9.412226 
1.891427 23.283075 0.834568 
1.503760 28.033627 -7.478791 
9.413370 25.865417 -8.526700 
-20.438217 -6.844020 -14.039670 
-23.712183 2.040117 -12.769790 
-20.165026 7.262126 -15.869230 
24.189707 3.612940 -13.647146 
-24.624872 -17.901077 -6.949930 
-14.727890 23.049822 -4.735346 
-11.824198 17.833733 -15.262467 
-5.676862 33.689037 -6.390712 
-3.407158 31.700201 -7.639321 
-20.626205 2.725775 -9.474428 
21.967203 9.121606 -2.987797 
12.879979 10.039102 1.249766 
-29.266563 -14.972532 -10.530021 
17.423914 9.205765 -7.027477 
10.578398 24.678305 -12.291274 
-26.365080 0.447240 -4.919747 
28.576214 -2.182801 -4.288888 
-20.296019 -11.459884 1.257419 
-12.910786 28.722368 3.917918 
12.743462 27.846169 -7.614765 
22.232716 -14.792453 1.954405 
-32.279800 -16.442116 -9.072198 
-25.560831 6.462474 -2.386512 
5.580746 21.769266 -14.114241 
-19.438356 2.060051 -4.824077 
23.681158 1.167354 -1.197829 
21.325390 -15.018391 -5.985414 
17.981724 -5.602627 -0.711635 
-25.888132 -10.492698 1.035438 
-21.694307 13.928273 -9.214913 
-20.124706 -4.018292 0.114666 
-30.235374 -11.531446 -5.727489 
2.888946 32.439945 -8.764766 
20.857046 -7.678284 -14.188627 
23.857979 -11.565082 -5.743516 
-3.692233 28.903637 -3.491441 
-30.734640 -1.479907 -1.720678 
-24.226706 0.265471 -11.700590 
-10.433910 30.667772 0.670978 
13.356576 14.199857 -1.729163 
23.245480 -10.046068 -10.623630 
18.678883 10.177543 -16.728952 
-24.506319 -6.188025 -0.871710 
17.479662 8.031291 -2.787963 
-24.659971 0.429790 0.535719 
18.582291 -4.438856 -4.252677 
-21.614368 17.309954 -15.581897 
-25.411627 9.536206 -5.591422 
-20.999731 9.605381 -9.556924 
20.395512 -19.664019 1.756369 
15.207703 16.492981 -2.643525 
12.367518 16.245329 -1.798998 
-15.373136 17.007759 -16.093962 
16.643459 -3.029094 2.471814 
26.100037 -11.294057 -10.054770 
19.911734 -8.305637 -7.317023 
-13.080952 21.607439 -2.012188 
4.323359 26.832006 -19.432438 
27.957052 -10.374284 -1.018025 
