-13.040363 13.332689 -1.538731 
7.407263 27.264700 5.740487 
20.469851 17.215979 -0.806598 
-20.571770 9.069944 5.363329 
-6.962563 30.921297 8.670231 
-14.613738 22.498922 8.404730 
17.326872 6.452626 2.663518 
-24.047918 -1.399333 1.914712 
14.572430 10.042357 -5.163992 
-15.078798 18.130074 7.427483 
13.760499 27.870005 9.827438 
20.140852 14.451126 -0.505271 
-7.308210 28.945374 -4.546451 
-24.830868 5.326175 0.460647 
-22.834618 5.055706 3.157811 
25.042168 -0.556520 -2.413917 
-14.897127 14.216776 0.439183 
-15.137358 19.983974 6.003327 
29.171108 -8.465162 -0.491298 
-8.064485 28.229658 -0.067106 
25.903069 -0.884927 8.005907 
-21.446030 -1.457540 4.757044 
-12.912822 25.718670 -2.203920 
27.615015 -9.363443 15.319569 
-18.786577 12.804777 8.347510 
-25.910612 4.610501 -3.688720 
27.362591 -2.581943 2.300438 
14.689460 14.466670 8.581860 
20.944012 14.172221 -1.641119 
18.630259 7.776825 10.304495 
24.097631 6.867436 -3.167778 
5.903788 27.600710 4.208138 
-12.329414 15.901910 -2.265459 
-16.076860 7.076411 2.529117 
-12.085609 16.649731 14.512963 
-2.421197 28.712627 -0.045398 
17.661430 16.981421 8.320801 
20.810799 -3.251535 1.626818 
-11.623684 13.662432 -4.464403 
-20.919775 -0.567563 3.102226 
-1.926053 24.341557 -0.742671 
8.852544 25.913565 7.094573 
-19.345131 14.327806 7.941913 
20.576750 0.464248 -3.933832 
-19.820810 13.078645 8.913895 
15.051352 24.766447 -4.275868 
-21.562502 10.908388 -0.157416 
-5.579921 24.333429 -0.626525 
-23.088993 13.758326 5.152334 
14.902911 14.591880 4.817196 
2.960368 27.077650 -3.347301 
15.330168 23.562130 3.396183 
-9.373037 29.450958 1.800950 
18.628433 -5.930995 -3.045514 
9.969043 22.066523 9.348489 
-5.525163 28.072006 6.904819 
-24.736618 10.780581 6.251014 
4.901062 26.956863 9.703219 
-18.737732 13.761932 10.950933 
-27.187012 5.893440 11.687001 
27.238956 -4.507636 5.407331 
-12.206949 23.394951 9.741394 
17.556747 26.040932 6.882762 
17.985325 -0.846188 6.945886 
26.839191 -9.430706 -1.563386 
-1.969329 27.948555 4.609259 
18.333035 -2.852663 9.488543 
23.429108 7.357541 5.084733 
-16.749144 13.384046 10.886441 
9.636566 25.069080 6.944912 
-24.442522 4.001625 4.395497 
-28.218004 -7.518844 3.091720 
6.564645 33.107182 6.616103 
19.020346 4.305167 -3.924677 
8.812911 23.499073 -0.574224 
16.945192 11.394203 -2.900146 
-13.437463 28.149862 8.761025 
16.072599 22.196564 11.133073 
1.326436 30.281832 4.384587 
20.644094 -10.054109 -0.068428 
20.256655 17.197086 -2.002276 
18.215151 -0.923278 2.798454 
-15.300107 4.287193 -0.995845 
15.012158 11.975268 -2.125199 
29.173937 -7.612602 3.267019 
23.464651 -4.915881 -2.470943 
-20.850084 -1.361477 -2.374551 
-24.865147 1.286952 -2.554707 
19.434864 19.307335 -7.029819 
30.077328 -7.886499 -0.933130 
-20.040037 14.756615 11.392417 
-17.797766 1.490851 2.513992 
-18.332281 -0.640609 -3.489519 
-16.687544 6.855986 -1.700860 
18.693199 20.437420 8.645829 
-19.909857 -10.005837 -1.388394 
9.984742 17.146950 -5.787137 
-20.592199 0.040829 11.261170 
22.044407 14.125539 6.848412 
19.550270 22.081614 4.935266 
26.637487 -3.087879 4.975630 
19.986481 -2.220312 9.846389 
-0.721417 25.301380 10.241639 
21.605927 19.548796 7.095214 
-11.983849 29.945232 1.114725 
-22.125669 6.804768 11.166422 
-9.355273 18.390446 -1.580096 
23.894247 -2.830769 4.503595 
24.273087 1.144614 11.800004 
-21.371893 7.824618 6.787486 
20.871483 22.081951 14.252270 
26.665430 1.888280 1.857543 
-16.584330 19.538651 6.251856 
19.250620 10.874375 3.797408 
12.659268 23.096972 6.417752 
-26.269493 -11.124020 3.255726 
22.605701 -10.705468 1.124469 
-15.202160 8.724504 10.308031 
-3.555010 28.173540 6.263405 
-21.365192 -2.652786 11.997726 
2.981329 31.977385 13.951673 
20.573254 -5.325211 -1.099662 
25.261227 -7.996316 11.326563 
-9.897515 31.654909 3.220500 
-10.779297 29.265068 0.700756 
9.286826 29.038290 9.435847 
-23.097584 1.074396 11.616530 
-21.363997 20.741415 12.581457 
15.849745 22.387836 -1.972964 
20.860428 6.680792 2.973775 
3.525089 21.865309 -4.156779 
-6.906404 25.107424 -3.284932 
-8.239121 21.049591 -3.304068 
14.251417 18.065529 -2.949156 
-10.230053 17.490047 -2.086208 
-9.368738 31.547934 2.011269 
-16.663099 -1.729455 -2.829414 
-24.781021 5.522196 11.248759 
-18.207260 -5.765190 -0.799012 
22.741060 -8.849094 13.519787 
13.411965 26.062401 -3.047515 
18.591686 5.730635 5.361047 
14.519767 28.654516 6.651763 
-25.117146 1.605836 -1.883999 
21.778870 -12.051124 1.993696 
19.930435 -0.578139 8.366067 
24.526850 -13.190485 3.327763 
-28.381304 -8.347075 1.000488 
0.230882 29.732813 5.184985 
-12.220878 26.047503 -2.075245 
18.869606 11.893403 9.181955 
1.969809 28.589331 -1.317893 
1.353645 33.166759 10.881265 
17.188148 1.979677 10.384640 
24.613209 -5.351706 6.866045 
-15.549409 22.081694 -8.004046 
17.503925 1.011746 2.643262 
-18.974148 1.304505 11.238743 
5.465868 23.467077 12.653398 
-10.570478 19.034676 -2.194342 
6.599576 28.337116 4.966969 
12.534546 21.252817 8.894583 
-5.093438 29.330891 -4.892238 
-16.109215 0.611053 0.211258 
-7.861298 28.267378 4.792978 
25.138205 -1.928702 3.663392 
15.678605 23.655499 -0.134657 
-25.320189 4.863371 -6.961445 
11.610915 26.016748 3.950660 
15.731528 10.921290 1.848449 
-1.025887 24.252899 -0.960475 
20.151035 -8.262103 3.919165 
-14.322897 23.579639 -3.587105 
27.600052 4.144584 14.854644 
18.495686 -5.020567 -3.014366 
-24.358583 7.810964 7.247121 
25.853687 -8.414865 1.507706 
28.232609 -4.307176 5.422760 
-17.973398 -6.172442 1.783036 
-10.533981 28.428223 8.613487 
5.960441 24.870527 0.882857 
-20.721334 8.312531 5.459904 
22.736158 13.514060 -5.458755 
-24.143774 14.721375 11.568334 
20.109835 23.535736 13.305096 
22.194601 -2.559292 1.894788 
10.290705 27.508188 -6.030248 
9.974265 29.832523 1.347010 
-13.935601 14.741321 7.258624 
21.757826 14.902339 2.606609 
20.101032 6.368973 2.825634 
-11.808198 23.662058 6.711917 
-18.946297 -1.644275 5.106985 
-3.122526 24.680023 10.871469 
16.819685 18.422388 -2.088575 
-14.333118 9.304346 -1.249105 
23.633198 12.989567 6.573694 
-8.472913 26.885630 -2.523224 
19.988276 16.093904 -0.353442 
23.388700 17.841284 12.125742 
25.540400 -1.493935 7.038640 
3.318471 25.291298 -2.687567 
-20.574286 3.203851 9.193270 
20.918873 -7.837098 5.377939 
19.065195 -1.724283 4.306580 
27.967537 -1.136141 -1.732261 
-11.200295 26.416683 -6.874047 
17.744587 6.866215 1.979534 
5.571630 28.726099 2.891481 
17.380335 10.805664 -4.942277 
14.598986 24.939802 7.468592 
16.974018 2.422901 7.582308 
8.324398 32.106800 6.455787 
15.772665 11.320734 8.993849 
-20.241800 19.056074 11.910379 
-23.181900 -11.520437 4.739690 
25.022802 10.276648 4.224887 
-13.124791 17.407955 -0.979359 
-28.291748 0.941666 12.052081 
17.044786 24.722450 2.809866 
26.343517 -7.898638 6.227218 
17.344229 -0.525640 -1.891645 
8.400641 27.383081 8.712325 
-19.045635 0.272767 8.741351 
-22.064810 14.012375 4.281986 
4.726724 30.678524 8.606172 
-0.304818 32.645569 7.217046 
-4.749266 28.269083 5.835750 
6.001512 27.923429 5.323826 
27.635780 -2.591496 1.374328 
-24.363657 -4.769117 0.618880 
-5.754642 29.052841 7.301672 
-16.546555 9.306021 -4.784817 
-20.988039 10.257217 1.341728 
27.165922 2.178432 8.534213 
21.295301 21.392181 14.275064 
-2.602135 28.506556 -2.882624 
-16.174612 0.311891 -5.262238 
-19.318407 1.996147 11.454298 
17.520695 14.359014 -0.937711 
-21.192856 10.206818 -0.806128 
14.571414 19.927727 9.727059 
15.252631 27.794884 8.936901 
-17.474733 14.213618 4.435879 
-19.512304 -4.563233 -0.967639 
20.851608 12.750508 8.243388 
23.931593 -1.277868 11.047338 
-16.595760 25.992174 14.201475 
-21.146662 3.186073 -4.383421 
-28.351971 -6.582316 2.676109 
-18.751644 13.727879 -1.552484 
7.849553 21.981293 13.098009 
23.630770 12.705377 7.939251 
-22.765278 17.595440 10.505129 
-14.442669 24.266209 0.062543 
-14.316733 18.269192 2.416047 
28.402075 -9.693894 9.877929 
26.582893 6.332283 7.310904 
-15.519667 17.732174 11.420082 
-2.927872 28.665775 -1.748979 
4.484982 29.427797 7.621432 
-0.511140 31.939320 6.973952 
19.217077 -7.112339 2.100715 
20.152750 -2.943905 10.555700 
-15.245832 13.358454 7.693205 
-2.389184 24.297361 13.084823 
-17.735624 0.155686 4.110613 
-7.373724 29.095438 4.744042 
13.426005 25.673635 -2.166918 
-10.396395 19.741592 -4.114058 
-14.589339 7.667035 -1.592991 
-26.685104 6.182581 4.549825 
21.826469 20.787132 10.300133 
20.034225 4.728269 2.072180 
21.303698 3.783908 -4.379476 
28.141293 -7.458930 13.772177 
-16.964964 11.672935 2.381841 
29.039637 -5.711861 7.084440 
27.380501 4.967670 7.356889 
-13.915785 21.603720 -1.286397 
-15.667968 18.783405 3.924821 
15.515682 19.488579 -2.655527 
27.163748 -5.636623 6.254087 
19.132338 -1.480087 3.265208 
-19.630959 11.435127 -4.892069 
-13.874701 24.932585 -2.794433 
-3.903185 31.039341 10.979636 
-29.109295 -8.262978 -0.422475 
15.955483 13.702972 9.942040 
5.513543 20.727995 -6.144752 
20.436104 7.653783 7.830249 
8.681504 21.393591 12.901939 
-25.030098 -1.868606 -0.106153 
-15.933441 4.935738 -3.541987 
22.321058 10.661530 1.965510 
-27.858763 -4.758029 2.896063 
-14.694454 6.883524 -1.785571 
-22.875731 -11.359742 -0.552396 
7.482577 30.101034 10.591728 
-8.623398 21.591883 -0.057131 
19.100969 -5.436319 1.841610 
7.623232 22.508774 12.194367 
-4.978008 25.916109 2.811635 
-0.518611 26.620678 2.298900 
-16.724264 4.700745 -3.880492 
-28.246553 -6.241362 7.090695 
-5.260906 29.187819 -0.233892 
-26.386492 1.590371 3.948744 
7.111369 24.045200 -0.754611 
-4.955836 26.224134 3.563162 
-17.072948 21.771362 8.074049 
23.169321 11.445851 -2.925592 
-10.134710 20.503321 10.902772 
-6.662905 29.258451 -4.124326 
-8.056233 31.474628 2.116668 
-24.143160 -4.842873 13.400728 
-26.285715 -2.300824 -0.348668 
-18.670652 5.702303 -4.107916 
-19.129339 12.611874 10.289925 
12.995225 26.396753 3.678149 
-22.520483 -10.662606 8.698649 
25.750658 2.871101 4.574060 
25.600611 -9.570121 8.518828 
23.768991 -5.647655 -2.581941 
-17.810637 20.738274 8.509547 
22.353580 4.568295 -1.428764 
-24.704287 9.557933 8.925873 
-16.886963 15.276162 2.605373 
19.671635 22.419285 7.629142 
-25.899599 -9.201249 5.982737 
-13.304218 24.815138 4.179333 
15.229144 17.455219 -5.791960 
24.730068 -6.056315 7.324840 
19.150234 -7.743350 -3.127124 
-17.809597 -5.748899 -3.386891 
16.534342 26.304350 7.894517 
-8.365704 25.485577 8.333517 
-24.836111 -3.001066 5.402628 
4.243614 28.182802 6.803252 
19.625191 7.172728 -0.834360 
28.024616 -0.410921 -6.069361 
-28.419804 -4.240715 12.672503 
-12.727387 29.921549 7.247063 
14.365287 24.677326 -7.446661 
-22.636038 3.741325 9.331279 
21.623779 -11.117634 9.785187 
28.817869 -3.612149 0.995202 
26.071072 -0.385310 4.107700 
-9.627997 30.050850 0.721109 
11.074597 30.811703 8.842429 
22.314289 4.896934 4.950217 
14.053652 21.197042 7.695310 
25.565235 9.796010 9.701536 
-17.090916 7.734395 8.654837 
25.358593 -5.069125 6.466388 
-17.547480 -5.208064 9.724034 
-13.380461 29.017677 8.426631 
-21.064682 13.454609 8.278824 
-18.474846 -5.854948 0.331094 
16.837734 9.327553 6.264352 
13.773989 28.619732 9.283161 
17.521553 10.579606 -1.280036 
26.912603 2.863699 0.902976 
14.498790 15.605563 6.276810 
-23.304173 -9.850909 6.905871 
21.772488 6.161397 3.109712 
28.018713 0.858642 -5.081939 
-7.871845 29.755314 6.052407 
-16.051708 10.208259 6.230871 
-8.958742 28.347214 -1.838631 
14.601032 26.138411 3.252591 
21.341234 18.141323 2.875915 
-15.190226 18.680105 -2.190865 
-12.549529 30.216404 5.328614 
27.496880 -8.952681 6.959905 
-8.803061 22.200815 0.461928 
0.074846 29.708160 6.835345 
-5.795578 25.027227 9.023050 
-18.876091 22.165752 8.142015 
-17.379662 0.424406 4.970014 
-27.530737 0.700528 10.021753 
-11.761758 13.797747 -3.579177 
-15.775684 4.576023 10.827637 
-3.418761 27.305477 4.384315 
-15.006331 15.818097 2.978986 
-16.026476 10.370404 7.063496 
-3.848521 32.938881 7.371974 
-14.908170 10.657035 9.722202 
-17.850199 15.451718 0.537534 
-9.635654 24.331188 -2.995595 
25.160931 -11.910707 11.288860 
25.398849 -11.635642 12.059341 
-13.642084 8.739126 -4.389493 
26.473577 -5.303236 5.708704 
-18.472107 18.748402 4.775188 
-15.776670 3.046974 -3.619408 
17.028141 23.465532 11.200315 
-12.727372 25.879826 1.300095 
17.867277 -0.311769 15.029804 
1.880852 24.390673 -0.414477 
-19.051250 16.128592 9.121254 
-17.209900 -2.664224 13.886442 
-9.374973 21.186094 11.451405 
-27.327995 -8.294848 4.866948 
21.799614 20.083662 8.809791 
22.666254 -11.506010 9.366567 
13.200046 21.182219 2.259259 
17.083559 2.104189 1.761707 
-27.316639 5.009200 14.947707 
-1.045428 27.768770 -3.054479 
-20.926447 21.410589 12.397551 
-22.906799 3.848622 3.563707 
28.666513 -2.183293 -3.341378 
-15.548511 22.426849 3.676477 
4.894653 32.429287 12.659679 
14.715384 20.473417 7.576004 
27.216093 0.879397 4.653400 
13.764371 24.099401 -4.538301 
18.640873 -5.713970 -2.142273 
28.627165 -2.358977 -4.460411 
24.899292 -10.619395 15.368876 
-3.637256 27.599886 5.543223 
24.625574 -3.646025 0.780778 
-22.424046 17.852169 3.899801 
17.853519 19.157278 -2.716862 
19.909422 0.057484 4.358327 
-23.235115 -0.871475 0.079101 
-19.312817 23.889326 10.219973 
-15.076542 17.845381 8.851396 
-19.942795 13.279862 -3.839252 
-24.546940 8.057590 4.437990 
26.830570 -2.500164 0.684574 
-12.421631 17.659912 0.336472 
13.162291 29.133848 1.244106 
20.415171 18.575581 3.137973 
23.900635 10.422631 -3.813736 
18.931177 -6.939937 -0.082388 
-19.018749 7.873178 5.040353 
-23.290831 -3.305430 -1.828094 
15.279933 13.507433 8.108751 
3.703015 27.842737 -3.253469 
-20.444807 -2.243530 6.053112 
-12.941380 27.012903 1.652002 
9.012323 29.365034 6.349472 
12.533941 15.835350 -1.867461 
8.561285 29.180782 3.562858 
9.243558 23.648680 0.662795 
17.773695 19.096174 9.340466 
-17.937780 11.800545 4.336255 
-28.556993 -9.383023 -2.067559 
-0.148499 31.511866 1.917240 
27.426924 -9.479981 2.610109 
-25.679024 4.796426 -1.771715 
-18.134829 19.490877 5.031029 
-4.033079 31.882725 10.852081 
0.822276 27.622200 2.102293 
14.817761 23.888792 -8.522939 
-16.361704 12.816799 2.155671 
-9.510884 28.011200 -3.586819 
-22.097767 19.348082 6.786900 
-17.839710 0.185987 10.512783 
17.069197 0.348952 11.915078 
23.315397 9.030245 8.656766 
-12.077652 20.790579 -1.209017 
-21.114693 -7.459538 -2.469440 
-16.222198 20.229027 2.870540 
-26.500195 2.665895 10.949772 
0.141428 29.454813 2.410840 
19.648699 -7.845049 12.305165 
25.127842 6.063045 2.822556 
-27.142550 -1.138475 11.519047 
4.198125 27.473778 10.099775 
4.560098 25.827856 -2.271758 
-3.252948 28.626968 -0.835879 
23.238203 3.008347 9.330053 
-14.419647 6.167274 -5.697743 
-26.357922 -3.189284 -0.749256 
-6.170439 27.071209 5.477465 
-14.195938 24.583586 -0.963484 
-21.428904 -7.324894 3.563687 
-17.967285 15.606668 12.249695 
26.875647 -0.794265 9.680232 
-21.634319 0.782951 -3.899911 
26.149170 -13.028139 -0.819897 
-19.263544 13.731122 9.927004 
-15.895618 3.441582 3.060763 
17.644428 4.351977 4.894800 
-21.864925 5.991731 8.879128 
27.675104 3.132233 -2.791509 
-11.716682 25.740501 -3.083701 
-21.973467 18.134087 3.051080 
19.524714 -4.008052 8.960583 
21.651505 4.813499 -4.232324 
-22.173790 3.687615 5.584304 
14.678172 15.010407 -4.548344 
19.953291 19.413286 9.512912 
-10.141768 20.877863 1.064851 
26.880611 -10.661099 13.004237 
2.541900 29.232758 6.304020 
29.353693 -8.044917 2.639978 
14.454965 12.368912 13.167674 
-21.781147 8.957667 10.974291 
16.990446 3.975190 14.884204 
-5.557879 28.922337 2.112379 
-24.943640 -11.376067 0.364891 
-18.075573 -6.205298 15.313053 
-2.990323 24.447838 11.862146 
18.046116 4.995152 4.709612 
7.902304 20.943499 -2.066750 
-11.662175 19.356256 -0.773969 
25.664660 10.280331 14.647774 
-22.163155 -4.923098 13.070930 
17.599964 13.809594 3.829236 
5.573838 27.014133 2.374336 
28.012312 3.279964 11.987426 
16.275122 23.467705 -5.358209 
15.541599 7.434100 -4.009414 
-26.721010 2.107268 6.167723 
23.769653 -8.920115 4.604382 
21.191772 -7.777104 9.585619 
-22.626463 2.797724 5.490618 
11.428910 22.322176 -1.547860 
6.309455 20.536156 -4.998060 
-27.403717 0.147688 -6.294207 
21.538914 4.441220 2.014828 
11.014406 27.829895 4.655559 
-17.137169 19.368832 -9.009226 
28.557810 0.576826 14.029634 
-10.805095 27.612616 10.495913 
3.621450 23.118082 -0.833803 
18.774494 23.108934 3.200541 
5.938244 31.077812 1.354604 
-24.060925 -7.515503 5.002787 
19.201195 -0.125213 -3.449090 
-19.021307 4.505682 -1.119015 
-22.396627 16.231619 8.564734 
-3.218357 30.114752 -0.913653 
-22.234640 -3.782751 9.409441 
-13.115080 25.542179 -5.915214 
-20.877579 -8.304338 -2.334261 
17.754866 7.558204 9.818072 
20.126373 10.455454 2.616843 
15.519768 19.933727 7.283708 
24.534559 9.233057 9.372606 
14.732758 22.961128 8.052816 
-26.323633 3.409795 -4.788732 
-12.970316 24.951530 -7.597266 
-11.766003 12.738907 -8.049397 
24.261375 -11.615067 12.969930 
-14.452444 19.889723 9.659355 
19.658180 7.664794 -1.815949 
-14.975180 22.302235 1.196478 
-7.686775 27.563156 8.322397 
17.670702 9.595976 -1.149267 
-28.250620 -3.845251 0.884911 
-5.910604 23.247099 12.902211 
-26.528214 2.804063 7.635141 
7.578336 27.484816 -1.197227 
23.258787 -5.501012 0.824228 
-24.067348 -5.737999 13.488344 
-14.559667 21.354984 2.879223 
13.819489 23.507271 -2.819593 
-19.915834 14.111402 5.079348 
-23.822523 10.764062 3.504608 
10.270854 28.337872 4.217690 
-2.182343 32.692127 12.098672 
18.899193 16.162197 -4.585137 
-27.439606 -3.583416 4.938112 
-14.288199 16.936775 8.012832 
-5.360519 32.512989 8.185051 
-27.413010 -1.007044 10.286380 
-1.741620 31.754463 1.431220 
-0.227549 29.897657 -4.911180 
-18.369118 12.436971 5.139886 
21.724695 -5.135193 13.115227 
-17.250937 20.668951 -4.095020 
19.505894 11.857737 10.647848 
19.460945 -7.643888 7.286438 
-24.216047 -10.427813 8.756475 
-0.322491 24.967054 -0.950036 
11.346264 24.348780 -3.906653 
-7.558870 22.208784 12.952864 
-25.642450 -10.692285 11.397199 
-22.831823 10.559815 9.382586 
-19.280836 11.097241 3.231901 
-15.766531 15.054608 8.173651 
-23.085470 0.813845 3.163560 
16.656355 3.574713 -6.667685 
-8.049627 28.786283 9.072162 
-24.816792 -6.109923 5.392212 
-17.573528 5.699288 4.443020 
-13.172707 25.604168 4.017965 
22.901243 -5.736539 10.009932 
-7.759254 27.145262 7.644187 
20.667116 22.889231 12.295147 
25.705307 5.516349 2.337733 
25.278233 6.512175 2.195881 
-17.871395 -6.354466 14.304774 
18.440569 -2.164313 -1.097707 
22.837530 -5.730523 5.608531 
-22.687513 7.788688 9.053036 
28.755358 -3.018462 11.977282 
20.661739 22.775032 10.647039 
-10.955050 29.911638 13.237873 
23.269041 12.446321 3.486385 
-23.711937 -9.325311 7.341762 
-0.072166 33.306450 8.354780 
24.524822 1.275154 -3.711099 
-25.375423 2.362798 0.449191 
-9.478338 25.776184 0.333574 
14.163830 18.517063 -0.464342 
18.015568 -3.661577 10.739450 
-12.102249 22.196344 -5.147094 
-5.039720 27.905582 -1.562081 
21.972828 -2.470241 8.857129 
18.539471 -5.183015 -4.122946 
-4.429019 27.266939 0.248801 
-26.366163 -4.477670 13.231398 
-21.598999 -1.160506 10.864754 
23.828054 7.511954 -1.121455 
-17.280279 11.302466 -1.542648 
-8.883070 28.434399 -3.911038 
19.980320 -9.219016 3.962620 
-24.320091 -2.183790 4.580744 
5.062135 32.256134 11.160546 
-16.959393 15.395413 3.475104 
-14.432814 17.412882 6.812225 
12.327622 27.268890 3.878780 
5.712591 29.349346 -1.580536 
26.390434 5.718308 3.802501 
-4.049649 23.651392 14.253987 
16.492334 4.623950 12.141440 
5.490933 25.155405 8.577056 
-14.187858 11.989417 0.159906 
6.710979 26.810692 -0.275377 
-5.027677 24.873522 -0.301808 
0.253392 30.753189 5.959127 
-28.270138 -5.082339 6.069774 
-9.560178 27.233223 4.598624 
23.350397 -8.607321 3.972540 
-16.822437 -1.748961 -4.827152 
-25.091904 6.408405 -4.276018 
8.345538 26.683651 5.799840 
19.240891 -7.911751 8.028496 
21.878540 14.169646 -8.165381 
-23.165819 12.179235 3.251236 
28.574429 -8.983392 10.860415 
-10.299430 21.291288 -4.771318 
-24.384014 -0.227348 8.522110 
25.451738 -10.863050 -1.479055 
25.819109 -4.291663 13.629435 
-19.614120 -8.432815 7.699992 
-23.745577 -0.463683 4.861086 
-24.852036 11.045855 7.677706 
-20.122293 13.849617 8.350201 
14.762517 24.253466 3.560427 
19.389929 -1.491181 0.459650 
-20.208302 -2.216067 7.981478 
27.089733 2.501410 -0.610403 
-22.310017 9.645597 11.184441 
-18.004314 22.455811 8.561972 
17.764847 5.276940 7.719423 
-14.772938 14.439941 -4.538732 
-15.705321 1.441615 -0.117294 
0.479750 32.919960 11.795134 
-9.521112 27.971172 -2.734086 
-25.299086 8.562945 9.251472 
-27.468374 -8.414447 11.231980 
-24.455433 -3.216653 12.953658 
-27.056679 -8.947491 15.427529 
18.190968 11.775689 6.331409 
-1.076857 27.578758 9.079091 
-26.537863 2.041371 7.828128 
8.867980 31.346102 11.923830 
-22.220446 14.658856 4.761087 
7.033258 31.160536 13.970725 
-27.860399 -10.171572 -3.162028 
21.432377 9.151200 -4.118176 
22.222517 11.818403 -4.747003 
-16.459583 12.323314 -4.257027 
-13.107050 25.887743 -4.614620 
-16.597010 21.430157 3.468336 
18.619440 19.148483 10.119194 
22.093269 -0.052858 -3.796554 
24.237995 4.810530 4.815172 
-22.228531 8.063718 -2.033450 
-16.137608 9.962931 -1.073769 
-25.888748 -9.002991 12.339684 
27.043211 1.309298 8.945186 
12.963000 30.065859 5.170681 
23.854254 -10.224323 13.404724 
18.401308 15.376870 -3.384310 
29.485790 -6.374913 13.354955 
-7.310706 25.765251 -3.444384 
22.987156 8.225695 7.992195 
-16.835711 2.711265 10.500443 
4.845829 31.421860 1.203991 
25.816206 -4.429966 6.069765 
19.251459 23.181023 9.827612 
-18.001926 11.330804 -5.183877 
17.294075 1.482347 1.104431 
21.719555 0.815811 -0.287707 
-28.690027 -0.942535 12.203727 
17.489305 1.641367 14.963420 
-20.485926 -9.881679 13.212142 
19.638226 3.015003 1.652124 
20.747803 4.779731 -4.190884 
-15.488737 10.789803 8.188222 
-18.392756 21.138052 8.062345 
-16.674957 9.078104 10.305801 
13.641362 25.623711 -0.428129 
20.444160 10.875477 11.232988 
22.095837 14.263067 -4.508528 
-8.405094 27.970699 -1.372006 
28.971727 -2.769552 10.871033 
18.315607 14.272816 1.144817 
18.708296 7.645243 1.344127 
-0.864899 25.131531 1.028031 
-17.743643 -0.627161 5.285350 
-22.094864 -0.427979 0.853182 
-16.334490 20.026699 9.344760 
4.848859 21.142601 -5.634040 
-4.307626 30.250334 4.243926 
-13.279720 23.262526 -2.912579 
17.083818 8.474798 1.520871 
15.371170 17.583729 8.705119 
22.097389 13.741529 -1.958402 
27.204773 4.246527 -4.420128 
8.812992 24.500763 -3.239317 
-11.747161 30.735525 4.998059 
6.699234 28.886524 7.420674 
3.645971 23.973158 -1.412419 
-15.758618 9.779968 -3.886407 
13.861947 19.431889 -1.814747 
-12.549643 30.104282 2.658458 
26.314966 2.151355 -3.022539 
-25.282507 2.315182 -2.445461 
17.406670 12.705002 7.818325 
28.058220 0.919734 -3.172037 
-22.178123 4.469138 3.478230 
-0.258549 26.090050 -2.213464 
-14.797626 18.204012 6.544550 
21.066387 -9.643656 -2.167403 
9.243018 25.605642 3.756799 
11.939531 30.164478 8.719088 
-16.894150 25.455854 10.962902 
-14.060970 27.385086 1.751070 
18.139858 -6.314633 9.851251 
-4.853427 20.266994 -7.538325 
-3.275755 29.433052 0.774923 
-15.714584 0.248175 -1.605663 
-10.695624 30.079062 10.432755 
-15.622862 18.216879 4.539654 
12.102064 24.026741 -4.331667 
-11.109774 20.711752 8.524956 
-23.672186 -3.354035 0.675497 
-6.582534 28.916155 2.159168 
8.203166 28.890808 -2.877131 
-16.172125 0.975520 10.876431 
12.082747 28.630905 1.491774 
-29.165054 -2.032483 13.310077 
8.137357 26.723925 -9.992244 
21.632681 1.887514 4.863774 
19.977968 -10.030754 -0.695280 
-20.743416 7.566791 3.683203 
19.550388 1.235790 4.153654 
-25.223066 7.508317 4.064971 
25.556030 -6.633126 7.637595 
-20.485754 22.063162 12.365364 
7.258605 32.565876 10.064078 
17.453711 2.018243 5.618145 
-14.285790 26.070656 9.780833 
-21.838251 -3.017919 4.220049 
27.551302 -3.009870 -0.062099 
-12.802458 16.901833 9.677032 
-14.762175 14.178144 5.771832 
5.816274 25.630981 -0.223586 
12.024065 25.682068 -1.223340 
-6.096772 31.337608 0.760294 
14.059630 17.343349 -4.562551 
24.515675 1.934225 11.833082 
-5.275948 33.039265 2.677955 
18.910686 -7.190648 15.264249 
-4.668113 31.258024 1.581020 
19.466837 20.739092 7.199966 
26.132416 4.191624 11.293302 
17.081741 22.396833 -3.564386 
-17.629856 -4.841521 -4.369190 
22.183187 -10.576333 -1.963861 
-21.899553 1.173985 11.689342 
19.248775 -3.990607 11.017776 
-21.213650 -8.384185 6.245903 
18.694469 9.447979 2.915198 
26.465244 4.094096 -2.936005 
16.520948 14.968291 2.199748 
19.111479 10.081125 3.225060 
0.026032 24.157650 0.154420 
7.768295 29.275414 9.279496 
19.934959 8.362619 -1.228699 
-19.756008 -7.210193 6.298612 
-23.437176 3.145136 -3.639179 
-20.798386 -2.135684 2.188924 
16.129866 23.238428 -7.162921 
-16.648502 1.195356 14.012023 
-13.467976 10.523218 -2.428685 
-16.135921 18.900671 8.218057 
-16.459290 26.053049 4.189620 
19.390352 -0.914975 3.801085 
22.042313 9.570037 -3.470667 
-15.277370 2.071204 1.062475 
9.967556 26.989107 5.336936 
-16.872900 0.770919 2.717599 
-9.765817 20.101225 13.077364 
-28.707026 -3.712818 -4.465692 
23.142693 -8.213947 13.715023 
-24.676790 6.985382 -5.014014 
-6.213415 31.017384 8.178524 
-20.792807 13.775369 6.596066 
-9.729451 16.832514 -4.037821 
-16.908157 1.263133 15.053371 
21.750544 13.192504 4.213206 
-22.995525 6.124221 11.380633 
19.724012 -9.215480 9.444655 
20.921715 21.892660 9.534019 
-18.846706 -1.833620 6.845276 
-23.476826 9.318048 -5.167880 
-18.227222 -1.250729 9.404197 
10.795273 25.087238 9.555281 
27.154474 2.864810 10.638356 
9.925142 26.312210 -1.233734 
-17.255297 8.527547 10.364280 
-17.070032 -1.170187 9.423336 
-13.064617 25.279686 -6.708009 
-6.658101 29.050322 -5.045424 
-10.355701 15.121866 -6.904788 
6.011105 28.486803 0.356857 
23.146189 -7.151261 10.320638 
18.525492 -1.037793 3.742325 
-7.998695 22.853470 -0.106259 
16.567192 26.590784 8.642521 
-21.368338 -10.240569 4.594256 
-26.774780 3.306994 10.192461 
17.068848 2.348295 13.783526 
23.682953 0.287322 4.879686 
20.751305 19.902979 6.240537 
29.371948 -9.435472 -4.778476 
2.169086 29.759621 3.786347 
-23.963234 -6.459452 4.850110 
17.489861 16.663282 4.328247 
-1.985090 28.741920 6.085070 
23.093710 12.411387 9.415636 
22.048487 -9.266180 0.825452 
-21.767059 11.721001 -0.148546 
-17.966860 17.246231 12.321715 
-13.382871 24.027468 -8.658813 
-15.472133 6.519335 2.839077 
23.674051 7.954674 0.863352 
12.440185 29.258095 0.944952 
10.591782 19.809822 11.902369 
-22.903481 10.225040 3.881642 
-18.650969 23.109421 9.788540 
21.095293 -1.791362 1.867092 
-5.895861 20.813671 -3.325129 
-22.259487 -9.169188 4.096177 
-19.247492 14.010038 -2.325928 
27.748829 1.919974 -5.348715 
18.067316 0.744721 3.653322 
23.938547 -12.637110 2.176241 
-21.848600 -10.690855 12.963678 
-21.336731 20.781403 11.759410 
26.574558 -11.111414 12.123636 
22.377924 -6.044328 5.016728 
6.737144 29.066151 -3.711820 
14.772749 19.733397 0.862945 
-18.184032 -3.955589 3.191214 
3.803499 30.680975 2.774254 
-18.259275 7.443658 -3.379590 
18.734905 -6.092200 -4.085353 
-19.914770 22.441124 9.838374 
28.149715 -0.116052 -2.753352 
-19.876759 7.434969 4.999494 
-13.809509 18.773548 -1.257158 
-3.617907 30.391779 8.121205 
-19.815773 -1.864480 1.011885 
29.677183 -4.048581 14.571424 
-20.771273 11.758138 8.819897 
1.170231 26.420805 0.204762 
-18.233936 24.389740 14.260296 
-21.754133 13.078369 3.886143 
-20.564322 5.860878 11.380793 
-29.162220 -2.091718 15.196255 
-4.718092 31.545605 13.983755 
-13.716204 17.107084 7.513706 
-17.629684 15.774393 -2.830086 
15.847407 23.323067 1.971269 
-17.020866 -2.719210 -3.490852 
-18.862946 21.549704 6.033175 
-20.077164 15.510397 4.521146 
-19.638458 2.938162 11.610295 
-0.627217 21.585863 -7.542695 
-4.619115 23.702492 -1.069541 
29.755062 -5.027791 14.265825 
-13.967486 27.696699 5.952581 
9.089106 19.100334 -2.535272 
24.754349 7.169846 -2.656348 
17.042410 4.433272 3.492918 
25.492298 3.995368 -3.471267 
2.195068 30.150692 -0.750141 
22.235668 8.426641 -1.810303 
11.231681 17.807838 -1.739053 
17.416225 0.819696 9.870336 
20.837990 -6.416729 9.421871 
12.423027 22.260689 9.088293 
10.858590 25.585415 5.227243 
11.728302 24.958513 -1.096939 
5.065050 26.334213 9.025890 
-6.720975 23.699993 10.865874 
29.223608 -4.733211 10.238591 
-28.757252 -3.286070 -2.417659 
-20.167439 -4.307167 9.239521 
15.282614 7.807706 -7.275122 
-24.240398 7.788423 -4.944434 
18.153076 9.549772 10.641385 
-22.011684 11.190823 11.503336 
12.394295 21.303978 7.735598 
16.090384 5.851675 -3.413126 
24.058594 7.163613 -2.287478 
-14.083337 27.327293 4.975568 
11.012506 20.533779 -1.325748 
20.101355 12.106839 -5.325123 
10.349083 23.272484 0.570255 
-8.393348 25.339380 -2.939718 
21.155912 -7.989604 13.087872 
15.476070 13.700468 9.075791 
-5.625500 26.518997 4.072060 
19.073790 -6.008117 7.642945 
27.371613 4.931305 14.828074 
-25.010973 -1.568979 1.557854 
-14.262448 20.839844 7.498666 
-11.363171 23.058512 6.921751 
-23.411852 16.656872 14.538050 
26.907053 2.942487 4.985846 
16.012280 5.644205 -4.390351 
19.938675 -9.148372 1.319750 
-21.535030 17.193512 2.396702 
-8.670770 21.921457 11.400985 
-7.341395 31.924213 10.782851 
25.103827 -3.341704 -1.533095 
-25.900728 -8.207119 -1.579764 
-17.124945 -2.763652 -4.612416 
-19.991049 -4.369770 -1.548514 
23.742481 2.761811 11.933853 
-16.983786 -1.793157 12.718165 
-19.913763 -5.022388 -2.178986 
-15.060824 3.044974 1.226197 
23.418373 17.179558 13.505459 
23.220867 6.891664 9.490724 
-3.232917 29.133423 -0.240793 
-12.404723 24.878036 9.029081 
23.183901 -12.492730 1.504014 
8.926969 25.208237 7.704958 
-17.147581 19.368980 3.084914 
29.715219 -6.745575 -3.163983 
19.592577 21.576960 7.832860 
-4.244533 29.125160 5.538102 
12.570330 30.329348 3.911174 
4.939884 29.102489 0.823655 
-19.137772 -4.358486 -0.119292 
24.955612 -3.155758 5.298911 
-21.823870 10.207759 11.455823 
-21.205126 11.714934 -4.201325 
24.881433 8.462620 -7.343408 
-26.944164 5.906078 5.974171 
8.437723 32.307594 5.536903 
-18.365311 17.679920 1.594232 
23.408077 -2.117883 5.896743 
-24.662474 -10.816905 -1.150476 
19.669016 0.095944 3.423158 
23.239052 -11.484906 -1.538116 
20.148098 7.705046 2.687296 
-14.351144 25.066639 8.081450 
-6.687292 32.235153 10.263472 
15.543107 26.236805 4.995038 
-22.674112 -7.784421 10.004111 
22.962538 2.790217 3.187155 
-23.764091 -9.428431 12.767771 
18.596693 7.854396 -2.381002 
2.592417 28.791962 10.375163 
-23.137123 9.576528 -3.310882 
16.479116 3.749604 -5.333453 
23.098906 -10.997897 14.164891 
-18.501873 22.203716 9.390011 
-14.137084 7.071231 -4.745295 
-0.966096 21.731592 -6.261292 
-16.232744 3.171533 8.158352 
19.184879 4.790782 3.085330 
-18.667875 -7.845932 9.693126 
18.431787 -0.616734 4.631369 
-19.605589 7.434478 8.533271 
-17.252886 2.285427 2.652445 
24.523632 -4.526098 13.645948 
12.565138 20.090393 7.681513 
-22.872467 1.328468 9.031247 
-15.312080 23.103828 -6.019700 
-10.890682 22.394136 7.648141 
-22.571642 -9.097161 -2.208551 
28.873032 -3.982718 0.193056 
15.360983 15.545877 2.125541 
-17.556311 2.340056 -0.602382 
23.506458 -12.780311 -2.667558 
-23.458302 -12.236115 -1.796528 
-19.789129 15.848938 -3.165325 
-25.343664 1.842327 -0.174451 
-1.928875 31.981441 10.705500 
23.890036 4.614193 3.525811 
18.170736 15.706154 -1.622118 
-16.531349 16.199593 -1.536021 
26.378479 1.177738 2.117378 
-27.287291 0.526900 -2.642961 
-13.384237 28.991852 1.527301 
-18.934996 5.852689 2.494087 
20.495768 -9.771025 4.851101 
13.232048 24.410839 6.313559 
23.371601 17.210537 8.561003 
22.728445 19.441299 11.706560 
26.434143 7.993878 14.724753 
25.083570 6.673813 8.726433 
-10.924071 26.047668 2.160525 
-24.712170 -6.703689 7.625138 
5.166092 33.280140 3.169931 
-14.773106 4.755208 -4.301984 
22.534893 -12.399152 2.020508 
-28.168524 -1.426086 -3.368234 
-14.689548 23.406868 -7.318895 
12.556838 13.895165 -5.747225 
10.111142 26.531969 -2.704506 
23.711384 -0.997917 0.506958 
-21.614035 -1.243232 -2.203345 
-29.353643 -6.940660 -1.017630 
4.627556 27.220131 0.005247 
-7.115353 21.481194 -1.356898 
-21.054293 14.328007 7.644667 
-12.755203 17.734425 9.291608 
17.836678 -0.194310 3.067759 
14.627962 19.063169 1.763716 
18.873869 -4.553056 -1.256869 
-15.579727 7.352595 9.924749 
-17.084270 8.260697 1.379768 
19.215393 3.703414 3.122894 
-20.293846 20.347845 6.269433 
-15.973449 19.869688 5.473270 
19.190145 18.756115 -5.046535 
-18.419090 6.484359 4.231725 
-21.533039 -10.630776 -1.171344 
-24.475481 -12.746135 2.216534 
16.385193 11.372807 -1.429101 
16.808895 4.749868 14.857944 
7.241084 22.940226 0.118999 
-16.570469 18.730421 5.322358 
-23.673210 8.700749 7.000741 
2.020001 28.030037 9.434821 
25.513407 -6.801369 5.950552 
-16.450348 1.132028 13.076593 
-16.301052 2.087877 13.195750 
15.169339 19.582550 2.003119 
17.711180 21.739065 10.952122 
-13.897362 14.486140 -4.281229 
17.330784 11.240805 7.051725 
-14.696630 15.951397 11.329694 
-20.776869 21.382151 10.638894 
-0.551568 30.543463 6.405812 
-14.317777 25.615009 10.531236 
-15.770707 18.759493 6.092416 
-7.259480 31.728397 11.779683 
21.951262 -10.056960 15.356109 
-12.877163 27.143965 9.965671 
6.238450 26.801031 -1.768348 
27.370146 4.743536 8.192359 
26.229555 0.586900 10.844913 
-23.842655 8.551914 -5.044785 
-15.231075 9.100258 -1.336487 
29.735376 -9.332397 -2.208630 
27.087830 -2.975980 4.238747 
25.782747 -2.301447 9.672163 
-16.951290 -1.874867 11.745362 
18.012728 8.185881 4.086769 
8.759774 25.750748 -1.314058 
18.504978 21.589792 2.860623 
14.780317 19.303612 9.289345 
-2.683973 27.478022 3.996854 
19.327145 -6.336586 0.809985 
-26.531559 6.845538 5.622187 
28.725737 -0.326958 14.098577 
17.366062 10.452274 10.153375 
19.181894 16.941607 -5.242814 
13.590197 29.629389 5.499247 
11.221072 18.275532 14.404875 
-9.039186 23.161236 -4.234151 
-17.761307 24.379370 3.168186 
-16.877827 22.259764 2.591053 
-20.653410 13.369749 7.364545 
26.342813 -8.641663 -1.965372 
15.367018 27.933039 13.011057 
27.069157 0.857952 7.438368 
-10.752546 29.238512 10.577291 
18.397747 18.269323 10.545327 
-1.484182 30.198360 6.934398 
4.780375 29.704710 -3.347438 
-14.866863 17.917000 5.570938 
-4.383781 26.125837 -2.200598 
16.765854 14.289192 8.227298 
-25.959507 -4.348983 -1.370855 
23.054722 8.929092 11.046268 
23.808514 11.166933 3.023527 
-3.263665 24.923340 10.005630 
-26.466217 -3.174302 5.486159 
24.580563 -1.424441 9.373705 
-21.788715 12.585397 -1.280595 
28.888813 -7.274858 11.755916 
28.670797 -9.608424 3.604024 
-22.850855 5.226559 5.054617 
19.820013 6.692447 8.988535 
-20.560711 1.637296 1.944564 
-3.673857 32.646641 0.711080 
-18.581118 -0.781426 10.430393 
16.955692 10.159262 -3.750475 
-28.174379 2.030313 15.052162 
-15.084714 2.433555 -3.106693 
18.714325 -6.658141 -2.230177 
-12.644300 17.192574 -4.363581 
-24.067665 8.011126 -3.967823 
-19.266045 11.406370 11.304406 
16.856976 20.404047 -1.572050 
-27.605326 -6.833822 13.126036 
-26.642555 -5.643647 10.765174 
-18.195997 -5.907047 -5.406382 
18.331499 6.939684 6.408091 
22.830893 12.326952 -4.334904 
7.773157 28.502064 3.591134 
-16.134783 20.554359 -1.193263 
21.324741 -11.213959 0.469570 
-27.897047 -0.613811 -4.762471 
-9.271188 26.671671 7.239314 
-20.873316 -11.209568 -0.780565 
14.324331 28.932613 9.881225 
-20.211451 -6.699003 5.268890 
-24.829702 -4.877933 7.274362 
-22.695414 17.383501 8.761769 
22.280169 -11.873622 10.746856 
-27.248911 -1.070964 7.076871 
23.934299 -1.912202 4.218618 
-24.681160 6.723248 -6.032266 
-26.680651 -4.106153 10.356962 
16.751852 15.493160 3.202589 
22.266758 13.494483 -8.068053 
-27.397240 -6.400300 -0.870796 
23.394636 -12.977103 -1.280456 
28.535097 -6.306523 6.725024 
2.070981 30.630968 3.252346 
-3.983533 24.506344 0.401590 
16.399870 6.105889 10.103315 
3.699362 26.215227 -0.109618 
-5.879487 27.354979 -10.118973 
16.608717 27.217489 10.355047 
16.285738 5.063175 -3.319648 
11.921090 14.612855 -6.756985 
22.056713 9.231962 -0.586334 
3.611070 33.308498 3.070575 
-6.248515 32.264187 7.963296 
13.755353 28.328102 1.270124 
13.946567 17.982252 0.309959 
-22.653698 -4.129252 -2.170716 
-5.583239 31.779156 13.005611 
21.124577 -4.611204 5.771622 
-13.324468 25.512409 2.211102 
-9.574344 25.142817 3.688835 
-20.749487 -1.578555 1.630228 
15.949089 7.745229 13.517120 
17.774057 -1.458521 13.749871 
-17.552137 5.387475 10.573840 
-12.097577 25.766628 9.523103 
-23.870672 -4.363103 6.792907 
26.507484 5.831534 -2.551128 
-11.405766 17.535553 -0.774789 
-7.066386 31.371981 7.246493 
18.270279 14.598701 4.409740 
-25.851288 -5.436407 7.047977 
21.458864 -3.077138 12.182877 
8.251478 32.572712 4.710377 
-16.780991 8.285972 -1.196888 
18.157568 -5.535709 13.940044 
-21.123465 -11.597667 2.116762 
-14.879190 4.576805 -5.500197 
-7.879961 27.898371 9.539907 
18.129496 15.418577 -4.272222 
20.265886 12.047039 4.559961 
6.952489 27.299740 -3.183584 
-21.082985 -11.037249 4.531312 
-9.627287 21.702753 1.141878 
-21.507019 7.961702 5.975290 
14.591425 22.644979 -4.492520 
-8.281401 27.657944 5.315170 
10.498922 23.024040 -0.187646 
-12.319035 16.649096 0.828993 
24.984118 -1.820270 6.476675 
17.163609 1.687623 9.516537 
17.182457 5.513031 0.591996 
19.925209 18.683159 -2.843808 
5.708581 32.610638 1.072417 
16.576464 12.618713 0.086008 
20.317591 13.858720 7.216138 
17.930464 8.294988 10.263381 
23.417044 7.985221 8.911086 
-14.718180 21.584211 10.761117 
21.389685 2.312832 11.886461 
21.088943 14.066632 1.309438 
-19.587278 19.721945 10.313558 
19.171335 0.841412 3.416334 
-17.133936 -3.695874 11.825685 
18.642872 -1.407225 9.807172 
8.798019 26.931089 6.400169 
-0.774361 25.825647 0.487054 
5.919928 24.687477 0.025005 
-21.762547 2.725595 -4.233190 
19.282984 -6.665188 7.173588 
19.405876 -8.282977 0.117326 
18.591711 -6.329279 15.235312 
-18.788738 -7.277127 0.031566 
0.229180 29.753090 6.034221 
-8.604166 30.490108 14.028778 
-15.139381 11.268019 8.757625 
19.785328 24.229645 10.403605 
-1.902179 28.885874 -3.016706 
16.197601 20.006292 -2.189176 
-18.091028 -7.515763 11.543460 
19.746231 18.822306 1.622847 
28.458843 -1.154777 -3.521509 
-15.193362 15.100763 3.455624 
7.797239 26.500370 5.274651 
-10.055309 26.111734 2.069915 
24.783812 -10.625111 6.094067 
-21.997000 -2.201659 4.445211 
12.852757 28.126734 8.928515 
-19.264301 2.660887 1.645958 
-17.285185 -3.716181 -3.377507 
-15.881169 4.369480 12.577500 
-28.172323 -6.951141 11.651086 
-5.828858 32.860428 4.807485 
-16.617020 0.135923 12.954020 
-5.071822 29.644678 -2.412670 
-14.263908 24.164040 -6.735990 
28.029873 -5.133700 -1.249858 
-20.108234 -11.161528 3.345120 
-24.899942 8.030174 8.358975 
-9.572374 31.755119 4.176250 
24.891344 3.712144 -1.304771 
9.322793 26.366430 -9.938141 
-17.395861 7.614786 -0.474368 
-25.217440 -10.287450 13.912971 
19.621977 -1.408468 -0.455451 
-25.442665 6.855933 3.675079 
17.026531 10.249434 5.975917 
10.294636 25.805223 9.870749 
18.395691 1.903188 -3.726676 
23.445114 -12.136002 4.159785 
-13.372349 9.388775 -5.535172 
-26.453287 6.839809 9.839432 
-7.704390 29.537626 3.239861 
-10.746382 25.113909 4.593169 
25.119326 -0.267592 2.557352 
1.669957 26.655483 7.607430 
-25.506479 5.298676 -5.109989 
-17.277363 -3.641727 13.925640 
23.115553 7.565989 -0.820422 
-20.365608 -3.203411 8.799152 
-26.690104 -2.442780 2.785300 
7.477764 28.976791 6.854030 
-9.534479 16.069170 -8.518618 
17.680098 7.030911 7.765323 
4.888137 28.845610 10.931454 
19.492357 -4.568810 0.260517 
21.143276 8.804598 11.200502 
22.757475 10.600544 -3.817927 
19.432478 -4.454243 11.630453 
26.712820 -4.070049 5.849216 
6.631035 26.852554 5.589288 
25.749359 5.321948 11.127978 
-7.948521 28.307249 -6.209634 
-18.936014 21.859446 7.381699 
23.551361 -1.174284 -2.605320 
-18.775177 21.140724 5.303473 
-16.021032 2.351373 2.323266 
10.777010 26.856369 1.075861 
-7.650558 18.085598 -8.801328 
-19.871964 -1.588165 2.011026 
8.135645 30.186989 8.467194 
-15.362235 26.707670 4.594236 
25.348213 10.138570 8.145070 
-24.078024 -11.138709 5.466438 
27.238531 4.390807 -3.264359 
-15.501901 19.784422 9.787774 
25.394102 6.458121 4.074414 
19.778221 -8.493073 7.705665 
-10.649160 22.030878 -1.897695 
2.177363 33.292778 4.408006 
-15.870970 1.311179 -5.472251 
24.020235 -11.934919 12.017462 
17.531088 0.814664 7.224471 
20.267385 4.127147 11.501328 
4.556272 25.464142 -1.569100 
-23.129400 8.356757 5.404222 
-14.743822 22.207256 -1.282339 
13.125623 19.068371 -2.020129 
17.030537 8.578511 -1.772617 
23.726315 -5.727043 6.530138 
-17.082750 -2.744245 12.752896 
-14.154216 18.046747 -1.540287 
21.466730 -11.198764 -4.547644 
18.609058 25.558994 12.637466 
-0.914586 30.841930 10.455143 
22.693701 -6.359983 4.356070 
-19.307682 21.067078 7.414954 
-5.681025 32.084167 12.126076 
19.863047 14.209426 -1.401753 
16.814066 9.394419 7.093358 
-23.661499 13.174899 4.804258 
20.338530 16.893442 0.062093 
1.428956 29.477432 3.614638 
12.714911 17.363251 10.538119 
27.540295 5.040584 13.162036 
24.939941 -11.131570 10.589492 
-25.930723 -2.844689 5.942522 
-19.349964 -2.154843 7.972045 
17.985270 11.092553 10.323357 
22.650820 19.512772 10.397892 
-3.389957 27.774050 -1.027109 
-23.121769 1.485143 4.589834 
-10.650138 23.936937 3.716176 
17.509563 0.652169 0.404511 
18.941908 -5.823849 3.831302 
-12.675717 19.430763 0.164174 
-7.318751 23.850924 -0.476249 
-2.493157 22.133167 -3.798242 
-15.007105 11.580816 3.223465 
-13.826547 18.477112 -5.085480 
20.392574 -1.322079 10.978043 
14.878154 14.785447 0.701522 
-2.910728 28.569311 -8.394103 
-19.989498 0.194513 2.673808 
16.855637 1.355780 -3.593596 
18.913950 19.452913 -4.502654 
29.121864 -8.941388 8.006763 
-23.513311 13.883648 9.217582 
17.778353 -0.103253 6.744061 
-20.419628 10.029288 5.247943 
22.148949 7.731302 3.319862 
2.278641 28.657879 5.854102 
26.328384 -8.585226 13.911808 
23.440994 -8.547673 10.360118 
-7.841479 26.442966 8.949588 
21.557058 8.561294 -1.173661 
6.418173 32.771355 2.036282 
21.719666 -6.498011 -2.621973 
-2.418826 29.659472 7.340137 
-21.536749 12.458444 0.284062 
29.095270 -7.773374 14.369251 
21.825527 18.794603 4.823349 
19.044350 1.825359 2.593091 
-16.219158 3.185366 9.114756 
-15.477033 16.899759 11.630842 
23.677013 -3.461297 6.436300 
-1.844588 30.095495 -3.751914 
1.844995 28.954077 -0.182301 
-14.925031 4.765953 0.657909 
-11.175861 31.042059 4.436131 
-25.887457 0.157755 4.087979 
22.182341 4.079824 5.149452 
-2.057810 25.631607 0.168490 
11.502248 22.324160 1.779872 
13.130697 15.348706 14.501348 
-17.128342 0.810122 5.619453 
-25.482643 9.187242 9.982829 
17.502394 18.565777 10.181266 
23.899824 -7.914864 13.891647 
20.174078 9.240302 -1.592408 
1.817244 29.619648 2.795305 
-6.454090 22.238319 -0.687397 
-21.865915 3.684216 -4.217720 
-2.831280 27.339577 9.521402 
-0.694362 26.211670 8.428367 
26.983160 6.131170 10.450851 
-14.772964 4.996288 -3.273385 
28.281799 -0.113257 -3.713779 
-20.496176 0.081011 0.102788 
27.927246 -11.039692 0.420320 
-16.940556 8.544565 -2.384772 
21.291630 -5.908643 0.808011 
13.623263 11.865734 -6.249100 
27.125299 -10.340668 8.697803 
21.345417 7.626702 5.199754 
22.358397 6.284829 -3.754788 
17.012817 13.307543 0.441259 
-8.889643 20.673233 14.367322 
13.438581 20.407415 -1.090824 
27.747608 -7.995146 1.814640 
23.971678 -9.928364 5.128563 
0.021300 23.172894 -1.502493 
23.672907 12.465482 8.858702 
8.519147 22.734613 10.235792 
1.836119 30.875393 9.847553 
5.994011 26.531502 8.003373 
-13.990768 28.846695 10.618880 
-13.845368 15.846704 -1.117237 
-11.602137 25.593639 4.577528 
20.010435 -3.793744 1.491538 
14.282944 19.006550 0.338823 
-13.976104 23.394835 8.165504 
-24.121319 -1.945597 6.201684 
-16.063969 13.177777 6.817616 
-16.284758 26.942867 12.359591 
-15.002777 3.228975 -3.710173 
8.305154 27.379622 7.517326 
8.312189 28.486423 -5.162290 
15.583536 16.620647 -5.898042 
-2.790261 25.215191 -0.047396 
23.968454 -10.392911 -1.982026 
25.402590 -8.694839 13.913265 
17.225212 0.310331 -4.384057 
18.873137 20.174454 2.015538 
16.569107 11.441959 7.724568 
-11.616989 25.685268 3.590885 
23.044149 3.648512 -4.284260 
-8.186862 28.305538 3.354759 
27.750191 -9.396495 12.416132 
3.469176 29.801756 7.354599 
20.399019 -3.767139 7.846323 
-20.909084 -11.471106 3.849743 
-6.631713 30.882771 9.584175 
-22.435617 -6.408524 5.311320 
-27.142788 -10.174593 1.325905 
-12.375206 26.374363 -3.925328 
-15.299516 1.435713 -2.490424 
-0.423966 32.873085 6.400140 
18.672018 -0.581813 -1.410189 
17.830393 -1.559880 -4.805481 
-7.765996 28.917368 7.744662 
9.626222 17.216078 -8.632045 
24.944847 10.448578 9.751574 
9.813040 19.943172 -1.286864 
-22.787521 -10.662535 4.894400 
9.939160 28.797525 7.779586 
-24.129057 12.616558 9.469166 
-20.419086 11.043131 -4.538396 
-16.643541 18.546814 11.581717 
-24.287739 -10.160982 10.281451 
-14.739180 23.375029 2.954207 
24.256912 6.433499 11.026108 
-16.681177 -1.740647 -3.772408 
-18.837412 17.277573 9.198979 
-6.418795 23.961182 -0.628012 
-17.870985 -6.379384 2.554122 
-18.434856 -4.083029 1.557542 
17.132490 2.800667 5.877472 
-19.486364 19.559319 8.658456 
15.333131 22.990828 3.995497 
0.388489 32.081417 13.953891 
25.028912 5.012349 3.300638 
-21.940760 3.076465 11.907842 
1.301569 29.853186 1.058296 
25.987226 -13.336476 1.603445 
-12.649226 27.749544 1.039769 
20.358974 13.159245 6.765224 
-24.498756 -6.993112 5.376757 
-17.647419 -3.835132 -5.700505 
10.416767 22.709787 -3.884176 
29.530682 -8.313348 0.443019 
-7.145367 31.692274 1.651675 
18.847553 20.299194 6.796863 
17.600803 20.354538 -2.673199 
18.004208 -3.490844 13.749941 
22.671585 -12.189815 3.967340 
-21.490606 -1.990194 5.965477 
-14.365909 28.093630 13.095779 
-15.153500 11.618894 -2.704054 
3.618409 25.488483 8.445465 
20.574354 1.298964 1.894840 
-4.632578 29.018814 7.574261 
28.444023 -1.282097 -4.637084 
-17.400316 2.984898 2.349647 
-20.235735 -1.928400 9.288515 
-24.830469 5.035843 -2.621834 
9.738332 30.653522 6.109500 
-28.872169 -5.163964 8.522350 
22.656771 14.923633 3.131958 
-21.227112 5.023679 -4.192113 
8.085753 28.512001 1.604461 
-22.390678 11.853921 -4.578022 
-11.797918 30.364098 8.549882 
7.514875 25.089306 -1.044882 
-15.030515 17.351439 10.771539 
4.497601 33.526459 6.436018 
14.222528 21.134859 -1.535392 
13.049776 25.526657 2.575209 
-19.626837 23.179033 10.254328 
-11.600880 24.595827 -5.052785 
19.305201 12.613443 3.010321 
11.974195 25.917789 -8.199280 
2.565088 32.123730 8.339664 
25.255363 7.093180 0.908248 
-17.106457 -1.754609 -5.995876 
-26.931644 -7.241504 1.945942 
-25.221899 7.163987 8.139292 
-21.039227 2.452800 11.828260 
-28.779215 -5.045162 -5.557046 
-20.050055 22.723114 12.366273 
-23.732676 6.449089 8.901690 
-18.624971 -1.663520 8.828984 
13.571145 20.048054 2.094100 
-28.514442 -6.354475 9.979725 
14.231569 19.323761 7.253782 
-8.645418 27.823133 -0.511085 
-19.266565 -8.407627 3.623968 
16.396637 16.901054 10.442560 
25.108240 11.872291 6.886836 
-28.445259 -6.216823 10.755548 
-21.396040 -1.801257 1.144828 
-18.436150 23.532560 10.491127 
-15.890225 25.641047 10.897091 
-23.945894 -0.279899 0.296151 
-13.457834 19.619089 8.961066 
19.049377 20.755573 3.831190 
-13.893193 23.498808 4.138697 
-20.548403 -7.305156 4.033429 
17.707092 0.187336 1.061091 
-4.515836 28.242556 4.504599 
3.928213 33.465000 4.137844 
23.489012 -0.930839 5.237170 
-23.276733 -11.082315 12.705587 
-6.380042 31.609423 12.930177 
-7.698969 27.486080 -8.647628 
-17.800774 21.950754 2.836871 
0.363979 30.446096 -1.935101 
-12.217658 16.931065 -2.066975 
17.956108 11.452446 5.303595 
11.812733 22.200323 7.272303 
-27.959803 -7.395239 6.336056 
-8.429879 20.182938 -1.613933 
9.824492 27.671707 -0.572665 
-24.255013 -3.219623 -1.599566 
-19.283718 7.934704 -2.731386 
-26.740816 -8.010118 13.127211 
19.042812 -1.947326 9.152991 
-13.915464 16.286934 7.007814 
7.373954 28.938910 -1.258659 
22.825058 8.110222 10.738103 
18.919790 0.217339 4.188975 
-19.493456 -3.059723 3.594303 
-5.475469 31.070789 1.468345 
15.167251 21.323503 -3.264367 
-24.203424 12.571074 5.075701 
18.939354 18.458698 8.147253 
14.565927 13.632871 8.789969 
10.702948 26.504133 5.154377 
-1.902384 33.374332 9.436382 
-10.810112 25.619583 5.256526 
22.118486 6.826901 3.309482 
-12.816152 28.757887 10.269771 
23.653957 9.426657 11.038151 
