28.575441 -5.246229 9.927408 
24.696512 3.918129 8.636236 
-22.938021 0.442859 9.500899 
-19.755846 11.198853 6.828616 
-9.091343 19.624214 14.399727 
11.457933 24.671120 4.772295 
-15.834998 22.426769 10.436834 
-26.038683 2.175562 11.403279 
-19.443132 -7.173287 12.931312 
-21.791321 -2.036813 6.116717 
30.721159 -16.195509 1.799457 
-32.290199 -18.497026 17.862495 
24.956846 2.398852 14.503263 
14.261677 12.393018 11.947945 
22.432779 10.063478 10.628216 
-22.945101 -9.289701 1.166743 
-26.010183 -5.289298 0.045000 
28.120762 -15.606582 11.447102 
-5.363149 19.871864 -2.006030 
20.777130 6.914653 15.368398 
-19.222347 8.488284 -2.539016 
17.861219 11.268695 7.064759 
20.799782 -11.118024 12.427375 
13.603979 26.365114 -0.651401 
-17.550774 9.401692 6.905665 
-26.569927 8.179194 15.965882 
14.075863 11.711495 -3.525756 
27.076784 -15.326170 15.394444 
1.211932 25.883320 17.307821 
-3.823226 19.249954 -5.622525 
29.050222 -0.740553 14.187364 
-27.134455 -11.582384 9.111105 
11.717557 19.103666 -0.230153 
11.444876 21.032347 17.394402 
-28.459194 0.552191 0.922911 
7.351647 28.022865 0.868530 
-23.036997 6.804272 1.488405 
17.387215 20.607969 20.951870 
-11.926595 13.562863 16.567320 
-10.208884 25.210047 2.039918 
-2.390348 28.108952 7.174442 
25.562477 -7.247709 8.313239 
-14.359937 19.609016 10.722912 
26.807055 -3.076615 7.024741 
-19.953884 15.460690 14.770959 
-14.063692 14.332780 14.340183 
16.014343 14.610669 7.851500 
-21.634779 11.437198 5.261400 
-12.726402 24.570930 6.318063 
24.483961 7.065140 2.594888 
-20.642040 5.952664 6.828270 
-25.030649 -2.112087 -1.565895 
13.798418 17.567837 13.089191 
-19.616186 -6.823880 -3.695845 
-17.840477 4.547951 8.198975 
-24.586267 -16.864695 -2.936069 
13.377553 21.619085 15.166677 
-16.581526 3.675706 -0.060500 
-32.284050 -11.580996 8.886428 
31.594315 -7.861245 9.826495 
10.353577 27.767569 1.380659 
-23.132845 13.967003 13.631895 
27.656792 -6.294144 5.810328 
22.868921 8.214725 14.875484 
-20.640152 16.341894 -5.649092 
-21.329983 -14.780540 3.269555 
3.466285 23.669950 -1.188787 
-16.151375 16.113220 8.243588 
-7.162991 23.126228 11.864053 
-7.398231 28.542049 7.359966 
-29.439867 -8.241385 5.865064 
-27.035675 -3.270570 -0.494304 
-18.124424 -2.355084 -0.154177 
28.878176 -6.747432 4.099732 
10.667460 26.765047 -0.926314 
15.153609 16.803265 1.474943 
25.897617 4.432891 9.867852 
20.904612 -13.268557 16.202908 
22.327248 18.624687 1.905150 
-30.501326 -9.696709 5.789748 
-29.145102 -6.755019 12.358864 
11.587135 23.048712 10.930296 
-26.136379 -12.543738 8.143817 
13.799148 24.269690 9.955442 
-19.101959 -6.574506 13.459224 
-7.989870 22.754326 15.662011 
23.570572 13.200625 6.840517 
20.385405 -6.035708 8.926321 
-32.936111 -16.027819 16.214811 
-29.876226 -2.834634 19.021936 
31.551115 -14.124029 10.362564 
-28.974409 -7.235933 11.661317 
23.295055 0.573219 7.765369 
-21.828110 -15.329571 12.878469 
-18.793039 1.907218 0.841485 
-26.228468 -20.053619 12.095822 
20.267765 1.526357 10.644913 
-18.278519 18.753448 17.982943 
-20.195549 -11.137942 14.718612 
31.604856 -15.138966 1.569745 
22.163618 8.272963 7.457205 
16.787188 6.522239 3.626021 
9.981533 27.307692 5.103976 
-4.289565 25.347078 11.597545 
-7.991490 23.180220 12.381803 
-2.092597 28.847376 7.547729 
-17.362976 22.703077 9.515133 
-22.302656 5.617233 15.305693 
-1.926057 25.531586 10.815759 
18.748793 10.824811 0.693545 
20.444323 20.544802 -5.341594 
5.027348 22.009890 -0.045596 
19.137243 20.960135 16.303783 
-21.755350 8.465812 15.745767 
9.216208 25.472813 8.630590 
17.926733 0.680457 -2.753837 
-15.169557 16.429274 0.003737 
25.777447 -5.817872 14.057959 
32.467964 -9.972481 14.393189 
-31.552929 -12.948112 3.439340 
-29.422255 -11.092842 4.746654 
18.359419 5.656865 5.172023 
-3.516411 27.865578 -4.115750 
-28.196346 4.559311 16.491329 
18.192518 7.497086 10.346188 
6.536057 25.413649 -0.761210 
-12.815474 20.512903 17.667351 
-23.122858 -4.514287 15.186893 
19.044399 1.983387 11.225147 
-15.777342 14.462434 11.421710 
-0.419616 24.305529 -0.984845 
-18.730608 20.520878 7.245422 
29.216156 0.952309 -0.192946 
22.734791 -7.558318 10.173793 
11.540074 22.707827 18.272102 
-7.874459 26.065794 8.391169 
22.891125 -15.817607 6.084568 
-13.953177 14.674131 2.655947 
17.750528 21.344341 2.292349 
-26.913652 0.639947 -0.333499 
-19.830275 16.373955 8.829290 
24.804726 -6.852321 8.474926 
-21.511599 -13.125365 0.714466 
-30.241640 -9.774600 16.224983 
14.240259 19.141022 10.472388 
9.274767 17.192558 -5.240453 
-4.600907 22.685633 1.514619 
24.417713 -2.386238 -1.293766 
-29.151203 -5.365185 1.920388 
-18.136024 19.455858 3.691934 
-17.740955 9.784770 16.406475 
17.921507 -2.734266 16.808739 
-31.609800 -14.539094 3.085737 
-12.033797 23.768711 10.059382 
-19.253754 12.093558 6.575699 
17.320953 15.717348 11.147089 
11.408387 20.252848 0.883817 
-20.697542 -10.183059 12.632730 
13.606232 23.945358 9.017015 
18.150434 -3.566679 16.996653 
-31.948179 -18.515059 16.077398 
6.898948 24.279205 5.458912 
-12.557602 11.863964 -4.040591 
-0.287575 24.620415 2.624175 
-26.554745 -4.449259 6.261844 
-14.684649 8.937541 -1.135676 
-20.204483 8.683516 8.273162 
15.831418 7.553825 -4.329433 
20.812542 11.615685 17.175520 
14.833374 12.788681 14.670960 
-29.516455 -7.764426 2.818267 
22.161722 -5.941734 6.205412 
21.189579 5.450480 1.732451 
-4.922293 27.287771 8.631001 
-29.673035 -13.445901 8.834019 
-6.756667 26.499615 -6.275693 
-16.996922 20.531750 4.611739 
-29.467243 -2.104249 11.414403 
-18.773193 -5.756350 -1.008865 
-17.436174 -3.902763 3.605657 
-11.741074 19.012844 3.503660 
6.738647 23.766125 -0.916261 
-31.325680 -19.419802 17.799118 
-24.011288 3.846456 1.112301 
-22.475321 -6.579197 14.790285 
26.591671 -4.810889 3.024534 
-17.758070 22.057154 -0.524137 
24.357271 9.203963 7.290654 
18.639769 -0.455223 12.624595 
30.898161 -6.453661 13.250263 
-20.510557 -12.287439 16.940222 
-26.602144 -13.103061 16.605602 
21.671225 0.480279 14.516943 
10.082663 17.845951 -2.321720 
-4.693903 25.876770 11.094052 
18.899607 -1.718638 13.721534 
32.062885 -8.980512 15.958885 
32.009247 -14.143231 4.686498 
23.956161 -6.820278 14.774029 
-5.793070 28.122881 -0.732889 
19.756310 13.647842 7.076520 
17.871109 -1.801170 12.030270 
-3.115391 19.670700 14.916861 
8.215261 27.357338 -5.062527 
-26.985931 -10.444940 3.312032 
32.197979 -11.434590 11.236850 
-29.666912 -4.327481 12.874775 
-30.349854 -13.206004 7.992023 
12.716416 21.426256 -1.842274 
0.523347 25.595808 10.944763 
16.657072 24.725695 3.425238 
10.560905 24.459860 -1.746212 
-15.476262 10.763359 7.353528 
1.932113 18.105352 19.536171 
-19.269444 18.982405 20.669273 
20.069191 -5.777037 11.531713 
32.331535 -12.093107 13.807545 
29.230629 -0.950877 9.929635 
17.921661 -3.258233 13.292713 
-20.102638 8.828182 -2.394381 
24.860100 -10.566798 7.802836 
-30.725397 -18.660873 13.863710 
21.687296 1.737224 -1.734273 
4.132497 28.168226 -1.745839 
-13.956849 23.322315 17.135433 
23.993994 10.553053 8.575279 
14.811817 20.525219 0.527234 
21.276434 14.687271 16.715586 
-2.153966 27.961157 8.382314 
20.463823 9.547041 9.484429 
17.745981 -1.225764 2.316150 
-16.277992 18.116356 7.376250 
-20.204969 -10.301688 -1.582136 
-32.554363 -10.685715 9.459039 
29.055099 -16.409924 14.175403 
10.168845 24.252598 5.784344 
-11.936685 18.834263 13.230364 
15.354561 23.179232 15.296837 
-6.854589 22.234726 13.698112 
21.324118 -11.085165 3.090321 
-24.888306 8.831260 -0.951955 
-24.929070 8.652871 -3.123223 
-8.297625 24.844324 0.229816 
-17.420843 15.525537 16.792767 
-28.894173 -13.173838 0.894158 
6.864673 18.141562 15.666943 
-10.165995 20.154543 1.300432 
-28.476177 -7.693906 12.228045 
16.330856 16.468227 11.710024 
18.583822 21.529579 16.858395 
-27.018358 -16.294975 8.701921 
-18.229490 -5.232664 2.380277 
-18.103268 -4.027014 15.240728 
25.206989 -10.244251 0.287450 
21.821754 -6.336153 5.327194 
-6.730486 24.650339 19.172375 
16.687801 6.455145 -0.152969 
-18.904213 0.072315 11.770131 
31.423382 -4.726364 17.110037 
24.683603 4.122711 0.260966 
28.320198 -2.682836 14.871718 
-25.697378 -2.111536 7.761916 
-17.066536 14.425273 8.474133 
0.397401 22.432606 14.011206 
-17.504873 10.820330 6.182550 
-12.409264 26.394203 11.577118 
16.682657 5.284468 -2.289468 
26.269318 -13.893927 16.885633 
25.091805 8.407754 -0.044454 
28.101830 -10.421454 17.200361 
-18.286097 6.677080 5.606393 
-31.691282 -12.286734 4.701853 
-13.406826 25.117382 -3.891869 
-20.914022 11.070857 6.359576 
-24.039639 -2.664538 -1.896393 
16.141241 24.130089 12.475520 
25.394390 3.579133 8.320518 
7.793831 24.445921 9.691660 
-9.751606 23.763617 14.463689 
-14.495355 22.449100 19.616102 
-24.129799 -2.977710 8.578957 
-22.690132 -13.245341 6.235491 
-20.545233 6.637245 7.548074 
8.208960 27.730572 -4.142543 
21.512194 16.930170 18.411991 
26.561863 7.612725 15.229983 
-17.634918 0.243152 0.931862 
18.993364 -4.481090 3.085088 
-16.001593 17.689030 9.920970 
-10.083433 24.441271 16.073959 
17.271267 1.774728 3.645807 
27.024933 6.832070 12.614623 
21.652227 13.946645 3.037056 
27.078987 3.426323 0.393307 
-22.255819 10.926759 16.658712 
31.629763 -10.672480 9.431972 
27.991032 -8.539289 16.697081 
-5.609967 22.751894 -0.459992 
-26.661913 2.577652 8.875029 
-28.112282 1.396976 -2.520454 
13.198973 25.788631 5.392143 
31.369268 -4.840974 19.147760 
19.677864 2.807453 9.494237 
4.550401 23.641830 1.439418 
-9.112908 19.461269 13.473095 
-30.014713 -8.748485 5.520415 
-20.324528 -10.364861 -2.475319 
-22.143679 16.444351 16.492805 
-23.285162 -16.768551 10.485496 
21.889088 -12.796773 3.133841 
-22.670200 -17.771679 15.071424 
22.552757 11.783386 7.293090 
-16.494423 14.044056 11.927382 
14.615710 21.888964 17.035845 
18.239563 11.003872 1.646561 
-16.432571 13.648951 11.027299 
-0.113240 26.588528 10.065477 
-28.181437 -14.749098 5.357772 
-15.880430 24.443378 10.982417 
-12.851499 17.933012 -0.067539 
25.016880 7.992655 4.494155 
16.504349 15.066041 8.433641 
-18.533140 6.003509 5.171515 
-25.070631 -16.442949 7.450376 
-12.943430 24.986143 -0.346878 
-9.143991 24.436300 0.972983 
-14.677018 19.330088 -1.310595 
-16.078983 4.457205 -1.095533 
22.885010 -9.438656 9.394267 
12.128228 23.968369 18.471573 
-1.516608 25.968697 19.836178 
-22.817122 -10.640748 6.063620 
26.535782 4.541212 3.085388 
-27.072390 -10.531684 16.084311 
-27.517437 6.321071 15.085597 
-10.895034 21.918716 12.038548 
-19.565744 11.819924 8.622910 
28.071999 -12.834719 10.457009 
21.950329 -13.825836 12.005179 
17.573559 17.804607 14.056577 
-15.934566 6.654970 12.743778 
4.062729 22.691217 18.501007 
17.385643 22.388927 -1.472611 
-0.534293 25.938011 -1.478171 
-7.442413 26.422161 7.680550 
31.071030 -14.279140 4.390012 
-14.111588 8.518755 17.507570 
-19.742319 -7.995709 -2.652505 
10.008498 16.595705 -5.178785 
-14.534539 13.909060 6.567272 
10.831382 21.293097 1.580167 
23.932730 12.313705 9.360516 
-24.042700 -0.030664 -1.735264 
-17.565680 22.141262 14.152449 
1.054325 25.159418 19.345934 
-27.439980 -0.166908 -0.177835 
-27.459780 3.972451 12.110455 
21.692505 -0.869437 -1.893321 
-22.211926 -8.765840 2.483563 
24.627085 4.627979 7.688247 
-28.529552 -1.922901 0.929663 
19.242783 21.749945 8.475721 
-20.340170 5.829598 13.160662 
-21.628420 3.102492 2.246879 
5.711134 21.073652 -1.245905 
27.521381 -13.486513 10.332169 
-4.069320 20.302193 16.288635 
-20.664175 15.527272 12.966926 
-21.604771 14.789779 10.683913 
-11.595795 21.995100 -1.627846 
17.699732 3.943259 0.586674 
26.670208 -4.744850 4.983077 
-24.909079 7.907139 7.460882 
-18.692381 3.887494 12.917290 
19.142778 9.519556 -2.046240 
-31.799906 -12.850131 -3.387404 
-20.614460 -10.798450 0.815941 
-24.789516 -6.804506 2.818022 
13.206985 9.888702 20.147089 
16.469406 21.417105 18.234846 
-27.935217 5.361952 16.742105 
28.521839 -15.399899 9.069390 
-21.307146 5.311051 6.720082 
-7.862303 28.426243 12.972949 
18.357496 -0.268833 -3.634891 
-22.127478 -15.645448 14.453059 
-15.930388 8.380917 2.337828 
-3.633738 25.286427 20.672604 
-24.536215 12.453362 12.371926 
-23.871418 9.472505 12.589805 
-8.356435 22.069496 -0.278285 
-30.339804 -3.589903 15.070630 
1.316205 24.795637 11.769286 
-31.047285 -6.839039 17.715462 
26.502373 5.381870 11.964119 
-21.811678 -12.874612 6.026496 
-1.677886 28.794865 -1.444477 
20.511642 -8.174402 -2.939382 
-21.451771 16.270649 2.757884 
-11.831830 27.004360 9.462518 
-2.632477 24.205517 3.621971 
17.801971 24.519850 -1.761644 
23.916189 9.185191 13.109284 
-32.952011 -11.944636 15.760969 
-24.737129 -11.984938 -0.731182 
18.060242 2.469548 0.628299 
21.277889 -12.240590 3.781690 
17.584045 -1.602052 14.510466 
-3.153427 25.787487 18.336306 
-19.967461 15.098077 13.406530 
12.154417 19.849762 13.184242 
15.877513 18.967403 4.625918 
29.484749 1.271190 15.856829 
-17.732517 22.657238 11.707748 
18.053205 11.703764 17.249830 
-23.899586 13.402954 13.341118 
-24.121376 10.175614 -4.123231 
-23.176548 -2.193822 7.849002 
18.949549 -2.719171 13.717748 
-22.588167 -6.332986 -0.395848 
0.457477 27.233898 -6.221389 
21.794724 10.632844 13.422323 
-27.518232 -2.628100 7.561427 
10.975029 26.545889 12.893502 
4.010978 28.901711 -1.125690 
11.627547 22.507797 0.452300 
18.320351 12.197507 3.077060 
24.620537 -6.692637 7.585488 
4.200896 28.825907 3.230186 
-11.833196 21.617184 8.085521 
23.829933 7.862765 13.559729 
22.907328 -7.112080 6.734344 
-20.934559 1.714351 1.246397 
-26.133255 -5.941850 4.833884 
-20.444988 15.642108 13.988709 
14.512568 10.866543 14.890031 
14.018927 24.712828 11.963062 
1.706427 23.936228 12.283665 
30.248280 -3.130587 14.164204 
21.422880 -11.955456 15.170671 
-17.295067 0.130857 -0.783113 
-29.138988 -4.698903 14.607850 
-24.582802 -8.251011 11.900959 
26.702681 -7.374402 2.104503 
1.190848 26.666653 1.087585 
22.664469 -15.725966 13.833016 
22.506029 10.869544 7.878452 
-32.044491 -17.766016 11.087453 
7.179418 20.267723 15.942994 
-14.284678 17.675394 5.573615 
32.272255 -12.708497 5.736096 
-21.753836 -8.551847 4.518640 
-23.243776 -17.302460 4.694494 
-11.669230 23.073851 10.983283 
17.910923 23.255558 14.328265 
-21.948347 -6.619213 6.857651 
2.224114 20.674362 16.657188 
22.943565 10.567252 8.551954 
-13.955149 18.787754 15.013270 
-0.193097 25.620569 0.543817 
25.199123 4.825796 2.262796 
-20.373186 16.861141 5.921541 
-14.498248 17.878572 16.514599 
-32.653522 -16.608278 13.564186 
22.081505 16.576651 -1.427895 
-14.373760 19.352522 1.546309 
-31.297934 -7.777461 16.813816 
18.161190 -1.509368 1.611204 
-26.493980 -3.797998 2.723088 
15.921921 7.918077 -1.799299 
-0.282395 25.003592 3.570108 
-32.670116 -15.329758 15.145801 
-18.266003 -3.078577 12.117216 
22.568596 -14.414995 11.878981 
15.275805 26.029991 1.635949 
30.720926 -13.688084 9.851794 
-18.460239 7.273388 15.094116 
-19.205530 13.436725 15.019175 
-30.455492 -13.946333 7.605762 
19.128986 -5.571563 19.039625 
-22.587622 -17.451317 12.607564 
-23.951876 11.302276 -2.004992 
20.725529 16.047709 14.484344 
-31.869694 -11.093745 4.006691 
-20.481462 1.627217 6.205241 
-24.955559 3.865204 1.693859 
-18.023834 -3.278700 -2.129803 
30.099339 -15.663896 14.581779 
24.709684 -13.927479 0.764749 
21.305998 -11.988403 10.647346 
-26.592096 -11.341374 16.235849 
-33.068882 -15.130011 14.203944 
0.867224 18.276472 19.312447 
16.081297 10.239225 4.890548 
19.164579 5.013307 2.571041 
-22.846212 6.862366 0.503521 
19.398895 18.115650 9.769392 
18.682970 -4.660694 5.513433 
-21.456177 -1.966684 7.265861 
-2.225443 27.310804 -0.154005 
2.069279 28.492422 -3.147873 
-26.922560 5.073084 7.316958 
20.990055 17.689983 5.914775 
-19.114279 14.093199 11.084417 
14.163505 20.041004 -1.673428 
2.997092 17.974331 19.312660 
17.786697 4.154627 9.730017 
-5.842262 24.915388 20.690166 
26.720690 7.790215 7.503046 
-23.974459 -17.483114 10.742283 
3.411481 24.322403 16.860104 
24.314625 -9.388450 7.345163 
-16.725105 21.715204 5.628338 
-1.892442 23.894222 3.225841 
-13.999366 22.018322 10.505381 
27.473667 -16.707354 7.514271 
-27.458668 -10.271766 8.746220 
26.542889 7.826867 13.437705 
19.158627 -0.281728 -1.254349 
6.780072 23.871607 14.247016 
-3.466647 18.026917 18.425140 
22.232300 7.319735 12.873907 
21.949295 -7.726315 4.701755 
18.291040 -4.520878 15.879838 
-4.572564 22.808828 15.343981 
-14.906720 7.312247 3.934314 
-21.464382 9.086463 16.364914 
19.976078 20.527859 12.541916 
25.322798 -17.674236 3.122800 
19.094851 -4.695010 -0.859257 
15.174586 6.469652 16.467201 
19.070286 7.143721 10.877483 
16.232218 21.821632 -1.825078 
-24.194759 -12.737963 7.844322 
13.125607 26.660679 -2.483378 
-23.699516 10.873214 2.671886 
21.656902 -8.909583 12.689774 
-28.963898 1.413027 16.658577 
-21.661377 -10.136549 5.951974 
28.945435 -15.953928 6.977811 
-20.523678 -5.751256 14.306014 
-21.734592 -7.649499 3.242635 
11.492709 25.237843 15.730023 
23.881992 -14.207233 16.142057 
-12.066196 17.181143 1.411226 
-19.372608 18.746498 18.031944 
-6.123552 19.910320 -1.095710 
-29.496534 -13.524658 1.372491 
-14.910931 23.790417 14.689466 
-25.802570 -18.158005 4.822699 
7.700036 25.243446 19.071102 
-22.026499 7.816373 11.793156 
18.836285 2.121737 0.992328 
-19.182030 4.274537 1.680677 
8.423597 25.708548 -2.604732 
16.591883 15.073495 13.036670 
-16.892710 17.324081 -1.818772 
13.893479 23.685047 14.999090 
-14.061943 16.706202 3.772022 
3.080866 23.962900 0.324676 
23.706047 14.779919 9.657784 
26.985052 6.933358 9.484157 
24.015722 3.441221 9.239376 
-12.913701 17.305492 2.075607 
30.769892 -5.462236 0.660984 
-2.341084 25.360392 17.537676 
-13.863354 13.311746 5.410959 
-30.442078 -12.689629 8.952837 
20.169621 18.802320 12.750109 
-24.601437 -2.693584 15.265011 
29.378580 0.716263 11.246844 
20.106153 -11.387321 16.601444 
-24.856087 0.291484 7.101124 
-22.325954 -7.716433 3.837443 
-16.956646 9.773709 6.413286 
3.637920 25.709654 5.896497 
15.791574 14.914941 10.373459 
-28.710026 -14.604141 17.050543 
17.093491 0.790220 3.841023 
23.144855 -13.146530 8.276423 
5.653508 26.987814 9.320909 
-18.559446 5.834730 9.115921 
8.785391 19.457380 16.058168 
19.063583 12.957817 1.572668 
9.011613 28.038017 -1.562588 
23.737139 11.938994 10.593045 
22.013826 -5.077510 6.674581 
-11.936728 20.572218 -1.732686 
-14.729468 23.080561 -0.108267 
5.971907 25.887804 3.205433 
13.600320 9.434995 15.227729 
16.008617 8.304250 3.660522 
26.869984 -10.177035 0.566114 
-20.610550 9.772125 1.267099 
-23.557493 14.031394 12.522708 
-10.564323 22.221464 7.484739 
-25.495176 5.985787 -0.411721 
-19.563389 18.715023 4.493410 
5.138630 28.493860 -2.030053 
-16.977892 2.789612 13.169125 
-26.238478 -20.468485 13.658195 
20.140574 4.488145 6.235402 
29.992735 -4.634380 1.442739 
3.188063 27.521709 -0.274638 
4.511582 22.258039 13.188840 
31.825586 -7.094357 13.562349 
11.531158 24.653099 6.242858 
-24.405680 9.790209 8.954907 
-29.108961 0.125137 14.890317 
-19.811522 3.630059 3.961287 
-20.569204 -1.426223 8.272856 
-22.701252 13.639034 7.193049 
10.139339 26.459270 7.380559 
-19.991596 6.447184 10.277818 
-0.266415 26.349262 0.035404 
9.794014 23.893463 4.323789 
23.484613 -9.201798 7.250350 
5.613353 25.158636 17.756325 
29.942032 -11.321115 10.053099 
21.017603 -10.480655 7.483203 
14.124204 26.018021 3.641279 
-22.357052 8.366224 7.114649 
19.144072 -4.907922 0.789552 
4.100895 24.473942 19.380568 
-4.318208 23.362333 2.126639 
-22.511312 0.948324 13.714531 
-20.098646 -1.692521 9.204803 
-14.008342 8.950988 -4.924802 
-10.910880 25.325546 -6.244156 
-17.356121 21.269501 18.335382 
5.888869 25.703711 19.241068 
21.608152 -10.219538 8.032349 
-26.934929 -8.648174 8.478361 
29.892567 -1.394250 -0.537913 
32.545315 -11.239879 4.148166 
18.970366 9.076299 11.781584 
-19.927052 0.814872 9.441164 
6.737517 27.238976 5.913312 
-21.975191 -1.397306 7.633269 
27.186464 -8.111320 13.573174 
-28.639681 2.243155 15.571177 
15.456034 22.848230 17.720219 
-2.587274 29.783539 10.498735 
20.101816 -4.863684 0.873531 
2.760576 26.621590 -1.995224 
-8.640616 24.746275 9.173982 
0.639605 26.395576 4.555692 
18.365582 15.840816 13.905329 
27.059671 2.865390 7.332800 
-4.940237 28.531672 14.180710 
-18.775169 11.553423 16.582914 
6.684687 19.859756 -2.910958 
15.781801 11.505916 6.454504 
-2.279140 26.192488 10.192773 
-21.805052 -14.644519 1.695028 
-20.884117 -8.698768 13.577286 
16.676825 5.221600 -3.150095 
-31.509117 -8.843368 2.791139 
31.049519 -5.447611 -0.392310 
-27.115688 -10.061242 12.593592 
-10.594061 22.636705 3.988291 
-10.506919 23.018023 6.584311 
25.572187 8.847409 0.774798 
31.062954 -14.046618 5.871433 
16.931610 20.745192 -0.912916 
1.525427 28.211325 7.542390 
-25.210499 -8.239469 3.457899 
-29.526245 -8.502569 10.968097 
13.215944 19.314512 10.579612 
-9.013254 23.183029 12.307968 
-21.185677 -6.610880 0.724933 
-17.554899 -0.578708 17.653866 
19.355951 19.480364 8.387878 
-25.277567 -20.057154 16.573940 
16.011503 14.371229 -1.813419 
-26.839838 4.238275 7.305228 
18.022091 0.905836 12.954613 
-21.599100 11.010195 -0.855950 
-14.458729 24.518000 -1.350035 
-15.685938 12.011923 8.781789 
-12.125343 24.170681 7.581432 
-28.219236 -4.190710 2.790242 
-16.284166 11.989573 13.139249 
-22.656645 -1.378590 11.397316 
-19.682133 2.504505 6.253736 
-5.652724 22.934916 18.642157 
21.746542 -7.921822 11.845778 
-29.144014 -6.997023 10.578472 
30.071102 -14.718094 14.967196 
-13.199930 19.182920 15.655363 
-28.189964 -13.419001 0.479609 
20.120266 -10.021931 14.027615 
-23.580315 -12.993934 -0.894282 
-11.866439 23.717321 8.450140 
19.292913 -7.488995 16.270000 
13.848344 26.021524 -4.660576 
6.751509 26.243526 1.588269 
23.237474 -9.837092 8.744292 
-25.779785 1.059383 8.706530 
4.289330 25.266195 19.567966 
-4.167831 25.592394 7.176146 
26.864014 -1.372423 15.133875 
-26.743656 1.035281 11.361072 
-12.358696 25.576685 0.954497 
10.346614 24.633759 18.234438 
-20.287359 14.677163 -0.725104 
-29.672186 -2.014822 19.082972 
-13.490116 11.638936 15.458449 
23.583263 -12.497154 7.391438 
25.527655 5.729640 15.276078 
-21.701672 17.290174 0.259151 
-13.187531 16.212002 14.255766 
26.476051 -11.080991 0.471840 
18.038639 -0.972322 -0.967104 
29.227545 -3.250250 8.506300 
16.141731 16.354650 6.345685 
9.423851 26.745413 -6.036750 
26.892412 -17.819529 1.465031 
-19.585594 15.791721 -1.846337 
25.934765 3.407673 10.549623 
-10.856479 20.242626 12.745504 
0.050693 22.995840 17.865719 
23.647211 -0.613124 7.994915 
-22.140734 5.525047 6.496026 
-30.202925 -3.641451 14.111664 
19.680838 -2.183917 5.829990 
18.593609 -3.231333 2.187375 
25.752014 -5.005445 12.222435 
-29.714109 -15.865179 9.938971 
11.391771 20.590580 12.517428 
17.416805 6.685746 5.375576 
7.225285 27.590593 10.703267 
-17.881798 18.260157 8.665451 
-28.626215 -8.601624 10.476993 
-7.915747 23.680044 0.506223 
-23.796562 -15.630986 0.049614 
-16.493725 22.933601 3.895050 
31.711641 -7.537283 -0.460807 
-0.483764 20.056839 -5.636430 
1.442635 28.738754 0.328707 
-31.265039 -9.091187 13.356328 
30.851431 -9.229723 16.891598 
14.685399 21.508490 7.787809 
-23.276472 3.597822 0.214720 
-12.661108 12.031786 -3.047835 
-15.485147 21.437757 8.637339 
7.280781 27.170057 -1.553377 
15.748698 22.946493 16.123291 
25.999172 7.216461 0.117124 
16.739702 2.322078 19.607897 
13.048836 12.065481 14.672373 
-26.909845 -4.588625 0.271514 
-16.733498 -0.039505 2.458985 
16.359945 20.842999 1.091329 
18.320127 10.447630 7.419014 
-18.424919 19.055687 1.344758 
21.905291 19.038876 2.979782 
-13.748143 15.343304 5.376523 
21.332979 -8.309512 4.631025 
26.292704 4.820265 9.190921 
-19.906921 -7.111631 5.622473 
-0.909782 25.895960 13.947507 
19.613241 21.531147 12.874806 
-28.178885 -1.653359 0.183735 
25.702168 9.531834 11.180295 
13.659474 19.883547 3.674562 
-17.995090 16.786808 2.103752 
-10.167868 15.280074 17.294703 
-3.581153 23.916790 0.326701 
21.040174 -11.300102 7.318487 
-10.378133 21.141493 2.802452 
0.091969 22.344223 15.948184 
8.522860 23.188622 3.191943 
-19.579634 0.838615 10.510926 
19.386089 22.349380 -1.094769 
1.088863 27.777287 2.682856 
29.891937 -0.914136 13.936431 
16.482494 6.344429 -1.155012 
15.486502 21.533514 8.152005 
-8.278794 28.946468 8.047980 
-6.809952 22.398916 12.426861 
-24.454353 -9.136749 0.210427 
-24.522667 -1.006791 -1.710327 
21.620758 10.373594 1.044954 
-24.223421 10.283244 7.030402 
21.314358 -5.220086 14.150754 
9.362861 22.321875 2.017154 
16.752686 7.579039 5.507413 
-24.279554 0.845384 -1.471140 
-13.314627 22.351048 16.577211 
-29.575222 -4.060212 -4.086625 
23.896215 14.669665 -2.511477 
-19.336050 15.384990 12.602161 
23.644695 12.689902 1.154604 
-17.160931 -2.972982 4.183723 
22.493759 9.041642 7.571999 
15.407238 8.851288 -3.272151 
-3.596811 27.728430 -0.274227 
-26.932438 -4.281257 7.821301 
-18.975859 7.014388 12.596000 
-8.127312 17.153265 -4.174132 
29.457848 -14.126948 2.211381 
18.483376 6.881369 12.669091 
-13.326553 17.042059 13.564590 
-0.211886 27.446022 2.503534 
28.150211 -2.562598 5.142370 
17.328642 20.206686 4.644383 
8.568021 24.926064 19.247255 
16.078726 18.133215 5.224835 
24.699329 0.007530 15.076867 
-28.338772 -0.255873 10.943679 
-6.335726 24.609503 0.518092 
-22.510080 -14.173807 5.975966 
7.648664 20.482702 -0.931367 
-6.366815 21.322044 13.062950 
22.397791 -9.941883 8.052236 
-30.838318 -5.762501 16.892878 
-30.706764 -10.847162 2.608200 
7.613602 25.817070 14.165505 
1.009830 26.170336 2.324161 
-8.160390 27.671265 2.493982 
-25.780083 0.645031 11.784270 
12.344908 26.565172 10.706984 
27.609943 3.553329 13.147172 
13.555738 24.895733 0.521840 
-23.799761 9.407999 7.025995 
30.433504 -4.508342 0.523085 
-25.989309 0.788056 5.895775 
-6.302920 27.376722 -1.917466 
-29.541388 -2.337443 12.367860 
-22.186739 -8.964511 13.880315 
-22.239651 -0.626882 7.966926 
-23.699512 -10.111141 9.978653 
-24.980452 -17.580492 15.491292 
-19.886576 -4.076120 -1.956807 
14.826711 10.817309 -2.095707 
-18.739180 -0.878094 -1.660310 
26.552637 -8.128107 16.321009 
-16.828098 1.452607 -3.204527 
-1.305904 18.798243 17.695505 
0.670906 27.902481 8.023817 
16.802746 13.818645 -2.233588 
-26.249287 -6.631146 7.825788 
24.941725 -8.569499 0.835940 
-24.260654 11.037251 7.680035 
-18.760078 12.678782 8.618128 
-0.419628 24.932373 16.402128 
25.966303 -0.456379 7.839924 
21.134226 9.806070 -1.979601 
-19.693741 -7.506270 11.798009 
31.118820 -10.805964 2.723695 
25.212170 -5.321227 0.664906 
25.257488 -2.209279 15.205950 
-12.732525 18.663225 12.619683 
22.254982 -7.414597 11.205898 
-20.815136 -1.026075 9.170094 
26.829676 -13.901115 10.070862 
-16.910343 14.839451 12.019949 
22.855145 14.738227 18.580378 
-21.709093 14.909709 2.406515 
-23.353361 -2.432906 15.072536 
-21.303091 5.544538 0.754620 
-23.568840 -1.489281 14.903026 
-23.948605 -15.784602 15.505506 
-27.876078 -14.907229 8.915509 
18.081678 8.945814 11.828813 
-15.504047 11.756825 5.507894 
-17.721327 9.404839 0.190538 
14.935249 13.955746 9.754217 
20.335770 7.578449 14.427121 
-13.727177 25.636194 7.765814 
25.115808 -9.544925 16.462475 
-21.806761 -0.236340 10.041305 
10.137640 23.086376 -1.597086 
-9.144267 16.961893 -2.497397 
-25.166172 9.244064 13.361726 
18.823584 15.517902 8.393666 
-0.311671 24.324396 1.067096 
-28.819340 -16.955498 14.100307 
23.805540 13.110445 7.749217 
24.046471 -6.827305 13.875211 
14.511616 21.087160 6.282425 
22.607872 15.867571 16.830004 
26.273771 -4.995081 5.878269 
-29.467562 -2.889718 -2.771496 
6.173466 29.127077 12.307024 
26.576138 2.592968 13.040830 
27.834015 2.706586 0.850506 
20.859964 3.493855 7.224763 
-30.747261 -7.014705 -0.870138 
23.521778 6.310816 3.831752 
-23.739267 -17.538254 11.607783 
-28.403948 -1.562780 4.185236 
21.456758 16.671556 7.876406 
-10.913884 23.712955 6.343813 
5.188576 27.485239 1.674772 
-18.746498 2.681341 2.974594 
15.136455 7.196644 15.130638 
9.507515 22.081764 -1.472298 
24.736694 5.914401 13.431664 
-17.410921 0.249882 15.345263 
-4.014124 21.208881 17.283619 
-22.661762 14.014954 -2.481199 
-24.999470 7.988451 8.859715 
-3.487420 26.213921 19.212193 
-10.514399 20.104448 3.604489 
-5.293440 26.073112 5.688856 
-10.526654 26.446661 8.103941 
4.105666 19.901289 15.093016 
-24.802486 1.010129 10.231780 
-16.540628 10.546671 6.560568 
-0.397988 29.652508 9.757808 
19.354633 -7.488045 15.224141 
-13.575571 18.171688 12.844334 
-8.507563 17.925814 -1.970119 
16.148151 3.910909 17.186375 
-21.090578 1.297701 11.142150 
19.707989 0.436967 -1.836212 
6.765388 17.758028 16.405371 
-1.207866 27.668755 14.355028 
-27.189209 -3.048680 13.072885 
-16.792238 13.805037 14.851925 
-6.674361 24.789938 20.605682 
26.932808 -1.302848 7.687886 
0.424974 26.798143 2.808415 
-25.164013 -4.818038 -1.163550 
-16.424774 23.318562 -3.239916 
-18.647804 -5.057776 17.658566 
25.312582 9.565340 -0.253077 
27.014708 7.922391 12.090631 
-12.088223 24.270321 18.006294 
27.382160 -4.028575 4.185225 
-9.334625 24.692921 13.442251 
23.611046 -15.341174 -2.290482 
20.127890 5.157420 2.003871 
-32.784431 -16.528099 10.431235 
25.703627 -16.773722 3.697184 
17.167309 23.484652 5.032645 
-20.349377 11.454844 2.938282 
-22.841410 3.562593 7.891394 
15.954876 16.323389 10.810511 
30.465239 -1.734130 17.355717 
-3.534766 27.220116 -1.351658 
-18.738653 18.301414 7.999130 
23.590782 -10.269401 7.464805 
-16.856737 14.693254 10.722475 
26.831930 -15.614324 10.685727 
-25.619177 -7.118093 14.975231 
-1.070305 28.027189 11.269810 
-22.634340 -12.238306 10.300279 
-0.996181 26.819370 13.285007 
-16.940884 20.202971 5.603008 
20.034302 21.727570 -1.973106 
2.193510 21.223549 17.320690 
-5.426364 23.963175 4.005994 
12.489103 22.728125 16.538164 
7.945661 22.702412 14.621187 
-25.422804 7.628539 10.288261 
-17.750517 22.757189 10.752748 
5.173421 26.119677 18.653053 
-10.933322 18.656780 13.488015 
-20.014334 -12.479485 3.229889 
-0.786903 25.193773 13.074730 
5.367675 26.662643 3.768000 
-27.490726 -16.569668 7.661862 
0.472149 25.465822 15.361810 
28.813395 0.851877 13.926657 
1.903364 27.392717 -1.559988 
-25.029816 0.083931 -1.371456 
17.617641 22.509752 5.248199 
-10.551470 16.770115 -0.367805 
-23.921486 10.629754 1.629572 
16.516586 7.534225 0.044000 
12.886699 20.777794 15.909698 
-23.030718 7.634223 -1.320261 
31.739418 -13.115743 3.636174 
32.097324 -8.671837 -0.477148 
-18.743948 11.244483 8.224474 
17.896463 18.663437 8.898767 
13.246848 25.591082 8.670756 
-15.337297 12.810515 -0.136177 
-15.527005 7.113434 2.550246 
19.788240 4.522896 3.080751 
-22.868483 -9.891121 12.221610 
-18.288902 21.446829 -1.910101 
-2.463893 27.142546 17.019091 
20.054443 -5.452453 13.660050 
26.118101 -6.068375 15.019338 
27.579603 -3.899664 2.938892 
-16.168100 9.761523 3.868083 
-16.742212 12.130730 7.693325 
21.184761 -8.313738 5.625242 
28.024910 -9.291408 9.586826 
20.127798 0.332809 0.914296 
-14.665164 8.115577 -2.428841 
-32.987003 -16.349543 11.989500 
-27.719484 -14.129235 16.917587 
-4.542414 21.320190 -0.256755 
-18.559574 -4.301913 10.106017 
-23.475163 5.853779 7.268006 
-29.054501 -0.790856 0.059093 
19.567894 22.418470 -3.114407 
29.234373 -5.696800 2.953970 
29.097265 -2.573248 13.350110 
32.262360 -12.970307 11.756222 
19.005520 7.122705 1.032666 
2.233296 28.351583 -0.354092 
16.294411 18.517065 2.067349 
-21.574825 -8.573658 3.693139 
-8.724573 23.956602 5.170088 
-24.492029 -4.964274 15.337163 
-1.981171 23.632193 0.321209 
25.497646 -6.224226 8.388319 
-19.772299 -8.011950 18.687265 
-23.046883 -7.514223 3.023676 
17.669430 -1.807045 3.471191 
-22.410408 -14.187457 14.742021 
-18.011261 14.958611 8.993742 
-5.124022 22.203068 12.673426 
-24.522352 -13.727979 -0.741154 
-1.364352 26.230297 0.422448 
-21.130724 19.406439 10.761212 
-5.690998 27.088367 9.337494 
22.525267 6.691220 15.651478 
-14.666178 14.738894 6.132821 
20.355267 -12.240032 16.008049 
-14.695377 20.159681 10.142882 
14.617684 11.340359 15.810970 
-23.562204 13.390105 9.322422 
3.739529 24.928204 4.175920 
1.196268 25.035751 2.574802 
23.129103 -14.703054 11.220022 
-26.014610 -16.949661 16.071697 
-20.167837 20.952900 9.235931 
16.920317 8.100750 1.213079 
6.672368 26.476181 -0.375083 
-16.513416 9.222613 2.110301 
-16.046251 13.190804 1.849177 
14.799319 6.967770 18.100855 
-10.350723 20.268450 2.191876 
-23.688360 -12.422109 12.236476 
-25.890253 7.663788 13.043987 
7.208400 20.322250 14.854994 
-21.701424 -9.661433 1.864832 
-23.029909 -0.438091 10.817354 
21.114548 -0.544696 14.515347 
26.315985 -7.982500 1.105704 
19.369036 19.315908 20.069345 
-14.856362 18.281475 5.491936 
27.843044 -7.739296 3.745162 
26.394142 6.452592 13.680114 
-20.518627 -6.336453 6.202373 
-15.136824 6.469409 18.135395 
-10.370803 21.162907 1.958927 
4.847567 24.205805 11.750169 
-20.456249 -7.342811 4.794804 
25.858791 9.002569 16.212259 
-23.676281 8.870116 -1.038474 
-8.759220 19.326469 0.097296 
7.211814 28.413385 11.230781 
31.885405 -8.845065 -2.700904 
-12.812839 11.182642 -5.092211 
21.476450 -13.101000 11.809029 
20.087030 21.563757 -4.188684 
-24.542021 9.925849 -0.349914 
28.465820 -16.306427 2.799617 
-11.322948 26.517277 7.767787 
-17.087620 13.908330 12.590293 
-23.190863 8.925079 13.068719 
23.851843 12.202949 3.721076 
-28.792725 2.066356 17.971006 
12.475789 22.670113 0.704313 
-21.860146 12.592140 14.064118 
17.089252 21.121996 7.854126 
-11.310677 24.957539 7.525100 
-11.123099 24.550922 16.997530 
-28.355259 2.980966 14.946750 
-26.070604 -0.214033 1.504956 
12.292643 18.765469 1.552237 
30.876657 -10.616940 8.514467 
9.664733 26.236183 8.043699 
-7.765247 19.899324 -0.029788 
-14.910380 21.968325 10.228687 
-3.796711 25.902815 -1.387599 
-21.806026 15.239264 -4.128302 
13.499190 23.349535 18.830374 
-3.923839 17.658028 19.356375 
20.411192 -10.003438 5.916971 
-20.778801 -11.856853 13.130913 
22.656040 12.368616 5.250253 
0.593476 27.482828 4.975986 
-21.494017 -9.266689 5.552930 
6.558516 21.143425 -0.756341 
18.610609 18.432631 14.863780 
18.440880 0.549166 12.244260 
30.842337 -13.037235 2.812064 
18.488548 5.407585 6.325253 
16.722536 17.012939 6.413198 
15.468413 23.394943 -2.076607 
-22.087753 -4.503027 14.949923 
26.039368 -1.315403 8.159047 
-16.755377 2.583539 14.727177 
28.730511 0.480592 7.590707 
11.644576 25.604750 5.560215 
11.925630 23.271042 17.555519 
-27.420500 -8.224428 13.627515 
9.217522 21.783628 1.254286 
26.749046 -18.055946 3.929984 
-18.758667 20.642139 -2.998623 
-0.098748 25.289955 13.651983 
20.404907 -10.098372 6.914628 
-25.982807 0.972140 10.908088 
-30.736752 -15.230636 17.084791 
16.077522 24.019112 13.357328 
-30.704617 -5.812998 15.315913 
-7.981332 16.569269 18.061329 
-19.601566 13.309918 15.755473 
6.961234 24.908094 9.758368 
-20.693787 -11.521176 -2.470058 
12.950379 23.967129 17.068151 
15.890760 25.819241 0.959905 
12.191733 23.328434 7.586426 
30.354677 -14.762027 6.652127 
-24.767578 3.695413 5.177422 
-25.234873 -1.324943 7.921747 
6.680082 20.031855 13.782440 
-26.825859 -8.312492 0.822502 
-30.981058 -6.790176 15.933488 
-25.928694 -10.724600 15.804660 
-20.008757 5.114740 14.093733 
25.562422 -3.866457 7.825858 
25.564590 0.438191 7.767765 
-28.006317 1.242329 -3.450989 
-5.339485 26.277081 9.025177 
-19.273207 11.467361 3.054205 
22.715155 6.439748 -0.344835 
-13.054831 20.618713 11.486566 
5.124656 26.259806 -0.048396 
-8.961706 17.460995 15.663167 
18.394196 -3.939107 5.944161 
-31.919163 -17.252247 14.337219 
-10.257664 22.207127 4.742666 
18.951691 12.731647 2.740327 
1.402075 21.448792 13.488914 
-20.797010 -11.424995 1.756370 
-21.559252 0.463312 6.738139 
6.147434 26.361826 9.724868 
-4.014078 21.909887 17.890177 
32.028168 -8.756496 -1.521966 
31.058403 -5.558877 -2.988915 
16.403952 23.743286 8.436457 
-19.474083 -6.916987 18.768900 
-20.089241 -8.161255 10.570639 
-29.145300 -1.598316 12.916286 
14.431245 11.990353 9.175031 
-21.733282 16.997416 18.732483 
-25.105516 10.514591 14.747944 
28.949999 -17.283327 7.096420 
14.481287 23.047655 9.366108 
18.538919 13.090732 0.132396 
-21.212000 18.705273 14.048138 
-6.829465 26.993692 -5.214125 
-20.020527 -10.130754 17.067432 
-29.566515 -18.549212 13.687020 
-13.708164 13.624945 13.351146 
19.589066 16.400448 8.038588 
7.508137 22.003593 13.604683 
-25.022667 2.866750 -0.486631 
3.283951 19.982689 -5.569806 
-19.798042 12.335158 5.368851 
-19.404959 19.433229 19.556019 
-22.310572 8.736177 7.896592 
-4.185009 26.633947 10.312613 
-19.047419 9.332092 12.669783 
10.442476 27.494806 -0.368155 
-12.634755 25.828892 -0.611068 
22.333069 0.892815 11.490315 
18.772009 9.445620 15.900757 
29.385689 -10.239270 9.484447 
15.009560 21.821648 16.115250 
14.911920 9.781014 12.502779 
-29.327057 -1.860872 -0.933562 
24.918747 3.701371 -0.717673 
10.909634 24.058617 4.410279 
21.006136 -10.083809 14.629597 
-0.822645 28.237661 5.715727 
-23.140266 -12.018343 -0.895689 
-27.712934 -17.093739 1.350536 
25.335266 -17.049528 13.230746 
27.018349 -10.072902 17.016554 
25.041155 4.142615 12.758893 
-28.284897 -0.345551 3.120465 
32.465481 -11.239519 -2.491407 
-15.987703 8.045402 9.812232 
20.128597 -1.744759 14.249757 
-8.812533 23.447191 1.070653 
21.648390 0.439379 6.609864 
14.296017 23.047825 -2.132404 
-0.145953 28.486923 -2.561291 
-26.005301 3.515304 3.670350 
-23.402731 0.812640 10.976564 
30.268375 -16.532331 5.696111 
-4.590094 25.708855 8.052529 
-26.045547 6.425841 13.400078 
21.175583 4.322917 6.706951 
-26.008078 0.280519 12.804232 
29.674572 -16.403122 7.675323 
25.881746 8.705048 17.950865 
16.974720 23.474440 14.992185 
18.739407 16.502453 12.169205 
14.730144 23.790859 -2.069090 
14.883417 17.114248 5.230265 
-16.389587 17.969807 0.536638 
12.327319 25.163399 3.689104 
-15.166075 11.063651 10.629121 
-29.981705 -2.728914 18.099318 
-21.169058 7.442599 11.973964 
23.229965 1.285801 -1.645512 
-28.596172 -14.024327 14.530221 
23.200703 -2.608076 -1.518672 
25.221992 -6.309500 14.921958 
12.108529 11.413000 20.253986 
-24.713179 -15.237087 1.941480 
12.550131 16.318094 13.246825 
24.807287 10.349446 8.519681 
-17.789644 1.190403 1.243750 
30.870007 -14.615622 3.434205 
0.113309 22.331713 16.936869 
-0.861768 21.561743 14.008463 
-22.144678 -9.265833 6.133413 
22.534645 -2.603813 6.691697 
23.801249 -16.921703 3.581221 
24.335451 6.048256 15.561729 
-28.577606 -11.356213 16.665312 
30.086676 -6.505763 15.733702 
-17.976374 3.336991 11.328873 
-17.259481 13.187724 11.871244 
-4.846903 25.665033 4.355460 
-9.610755 24.251513 1.816145 
22.811300 -10.398206 1.043766 
20.264341 13.549477 0.394772 
32.675541 -12.581694 0.535337 
29.242393 0.923167 -1.325212 
13.448532 24.574778 8.430302 
18.724596 -3.406548 -1.249348 
14.008821 25.755732 4.999904 
20.144154 13.361642 1.334474 
26.438030 -6.963498 2.993523 
17.949306 -0.765172 -0.130036 
24.284039 -6.158411 3.864068 
-18.519899 -3.608860 -0.104742 
-26.072115 -18.679594 12.746472 
-11.130767 22.315090 8.386326 
13.330846 16.384243 0.296241 
-7.565093 17.158997 -5.507717 
17.838158 8.987555 12.731321 
28.503078 -4.033206 13.204728 
-16.564335 14.256182 15.663014 
9.672398 28.079412 -0.183776 
1.325217 23.908316 14.924177 
10.041087 16.721935 15.186792 
22.203629 -14.692133 6.212817 
6.777697 29.154261 8.509174 
6.601003 29.532982 9.810047 
15.909653 17.391840 -0.071542 
19.570005 19.895578 2.818192 
-10.793070 24.310495 3.696013 
-19.740921 -4.327167 5.741430 
21.824982 -4.980928 12.300954 
-20.329464 18.471949 -3.088259 
20.283989 13.108377 5.523653 
18.371132 13.379480 -1.842740 
23.310539 10.090170 7.642732 
17.315088 9.100939 9.419774 
-25.392651 -18.344213 13.241199 
-0.348842 27.819469 8.605742 
20.997147 -4.957806 7.240681 
1.697596 25.786377 19.270014 
22.964874 -6.243615 14.172305 
20.974478 -3.165551 1.363786 
20.126888 15.657292 15.356600 
32.326702 -9.000692 18.846954 
20.380846 11.856840 2.441057 
-25.061365 5.933157 0.377326 
-17.961365 11.812368 16.286478 
-25.799702 -6.476197 12.437742 
-16.652647 19.736130 4.960958 
-14.608206 19.134733 5.787252 
5.523375 22.766737 15.181746 
-4.034047 27.425058 -5.053787 
-19.907032 -10.151237 14.767627 
19.035679 19.453650 5.925920 
-2.978043 18.571089 17.229580 
13.396104 22.931633 13.921459 
-25.455849 -3.743226 8.901260 
-13.243778 25.216982 4.035826 
-26.051212 -5.119483 6.613146 
19.683716 13.065343 2.133943 
-26.862019 -6.989807 4.144717 
-21.042007 14.100635 4.805126 
25.319212 4.978699 3.249004 
19.055666 3.252938 2.377224 
6.937504 25.765064 9.699643 
-16.565508 22.667831 -0.002057 
24.929430 -2.122387 1.804155 
-1.840477 23.230404 13.719888 
-16.308285 3.499057 -1.515434 
7.918705 22.100187 11.723993 
23.763573 3.483877 -1.071681 
21.276701 15.050535 -1.622741 
20.088625 2.670419 5.855981 
28.298443 1.537706 0.274009 
-2.226457 24.885023 -1.967106 
6.987919 21.982214 12.505080 
-10.541487 23.379730 21.030676 
-12.902933 12.315865 16.133520 
18.138845 23.443420 12.518343 
-31.280994 -17.913300 13.954093 
10.870085 19.539404 0.336139 
-27.172415 3.282185 11.101303 
12.713885 12.229943 15.542321 
-18.350595 -2.883647 19.069712 
-26.180464 2.458794 12.386039 
-23.455667 -10.148031 11.109090 
-15.226691 15.271503 10.876954 
20.002148 18.753853 13.589019 
4.578168 24.422857 16.518507 
29.662195 -12.241098 10.396798 
14.786184 24.117851 10.576830 
16.348206 7.706201 12.201279 
25.101084 10.637455 3.969895 
32.254463 -12.982578 13.272329 
-6.372240 27.829109 0.532299 
-17.414171 17.695244 2.332478 
-13.856006 21.272213 9.777007 
19.402626 12.040203 2.440253 
19.211481 -5.261106 5.244984 
21.052202 -1.496840 -1.867434 
19.811914 2.851595 14.098446 
-15.146482 16.367756 16.448231 
-14.279831 8.390882 19.914730 
-20.854898 -13.926624 13.163039 
-9.306676 27.557095 11.933729 
9.348672 21.642183 0.010562 
23.814838 -7.894798 2.409480 
-10.932604 24.151451 9.882968 
-27.196463 3.853899 9.364547 
10.390391 13.808469 19.128479 
-25.901646 -18.104523 5.691165 
-3.332692 28.229258 7.824791 
-16.428795 12.866199 -1.862069 
-19.605045 6.834390 6.924520 
14.968421 16.239475 11.283650 
-10.772083 20.479048 -1.290032 
-20.419548 -10.626714 5.475253 
-10.395372 19.155632 -0.355356 
-27.669443 1.230759 3.162885 
-28.549976 -2.209073 3.027614 
-14.935900 17.440998 2.995082 
22.790699 -12.365961 8.313533 
-0.282283 25.240662 11.559574 
24.729467 12.102232 0.067285 
-11.882786 24.267023 -0.018815 
-2.887932 20.829502 15.180258 
-20.815809 -7.482073 3.482028 
-19.870966 16.632376 6.684018 
-11.818500 12.545501 18.950073 
-2.895114 27.170059 9.498446 
-1.050943 26.277481 11.832722 
-21.242334 -9.460763 11.374304 
-31.005901 -12.060027 8.838010 
-15.797935 10.024078 6.969929 
-22.710987 -11.516210 10.947330 
15.593815 13.439440 4.973530 
-15.178378 18.509560 4.514549 
31.228746 -13.085537 7.500658 
23.377134 -5.375610 14.531427 
11.334930 21.310747 14.030993 
3.241942 29.390308 12.435063 
-30.693016 -9.851295 2.898854 
-19.546089 8.327711 12.150161 
16.019749 9.214668 13.564639 
-24.837685 8.515295 -4.035032 
13.894422 26.290136 -3.527872 
29.593386 -15.612850 5.926827 
-15.738280 24.417845 -0.089558 
-29.398880 -0.146210 16.808884 
-15.839657 6.033913 13.925142 
6.781639 23.506214 11.594327 
5.899394 29.756889 10.347842 
-6.237264 21.707567 0.608477 
12.815765 13.384809 -4.865310 
-8.326943 23.341463 14.895141 
-16.915504 15.940594 9.299417 
-16.157768 24.063148 9.508886 
27.785345 -5.848918 13.264496 
21.268726 -10.043818 3.126607 
27.724333 3.153118 1.558146 
20.792286 14.480321 17.371021 
-13.427649 25.539774 1.657101 
19.414347 3.144318 8.687614 
-21.958529 -16.433678 16.174536 
-24.891361 -18.073217 4.693134 
-14.673225 17.932629 6.548460 
-26.833483 -7.097157 14.887333 
-23.895679 3.351006 -0.655727 
17.035620 9.029058 13.304990 
-24.543556 -3.700577 8.706152 
-18.857924 18.718357 5.245080 
21.896603 1.619784 14.295977 
19.519014 10.852763 8.216332 
20.755447 -11.696170 5.406695 
26.211399 -8.410154 3.541593 
-21.899956 5.669180 1.570857 
5.108354 26.378044 8.792249 
31.979385 -6.794199 18.157478 
-30.267450 -18.357122 10.815192 
21.547377 -12.866312 10.976557 
23.087599 -5.161640 -0.737729 
26.151827 8.102010 -0.351573 
22.708673 17.946548 -0.693703 
22.689636 -7.464839 8.514974 
16.177425 23.437622 15.239830 
-1.288225 27.961535 -1.825544 
7.672515 18.322647 14.777088 
15.904883 9.442323 9.868569 
-16.547905 12.729418 10.820697 
-22.192648 -7.482632 4.773458 
3.754939 28.723236 4.937416 
32.441795 -8.644640 16.790310 
-26.736092 -10.346214 0.049888 
-2.082834 27.328781 9.040756 
-17.820076 10.285558 7.112493 
-15.981747 4.545366 16.303284 
-22.375383 15.810117 15.348956 
-22.893324 6.455868 2.278555 
-23.579964 12.017254 -1.646932 
-0.055658 24.465122 17.751463 
-17.004820 12.834987 12.638270 
-22.449007 -8.245098 3.192056 
-25.782301 -8.285077 0.795460 
-19.489338 17.518393 -1.532385 
22.291248 17.200489 4.240413 
-19.187944 -1.004069 11.919562 
12.299934 21.100771 13.605514 
17.336758 16.080166 7.540514 
-11.886754 14.467634 15.392920 
-14.945786 23.194345 15.314276 
-23.520908 8.996635 11.960051 
28.505196 -10.123615 9.725331 
5.440166 28.305674 7.789010 
18.182680 10.575909 16.914927 
29.472023 -0.219191 10.929998 
-27.469381 -6.097079 3.417181 
27.722359 -6.396311 4.945426 
-9.308593 16.783880 16.127180 
21.560802 -8.912066 13.957312 
-32.813637 -14.663478 18.141315 
21.782885 8.140332 12.224095 
-0.281459 23.983810 1.931719 
-30.062490 -2.512069 15.810318 
23.794952 8.335891 0.928338 
12.413497 24.635576 1.294472 
13.318064 20.979916 13.381341 
4.361997 26.913857 -1.764803 
14.237861 11.203710 12.097053 
-24.707338 4.077604 2.693410 
23.297922 -16.074806 18.287897 
-19.692717 3.640710 2.976892 
28.063559 -16.984423 14.252192 
5.125817 28.059311 -3.909117 
24.142275 0.857084 14.883512 
24.721277 10.372177 13.658051 
-17.728081 6.993566 10.413502 
25.864809 -6.076338 13.253115 
-27.197554 -9.651022 0.437207 
-19.848022 11.873951 4.164871 
23.126488 15.161239 16.361547 
30.874990 -14.418352 14.860299 
-8.679022 23.950792 13.887733 
-16.823931 11.234562 11.965309 
5.469625 23.386837 17.941483 
-28.939449 -2.223925 14.195930 
-1.059605 25.682320 6.859894 
-19.500046 16.255798 7.404308 
16.985779 15.986343 12.081801 
20.596125 7.526309 0.999472 
-19.358337 20.139799 17.089327 
-1.526882 24.824261 15.071148 
6.975698 21.043163 13.170304 
13.400714 15.384055 14.432952 
-22.658623 0.108767 11.636029 
16.383396 13.654173 6.820685 
27.901691 3.567261 19.748966 
28.152428 2.209048 7.151039 
-22.159771 -14.211721 10.167254 
27.856144 3.150546 2.902907 
-29.501276 -20.167309 15.529288 
20.940111 3.248275 0.095069 
17.660210 -0.774908 5.655544 
-23.571896 -12.476839 6.612101 
17.903240 17.832638 9.640897 
22.715464 -15.967494 14.927134 
-12.638647 21.249474 -1.919680 
-1.893158 23.056065 12.792587 
-11.660486 17.767494 1.922962 
-21.675682 6.684333 7.343997 
-25.519417 -7.101067 5.844664 
-25.226347 -18.327061 10.169817 
-16.150469 9.749167 4.882024 
17.659037 18.618845 7.531523 
4.595939 25.114292 4.280546 
-0.841667 25.576317 20.562454 
-7.510057 25.178110 17.959682 
22.326902 5.696466 2.685569 
-23.254528 -6.138209 2.670743 
-26.902126 -14.071340 16.739563 
-14.921858 18.256224 9.943108 
10.373429 20.484478 0.879175 
-18.139482 -5.622797 13.613865 
-27.989189 -18.305391 1.898954 
-25.737181 -18.816576 10.709027 
-4.390994 20.835711 -1.072470 
-23.486122 -15.482174 8.403771 
19.795536 10.226209 -1.881161 
26.070421 -0.090629 -0.959533 
-21.656828 9.958768 -1.750074 
-17.535862 2.072729 12.317842 
25.035444 -11.631336 7.910315 
22.758751 -8.486174 2.493223 
28.685081 0.700920 1.511346 
15.813335 19.192085 9.806993 
23.966185 14.115129 12.087654 
22.996857 -5.985906 6.115149 
-21.236433 -13.420945 1.592620 
20.178720 -8.128822 0.222425 
9.561357 27.762819 3.648536 
14.046478 18.332029 1.458251 
25.551151 10.392365 2.685174 
31.674780 -5.858817 19.074474 
0.792083 30.016701 9.475348 
20.354094 19.184153 10.755054 
-7.569287 21.645899 -0.923410 
25.559284 1.302206 7.531358 
-18.548529 10.807152 2.041828 
24.379055 -7.544538 15.390568 
-9.384550 27.115421 0.569766 
-24.507748 -5.739471 3.051649 
-21.134136 -4.582511 14.644019 
-21.597933 -6.661958 6.044019 
-8.325436 26.291800 16.014402 
19.298195 21.510365 14.882499 
-33.277676 -12.579517 12.008141 
-20.577276 18.086222 19.945322 
-19.660278 13.246585 7.504523 
