-5.074954 22.615313 -1.636863 
-19.317850 -5.910798 7.595464 
-16.175848 20.044207 1.264686 
-17.936249 21.069254 -5.474857 
21.314659 -8.866341 -0.242077 
13.481766 15.596511 -3.200599 
-18.998205 -3.023576 9.134327 
14.754257 16.218704 5.216061 
13.363999 18.413710 -4.423505 
-18.353968 21.153812 12.885431 
4.577842 30.777010 0.507524 
21.685339 -6.303268 8.124801 
28.316294 0.817782 8.309937 
-12.630264 25.957533 9.695276 
12.010578 26.923651 2.221737 
24.608490 10.194698 10.280354 
-10.936450 21.306236 5.774657 
-27.330460 -10.834618 7.900251 
25.662432 7.226808 7.642761 
8.101999 25.630926 5.697460 
24.533852 11.451628 -3.084624 
-28.139423 -15.138477 2.101110 
-27.074411 -2.842704 6.860643 
23.751350 -8.399604 6.785607 
-23.583157 10.516954 3.399503 
-22.414591 8.118115 1.157965 
17.628153 6.127579 2.678641 
16.186962 11.535821 6.912380 
29.504778 -8.718554 5.909548 
-29.828836 -12.325326 5.061382 
17.096930 9.626348 4.627403 
-21.661953 -5.077341 5.233398 
-13.332413 24.790630 -4.326468 
-18.505981 -2.401746 2.054783 
24.997488 -5.955963 4.478800 
-25.525467 -5.017647 4.839099 
-25.723856 8.573151 -4.432904 
2.906271 30.434669 13.051877 
-10.427958 23.515381 -2.358954 
-3.985962 26.596403 -2.360916 
9.046326 24.888857 6.014343 
11.139211 19.445707 -1.446377 
23.333374 12.609910 -6.660715 
-28.179447 0.505838 0.666185 
-20.058609 9.802673 4.082894 
-18.919031 14.003757 0.893731 
30.148376 -4.131842 1.153183 
15.555629 14.185026 -0.079580 
-30.459454 -11.624767 1.616677 
14.445656 19.075432 2.256728 
-6.096863 29.799877 1.752436 
23.741478 -4.090682 9.787438 
23.118437 5.314151 7.270253 
23.628689 11.074348 0.130642 
-29.168568 -4.164422 8.307867 
17.149567 14.592847 2.989463 
-9.276270 7.023382 15.104889 
24.163013 -4.244641 11.496689 
16.255449 14.474846 -3.017178 
13.751857 21.088984 11.113519 
30.309982 -2.389838 11.582998 
-10.382000 14.064898 7.006651 
-0.639588 30.728462 3.776741 
-7.369977 23.356396 7.548889 
-5.169212 28.899038 5.073329 
26.916018 -15.306226 11.407794 
6.806796 26.391050 2.174484 
21.416441 -2.873825 9.615510 
-23.719990 6.040659 7.161061 
8.519844 22.565432 9.393012 
-24.384754 11.140442 -5.329273 
23.222843 -0.234641 4.023239 
-21.562677 9.308755 -4.623451 
3.456629 21.617496 -1.303916 
-17.406418 0.579943 8.446658 
-22.306181 13.418773 4.203293 
4.331526 24.428028 9.130534 
24.044609 13.017201 7.409070 
-24.656952 -2.380878 5.648051 
-31.308819 -11.210018 3.025249 
23.916546 6.051798 9.488358 
13.378836 15.300510 -0.176879 
-20.622198 17.285244 -6.051696 
6.193170 28.807714 2.446629 
28.255041 -8.770387 13.107376 
-1.265890 27.832596 -2.875365 
13.163886 28.186152 10.020506 
-16.984255 0.871694 6.630902 
-8.978874 12.384343 10.119986 
12.520254 12.608013 -4.352682 
-23.443403 -4.483468 8.592504 
7.254528 28.204178 3.988101 
20.890961 2.185955 2.805552 
12.291833 14.155882 -2.407523 
14.934656 14.270068 7.945135 
17.537933 17.588734 6.605466 
-1.123908 27.025341 9.037319 
-26.386557 8.358222 11.510087 
16.753611 8.067290 -0.533123 
23.028242 -9.278609 5.234540 
5.605397 30.162392 12.967197 
-25.560970 6.340479 -2.774997 
22.691732 -2.408633 -0.165405 
24.176876 -2.104147 0.140587 
-21.925465 7.383083 0.437097 
0.107742 32.346512 9.150259 
-23.252546 10.640847 9.199682 
19.711063 20.070921 6.153659 
-26.234682 -4.792269 -0.932110 
-23.499130 3.730847 -1.182908 
-15.378531 11.638226 8.774446 
-4.112762 24.185715 8.151641 
-13.133494 19.165989 0.425184 
15.994678 22.741352 -2.654722 
-21.106741 10.889951 10.147022 
0.426360 29.013771 5.528289 
4.169631 33.026375 5.576356 
20.189072 8.783086 4.210774 
-13.987482 16.886448 11.325100 
-25.916355 -2.124450 8.987661 
-1.675963 26.247915 4.300571 
24.526794 12.061892 4.913769 
-29.815783 -6.900188 12.507478 
-18.719658 12.987202 -2.074934 
-13.264318 25.130816 14.914882 
-24.856680 10.415277 -2.969446 
-19.340611 16.517052 -3.788989 
-16.506174 17.789789 -6.008640 
-23.948580 10.083707 9.181225 
-20.798622 4.653520 5.168677 
20.641687 19.073128 2.206233 
13.734529 13.690345 -0.983575 
19.687384 7.444610 -0.791942 
-28.649498 -12.218813 0.546847 
-15.952792 21.957708 5.779549 
23.768345 -3.684442 1.589998 
22.237633 13.824667 6.715812 
-25.221388 -12.590457 3.653492 
-20.109013 13.777850 1.980789 
16.923939 12.295914 7.642151 
22.430002 18.923084 5.306199 
29.366385 -8.300439 7.021883 
28.333082 -4.215519 12.304478 
-21.959303 -12.163590 -0.118176 
-19.028694 11.565593 3.756894 
-19.063381 2.500149 6.732508 
-27.891716 0.000331 1.237338 
-7.570303 13.687307 11.077965 
10.904254 19.547791 -2.595964 
-17.518217 8.800583 3.311576 
8.126496 16.557472 -7.501645 
1.188182 31.842415 12.185287 
-13.388752 13.527812 9.632971 
-21.041729 9.991856 4.069893 
19.661366 5.159302 3.186931 
6.282802 19.512476 -2.932759 
30.331329 -1.399941 13.083243 
-19.099094 2.785989 4.224424 
26.695892 -3.980043 -0.778309 
-12.000507 26.533188 9.858253 
-7.454638 25.359293 8.429486 
25.199791 6.632954 5.493003 
18.111374 10.826970 7.928885 
31.051008 -5.399765 9.350768 
-5.600475 22.155521 0.129897 
14.374208 20.385302 -3.278302 
-31.727415 -9.097043 -1.728399 
2.647166 26.169121 1.055834 
16.161430 27.112394 4.546857 
0.317379 25.309523 2.053345 
1.277337 33.305565 2.920309 
-14.079147 16.965742 2.114675 
-1.180561 26.621206 -0.989633 
3.010478 25.872904 6.177472 
-18.224289 6.304301 3.507876 
28.389809 -14.588556 11.572392 
-8.326579 28.854673 9.678604 
-0.982339 31.379684 12.810002 
-18.017988 2.547567 -2.611162 
-13.461415 12.814709 -1.675364 
-9.124537 27.985769 11.547994 
-18.698143 -10.129603 11.987903 
22.198103 19.210972 6.329309 
26.507347 7.727666 -4.711105 
-20.264769 15.075700 14.212692 
-26.740911 -3.997202 6.889472 
-22.177942 19.350605 4.863165 
5.646011 22.580444 13.288110 
-17.466944 10.122602 7.821448 
1.950067 27.171570 -7.795861 
-4.096169 17.165384 15.185813 
-17.783207 1.650147 -2.104096 
-11.314547 16.125206 4.604339 
5.602167 32.578194 4.428713 
-7.222665 23.018454 5.013074 
28.855326 -1.933843 8.813940 
-21.809490 9.094316 10.773578 
-24.836967 -3.962885 6.633060 
-28.405193 -0.574037 5.917032 
15.449562 9.905789 -0.882457 
-15.630513 1.156880 8.580573 
-29.450361 -11.684994 5.820617 
19.920248 -5.783079 0.311198 
10.614972 22.964214 7.051782 
-18.159828 14.595818 -2.766104 
20.252205 18.780663 7.659944 
23.007927 -13.196422 1.990449 
18.513292 1.279999 9.013523 
19.850328 2.168688 9.746666 
-8.220973 27.080769 4.599813 
16.313658 20.534338 7.398077 
17.957632 14.758960 10.501325 
22.972355 11.116168 2.434368 
18.715399 -2.627925 -3.362742 
18.879379 13.748795 6.761180 
4.741867 21.654528 -2.912186 
-13.294824 22.450130 8.712233 
5.444697 19.846661 -3.031268 
21.473793 -2.519636 1.773289 
16.455269 22.842869 9.708833 
-19.347294 -7.263448 -3.996802 
17.215996 4.584309 9.215485 
-21.055664 6.998737 -1.035065 
-6.324154 29.746206 13.259318 
-20.280514 19.698761 12.782505 
-21.644655 12.099675 5.981296 
-7.804513 12.781588 11.327237 
-14.226377 19.088175 -3.492754 
6.210201 29.659674 12.762150 
27.688955 -14.370229 9.199251 
-10.681553 27.874956 7.284170 
-18.817030 6.190259 10.071526 
20.185068 15.962888 10.629595 
-19.673326 17.038118 0.079788 
-24.616718 8.736044 6.291782 
10.835156 25.966558 8.359232 
-15.307189 16.348463 -6.246968 
0.409201 32.761524 6.779532 
-3.435219 22.885742 10.174919 
-25.948105 -10.317382 8.623355 
26.409725 -14.082333 8.101583 
23.551004 6.473404 7.086686 
-13.341973 25.143188 -3.111454 
17.228910 5.873100 1.847369 
-13.217683 25.440062 7.762972 
17.424519 16.553679 4.003398 
-24.264275 10.985029 -6.117246 
8.952373 23.160595 5.408856 
-24.719078 -2.703635 -3.224711 
7.770596 25.894148 8.056386 
20.211012 3.197632 9.714437 
-18.238619 -2.022715 0.538534 
-6.651691 15.070711 11.986211 
-22.996624 -0.684831 4.240440 
-5.912153 24.997927 5.782652 
-11.067847 16.761572 5.948329 
17.637764 1.991045 7.121548 
28.704439 -12.328096 11.601246 
-16.512554 11.514275 -1.916897 
21.339979 -0.345136 3.541774 
-5.517783 17.774733 -7.878835 
13.905129 17.220409 7.582734 
-14.893419 -3.706461 15.022708 
26.956161 -11.690320 6.013057 
-18.606287 10.668265 9.065458 
0.823517 28.016542 7.253632 
18.087799 -2.987241 11.684265 
6.665085 26.788649 -6.516932 
-14.624477 13.366459 -2.316809 
28.260252 -11.760244 0.828564 
-30.338531 -6.435795 8.090735 
10.227706 20.903130 2.314204 
22.053595 -11.008503 9.159159 
-11.400595 26.223024 -3.681093 
-7.730654 30.129538 1.754645 
-13.731951 24.521902 5.595549 
-26.220625 -3.775849 4.260893 
-8.159617 26.891388 -4.300392 
10.250918 29.805840 8.852042 
-31.553526 -9.068908 2.177222 
-24.471928 -3.247650 1.366447 
-24.932558 -13.161620 -0.026746 
23.361774 6.493608 5.970914 
-4.259201 27.144659 4.480954 
-15.212374 15.894063 3.155922 
-24.964705 15.031603 14.736422 
19.887281 20.079380 -1.096253 
-15.158240 14.223158 10.101871 
-18.782291 4.519122 2.755255 
-28.213629 -4.065533 6.950549 
-31.565655 -8.572186 2.843996 
-3.876539 25.042109 5.276609 
-16.190226 16.779879 4.167603 
0.211506 24.643734 9.672350 
-25.354122 -10.445049 9.141577 
-10.556636 25.880821 3.994187 
-22.840059 8.099365 3.723687 
-27.813845 -6.401687 6.006063 
-23.509264 -12.635039 5.265634 
19.642252 -3.427606 8.562170 
-17.346792 4.239116 2.039383 
-16.795242 17.390469 9.905124 
-17.989235 3.000438 6.321828 
14.650748 18.627125 9.812891 
23.673111 3.136531 8.153366 
-19.278654 11.807988 11.033697 
-3.730421 28.920036 10.864092 
-19.910057 -2.776855 2.913413 
-17.464792 4.364752 0.275041 
-23.018183 6.430958 7.242837 
-21.079576 12.230850 -4.451797 
-17.710863 7.854256 2.719450 
11.728358 23.806303 11.183964 
-25.027176 -7.035470 13.979941 
19.569046 7.717055 -2.729818 
-26.226448 -4.768660 5.584638 
15.748678 15.886002 1.905955 
12.110115 22.355064 9.542053 
-4.642167 25.949890 6.832951 
-17.601717 13.783788 -1.430050 
28.219116 -12.924104 9.920014 
-8.724507 21.645147 8.697414 
-12.509941 20.449545 7.715854 
-26.169649 -2.782504 9.881157 
-27.439806 -14.431767 1.405854 
-8.932786 21.120661 -1.997465 
13.147572 11.657957 -4.123959 
14.822382 24.321659 12.017055 
15.590657 15.176920 2.378755 
4.181403 26.412762 -0.960999 
17.284126 13.455252 1.503637 
11.679572 21.344765 -1.138209 
-24.007206 10.843586 -2.645911 
-9.303506 18.987097 -2.493800 
-17.176722 20.802778 -8.523809 
-23.182621 2.121872 11.292521 
-15.145343 22.504427 -8.773273 
23.494446 2.886006 10.694795 
12.283075 25.184715 5.151751 
-13.315541 12.263674 7.669618 
-18.614845 -6.881981 8.615466 
23.627079 -11.000049 4.415294 
-2.482828 27.503267 7.801850 
20.031940 13.914534 -0.715839 
18.522533 -1.151509 -0.073937 
11.437110 28.074030 1.508849 
26.044510 2.146954 10.689071 
-30.733286 -7.141513 3.588220 
-0.916054 24.496061 9.465368 
-20.034504 6.113040 -1.352478 
-21.610670 18.946688 10.555439 
29.646357 0.392808 11.518425 
7.468464 22.128336 -1.638991 
-10.472365 19.625135 -4.728870 
-29.563030 -9.283422 6.183503 
-23.877882 -2.509481 -3.590455 
26.124756 9.184205 8.244282 
29.431170 -7.182022 5.734467 
-12.979167 11.608183 -3.898216 
26.618910 -7.159869 -1.362268 
20.084249 -3.166162 4.530169 
17.603508 0.905529 -0.473833 
9.615552 19.403742 -2.260992 
24.426401 5.026064 10.027914 
11.640318 26.023081 -0.657363 
27.816133 5.465124 9.174611 
-16.064627 6.929030 7.826339 
6.348353 29.150579 9.341097 
-20.719713 2.421511 2.759796 
18.415442 14.642773 6.989409 
-13.608699 20.813124 -3.381400 
-29.966339 -11.138885 11.380622 
23.252066 4.767406 4.460029 
6.118806 17.900185 -7.746016 
29.461649 -7.629475 12.996199 
27.231916 -8.292408 13.147816 
8.569409 23.464708 -4.563635 
-23.339300 -1.030070 -4.231841 
-9.822683 27.231333 14.314785 
27.587713 4.304722 4.788271 
14.761082 14.550036 7.139971 
12.265226 25.938705 12.023711 
29.217148 -10.315404 5.579229 
-18.166746 7.705601 -4.847574 
-2.133775 27.697044 -6.355535 
17.399094 12.809850 9.722396 
19.576256 18.788660 1.357754 
29.081463 -10.192962 0.445735 
17.484777 23.266975 12.234135 
-24.998465 -2.867112 -2.187533 
-25.559660 -5.740518 5.363666 
6.958789 21.580280 15.000167 
21.456846 4.534748 -3.879792 
9.463284 29.873247 4.502196 
-18.550850 -2.126096 2.826802 
-26.743353 -2.109205 10.001603 
-14.138506 22.102608 6.733904 
-17.409033 9.926017 -4.976861 
19.722132 22.972233 6.543349 
-7.788769 25.788225 10.690298 
-28.844366 2.184575 -0.932070 
-27.892075 2.433257 6.292290 
-23.789013 -10.845283 10.039246 
31.104551 -8.955998 11.575720 
-18.029398 -9.291801 13.262019 
-22.411270 -11.326360 -0.581560 
16.466251 22.360748 -7.133992 
18.920464 -1.737495 5.629573 
-13.600754 11.127216 9.677068 
17.694096 10.055324 8.178493 
-18.922401 18.493038 -4.967247 
3.367068 20.271278 -3.146409 
19.652103 15.733670 -0.733244 
-13.697237 4.390306 9.720787 
20.954178 -1.245804 3.971107 
23.382629 15.246683 5.315294 
19.080423 3.748931 5.495013 
-12.756074 12.484902 6.882552 
-23.965580 12.099368 -4.942410 
18.077192 2.793136 2.672847 
29.057953 2.340112 10.625323 
24.671705 -5.056729 12.078245 
14.985634 19.764013 2.733690 
-24.000151 17.534050 9.849572 
-18.290991 -0.091337 4.763303 
18.825602 3.156493 -3.620729 
-17.560169 2.634544 -1.529924 
16.662277 9.743402 -3.265254 
-17.664709 11.825345 -3.214348 
-1.857478 29.085632 7.998938 
17.903833 12.228027 8.085234 
-1.294026 29.305290 11.157822 
17.441807 1.868264 -1.164754 
27.613394 4.459181 -0.123433 
6.563692 27.557236 3.947829 
29.994322 -10.919975 12.410336 
0.686001 32.755791 7.533244 
-17.139116 0.735155 -4.505530 
10.834108 29.551924 11.902846 
31.090168 -9.773074 10.969250 
8.642359 24.909513 -3.264976 
-1.023098 31.164593 8.105959 
-17.842194 7.027590 10.088949 
6.956569 18.063700 -5.225564 
26.063261 2.431445 8.853341 
-10.950017 18.988945 -0.619259 
7.722991 27.105772 8.469323 
1.153365 24.733185 9.647346 
4.176763 32.512482 9.086816 
21.600456 10.495960 3.252355 
-7.263779 25.797499 7.285656 
13.577499 14.187828 10.723362 
9.274043 29.978178 9.836285 
-16.849646 14.753544 6.435863 
18.823664 20.007116 1.951270 
-18.754171 15.838367 6.740008 
-6.621960 31.131636 2.310652 
-0.604252 29.647022 4.879926 
-19.850149 14.020726 14.010174 
-27.416780 -3.662279 7.631578 
13.138144 26.556135 9.241603 
-27.830864 -13.867004 12.076447 
19.509436 -7.117772 10.116797 
-10.939059 14.400108 7.881321 
-24.945345 -2.653343 3.375253 
21.695820 0.394085 -3.576696 
-21.794626 -9.465786 -0.902338 
-0.892946 28.985746 9.357040 
-23.454033 18.021164 6.297522 
-27.065420 -8.850563 9.755582 
17.155672 21.762808 -7.130871 
19.275335 -4.299931 7.934639 
-5.475074 31.630934 8.503900 
27.625824 -7.608344 6.141341 
24.235237 -0.245418 10.828685 
20.941671 8.054824 -0.566897 
26.926357 6.193679 -1.777376 
-9.049422 24.811325 2.886970 
-20.702271 -5.754087 10.170407 
-20.885832 -8.156503 6.181167 
-23.083332 13.545403 -4.699592 
23.046387 -4.950031 7.748212 
-17.543333 12.300076 -2.214401 
-26.208632 -12.857932 8.603694 
-7.865182 16.143024 9.755708 
28.890753 0.838149 9.194079 
17.639904 15.476528 -4.681945 
13.793365 21.101709 2.129515 
21.993118 -10.238147 10.862874 
-0.102111 30.675915 14.546256 
-25.216236 2.266299 11.396653 
29.245983 -3.171203 3.061662 
-31.145487 -11.712929 -3.429892 
22.534822 17.785048 2.962707 
-23.462738 1.439745 -4.567256 
7.748740 30.566874 4.606641 
22.764565 -12.049686 2.002270 
24.672342 8.210656 3.756040 
-8.696232 28.463747 7.646612 
-11.730703 12.786176 -5.354894 
26.027256 -4.865501 12.393982 
2.320565 26.365717 2.962321 
19.540432 23.793968 6.865163 
28.518293 -8.634569 -0.439924 
19.241682 7.677942 6.815674 
-16.079803 6.728953 7.005765 
13.737487 20.327734 10.753923 
-19.421871 19.134474 6.244327 
-22.030521 1.241533 -1.157433 
-29.649145 -5.446712 11.588437 
19.848291 13.037305 4.007133 
22.902103 -11.991384 8.672709 
21.409664 8.553619 1.329010 
12.150149 19.933207 -1.384861 
-9.205845 27.255915 10.755530 
-25.502733 4.015270 2.902841 
18.486382 12.876362 4.172407 
-27.909653 0.123209 -1.453235 
-22.608944 10.664663 9.809635 
-22.134581 -5.584871 12.174165 
-20.946733 16.461725 -6.768859 
1.897261 29.136717 12.404187 
-25.812323 0.819508 -3.713057 
26.521795 -0.315814 0.517502 
-12.999278 16.168510 -3.596188 
-29.136070 -13.520086 15.176077 
7.245246 30.749102 12.622067 
22.079752 9.341388 3.590675 
16.180746 9.677401 2.097562 
-2.630611 26.372316 3.835388 
-1.931392 33.150795 4.132256 
-24.016001 10.216307 -0.366836 
-5.815513 29.071947 3.601354 
18.965153 20.297279 7.353449 
9.154692 26.579983 2.689596 
21.144203 3.241524 3.458750 
19.707476 6.301423 9.121004 
-22.898697 10.386193 2.041565 
-3.292726 18.804249 -8.016651 
2.288144 30.793261 14.612463 
-9.219391 24.650614 -3.790885 
8.877872 24.288177 7.908080 
-20.603226 17.402744 -3.269728 
28.898680 2.176415 9.779541 
23.305590 15.257948 4.519353 
-0.122634 29.027311 1.575840 
-19.544792 11.325241 -4.913637 
-12.864493 25.510523 -2.556521 
-26.621843 6.636761 -5.173440 
-18.004299 6.435884 -0.233034 
17.795866 6.565354 1.683545 
-23.324373 17.666040 3.650937 
20.419735 12.777605 4.636199 
-10.890132 27.584425 8.167980 
-13.895046 23.966295 -0.694441 
24.908014 -3.579502 9.596281 
5.601791 32.263657 8.158934 
30.720190 -8.860117 1.380444 
-7.576522 21.164762 8.628325 
-26.309757 -8.315017 7.616284 
-13.487986 24.916445 -2.285622 
-22.654261 -7.085148 5.416939 
28.961624 2.012055 -1.177697 
-24.655634 10.343115 -2.020863 
22.131315 20.019012 10.667338 
28.046150 -8.158765 7.116263 
25.372993 3.782439 -3.138032 
10.184207 19.530180 13.372158 
-14.994840 17.228615 -2.002928 
-8.041947 14.027443 10.020635 
-7.816560 24.372459 -1.392463 
25.099234 -6.760109 4.361346 
-20.847799 -2.970300 2.611940 
29.269560 -3.459222 3.816576 
23.848965 7.143710 4.376769 
25.360434 -10.369869 12.526451 
-18.790314 21.662697 15.648162 
-22.289783 19.766226 5.917422 
-14.735421 14.018222 -4.243109 
25.938189 -10.887373 -0.564188 
-13.727384 25.289881 4.875934 
-30.247227 -7.207797 0.566320 
-28.728508 -14.358762 2.059001 
-12.001051 14.337207 4.627977 
14.438146 20.536760 7.175986 
4.672891 20.263416 -2.370812 
16.726284 3.362139 -2.885429 
-1.485895 21.841856 13.885935 
-16.247469 6.691791 5.655734 
-21.017412 5.169540 5.997315 
28.926094 -14.365712 13.701180 
-15.218489 14.819530 1.203314 
7.539114 30.142996 2.835275 
6.450044 27.814974 12.256417 
-27.765348 3.817635 11.225508 
-3.940889 26.876362 -0.287998 
10.672256 28.245687 1.354133 
20.397108 6.024796 5.833114 
28.271637 1.300311 4.750813 
25.327528 -3.481416 5.861971 
-9.495413 16.712467 -3.622851 
21.942968 15.809239 -5.997790 
16.321005 17.433281 9.247647 
2.869816 26.280655 11.878990 
26.224516 -13.927080 0.730664 
-0.469838 28.241219 -4.320214 
-3.282087 26.911184 8.252821 
26.197021 -8.448979 13.035072 
19.849586 15.956849 3.260292 
-24.354118 -3.512301 -0.558448 
-21.872299 2.083154 -4.794467 
25.376438 -14.001392 -2.314397 
-24.495810 -4.238410 0.340722 
8.411596 20.125229 -4.264865 
8.893909 29.231270 1.812156 
-18.618151 14.732260 1.146677 
20.740089 21.701035 9.810802 
23.533520 16.376644 7.822661 
12.791035 16.638767 -1.864880 
-19.487907 5.114460 5.270196 
15.730867 17.489332 4.844046 
26.193806 -0.907179 1.040354 
25.734236 -0.888292 10.604033 
13.315523 16.004734 -3.857900 
-13.563528 17.604198 4.348828 
23.902067 -6.995135 5.111813 
22.049242 10.450675 -3.291562 
-27.404491 2.073319 10.821263 
-24.088129 -10.435402 6.933285 
-13.725575 24.125847 7.192373 
-14.810894 11.641285 -1.345137 
19.750540 23.782074 11.824313 
-3.726060 24.232714 2.100656 
-17.523708 8.449700 -4.727734 
7.239637 29.688913 8.977843 
12.864231 17.170530 2.094180 
-17.209475 9.617554 3.126581 
26.317179 11.192417 10.375412 
14.279474 25.447081 3.207736 
23.330357 8.675097 0.859306 
18.411144 -1.262651 1.029066 
28.824053 -6.544252 3.617137 
9.872897 26.462126 2.329919 
-25.575996 -9.643995 8.224630 
31.255171 -9.801938 7.203151 
-19.766445 16.322863 -1.367505 
17.955877 21.447104 -6.275762 
-20.812244 9.394052 -4.912781 
7.417735 27.444359 4.224665 
-19.669136 18.005878 12.030863 
-17.776016 20.150898 -8.425888 
18.190201 19.574162 -2.638108 
17.012892 18.478430 7.981164 
15.529304 27.100063 7.070125 
29.539581 -3.239362 1.039574 
19.982401 17.085238 -1.055239 
-23.674217 5.348573 -3.878738 
-15.155310 12.757605 8.416792 
-17.990637 20.432425 4.498384 
17.424122 3.371738 2.682791 
24.779434 -1.736720 0.709440 
-20.867764 -10.276248 0.941013 
0.421589 22.139841 15.175883 
-15.552967 -3.402342 11.035261 
-25.310343 -4.955898 -1.113288 
-25.285406 -9.151605 4.357460 
-13.938366 17.218874 3.766954 
-23.742636 -11.616301 -0.718721 
18.041389 13.558270 -2.180959 
-27.039795 6.055417 -0.340773 
25.530090 7.818418 -0.817821 
-18.143150 4.902379 2.446595 
18.955826 21.305359 -1.326545 
-14.897051 6.580740 -6.185345 
10.143598 19.343615 -1.564992 
-20.700678 8.324805 2.551837 
-26.228090 -1.338249 2.929342 
3.767035 26.840990 -2.527034 
3.353160 23.064184 -1.281081 
-11.934582 18.545887 -0.984732 
9.671438 29.453560 1.714300 
10.664194 15.580623 -3.543756 
-30.118778 -1.574863 -2.644611 
-6.775333 30.778238 1.541562 
-21.476755 -5.940980 4.201721 
-1.850962 28.260687 0.806051 
25.611811 11.525116 7.609608 
7.879295 30.405499 8.532731 
10.856090 15.926519 -2.670287 
-22.563725 -13.545457 2.100356 
-21.124857 17.689907 2.825505 
-25.340294 -7.076631 6.501224 
31.396612 -10.362823 11.926233 
-7.625000 20.397417 8.951683 
18.955441 -1.794308 0.434366 
18.055111 12.298508 5.269496 
-24.711086 -1.118899 4.669238 
-26.164768 0.037445 -3.429196 
-19.419790 -1.796391 9.828236 
-22.822474 14.759654 11.163891 
-12.175174 15.581156 10.364177 
17.164616 26.580313 8.713127 
21.109512 -9.951118 8.080492 
19.749601 -1.110093 3.715339 
-7.050582 26.183750 -3.050397 
-12.473817 2.882485 13.342581 
-28.470335 1.964052 15.481416 
7.200166 22.819860 1.194154 
-14.185568 19.552763 4.394104 
-17.184908 5.898055 4.470290 
-18.590906 -2.257996 -0.207089 
23.329111 10.262051 0.187201 
-24.262043 10.275758 5.342395 
20.265770 18.969786 -2.211550 
-19.632874 -4.493133 7.922756 
3.606424 27.294228 8.003822 
14.768348 16.841953 2.343615 
-17.400747 19.778090 4.471210 
-22.022020 5.478963 6.174905 
-26.358551 -6.937061 6.729531 
13.027691 18.628128 -2.663714 
16.341944 14.987084 6.448845 
22.387384 3.930521 -3.911261 
20.248713 -9.261332 10.297931 
-1.069547 29.972992 9.499352 
7.305831 29.409645 11.605675 
26.318464 -7.508344 13.049931 
-12.441878 25.078520 -0.071288 
-14.256775 22.455767 -2.896068 
27.342361 4.451286 0.829280 
-1.731970 25.365963 10.039230 
15.804457 18.685549 10.028089 
1.073329 23.813591 -1.617622 
-3.887344 29.347107 15.433935 
-21.838736 12.359193 2.596944 
25.400597 6.602793 6.636907 
15.024407 22.437067 4.290327 
19.629559 7.004006 -2.056224 
0.924051 29.195164 10.053453 
-23.197754 12.104127 0.903737 
5.292065 27.358427 -0.178545 
26.302204 -13.395858 9.724692 
-21.524872 -1.076327 2.772509 
-0.526939 26.601578 5.228741 
17.373825 9.709548 -0.891222 
15.478732 10.931715 -1.345305 
22.945768 -4.764453 8.535516 
-17.355383 16.318882 -2.014985 
-5.377110 22.133430 -3.122623 
3.533145 33.033108 6.174775 
-18.730518 -3.863151 -1.481633 
-18.196339 12.729547 12.853259 
-22.791449 -14.853149 1.595272 
-8.355005 21.689663 -1.609222 
11.676419 26.518969 -2.865781 
3.953710 27.341928 2.872979 
-10.982947 25.750092 13.615771 
-5.578673 18.161604 -6.482386 
-11.445159 26.473713 13.550741 
22.507742 0.703601 -3.610212 
14.930784 11.311152 0.308299 
-12.707847 25.560278 -3.469269 
-21.277052 17.007175 11.619095 
23.509214 16.050087 5.127399 
-12.310102 25.001303 -7.090066 
-19.138235 -6.691690 8.045349 
-30.268154 -8.007325 8.418957 
5.406905 27.118723 1.928621 
-23.575924 -7.550832 -1.432367 
22.383150 3.211131 10.453347 
-18.453476 20.265736 -1.634455 
-3.114871 30.941748 2.242349 
30.873322 -3.362090 13.208729 
-13.685085 13.456963 0.069686 
20.970415 8.116825 -2.479797 
-1.382690 23.981920 -0.604978 
14.268159 21.973520 11.592655 
-18.537024 7.175683 3.139505 
-24.154625 -3.346371 -1.638667 
30.019461 -3.181314 10.267066 
26.461803 3.123737 3.202706 
-20.154039 20.648277 15.661292 
-21.311720 -11.953503 7.997972 
13.601928 12.182769 -2.350141 
9.319269 29.532768 14.301822 
-5.309894 29.246212 12.163353 
27.884546 -5.159694 12.682975 
21.275955 -0.819595 -3.135392 
-30.230602 -6.652452 4.167379 
9.419467 19.906252 14.903588 
21.162476 14.517839 10.080474 
-18.660557 8.943871 -5.138171 
17.329512 26.305590 2.677670 
23.579607 -7.118488 -1.549126 
-14.874519 3.934262 8.542493 
14.453306 24.370377 -5.546958 
-17.809895 7.051316 6.669219 
-4.256651 26.991167 7.186732 
28.182537 2.442719 8.492065 
-10.877416 25.900084 -5.567532 
6.778595 25.128359 6.635498 
2.877211 22.561722 -0.561301 
20.424740 10.673625 4.368916 
-8.798540 10.135395 13.345339 
-30.302437 -3.094676 -4.817669 
15.670089 20.294386 4.686815 
17.843348 4.530103 3.276353 
20.977507 -4.671876 1.912375 
-11.917191 6.204527 12.188343 
0.433906 29.043743 -3.943048 
0.830631 28.088655 8.340982 
17.147793 19.108791 5.453568 
25.935123 -12.604888 4.949379 
1.573183 28.608526 1.491754 
18.925352 13.773144 -2.430389 
-16.734892 9.346513 5.676292 
10.238217 25.632599 2.301362 
-12.232117 25.782185 14.712433 
0.782536 33.278679 5.871542 
0.376657 28.925123 -3.036056 
17.744383 -0.499460 7.214724 
20.103060 5.880363 -3.485558 
19.871265 -1.912506 9.345874 
25.701277 3.714429 -0.632934 
12.218024 16.745077 14.767599 
3.771513 29.526798 10.226342 
-11.742605 17.123795 6.657782 
25.941702 8.344479 -5.934034 
-13.164893 4.161050 10.800479 
16.124060 26.271173 14.025313 
-17.497826 17.300959 9.063498 
19.435785 24.048220 6.008758 
16.255259 18.975508 5.798667 
-23.046675 -13.817951 9.828109 
6.735104 25.356951 -1.718989 
-15.440427 16.657129 3.908874 
-16.040228 15.466467 -1.804820 
20.421637 12.213232 -3.952214 
-20.104588 -11.835008 11.286772 
-18.159582 13.535702 7.142793 
30.319443 -6.524814 4.612865 
-18.854023 17.438234 -5.161214 
12.444325 26.831425 2.932038 
24.004997 -2.945735 3.819684 
-13.554470 23.019035 -4.607759 
12.654353 20.501495 6.929112 
17.139048 7.799037 6.256766 
-30.177114 -7.237989 7.640235 
28.585003 -8.260673 6.487275 
22.827538 -4.898469 6.986735 
9.627441 26.422630 -1.546475 
-9.529518 23.621506 13.287053 
21.861012 14.897721 7.585876 
-13.473786 18.717253 -2.520323 
31.123158 -9.461861 2.844770 
-29.921545 -8.282751 0.302592 
-14.208413 4.595173 8.800825 
-11.480342 13.569322 -4.491643 
-19.258862 -0.561023 -4.460277 
-20.271368 4.034790 -4.555187 
-5.495450 31.868145 2.797367 
-27.470636 -4.009092 4.276824 
-25.388824 -13.700418 4.062796 
23.574501 -11.329762 -0.410828 
-26.957731 -1.355914 -2.021788 
-19.967907 17.984764 -1.696580 
4.634522 22.034428 0.043437 
-19.906351 7.455781 -4.518914 
18.316807 12.999446 2.218115 
-28.128242 2.143385 0.849144 
-21.257301 5.591132 2.998988 
-15.428810 19.994974 10.830674 
18.566828 9.444300 6.544957 
-25.263420 -3.680277 8.998307 
20.275854 19.627531 7.746159 
-21.285444 -5.369715 3.448332 
-20.741590 -2.885185 -2.536170 
28.080669 3.554758 9.608094 
-4.446326 23.267879 9.032661 
28.816290 -3.713661 4.751776 
-24.100538 0.898736 -4.376052 
-13.343838 24.945265 13.172010 
22.846592 17.521065 9.224821 
-12.138994 24.208141 -3.105263 
-29.047596 -7.242413 7.124206 
22.369961 -3.738299 9.447597 
20.932972 -6.876457 2.807357 
-2.335360 29.992033 12.931711 
-16.827887 20.550741 8.398937 
7.684602 27.501097 5.528265 
21.615259 2.466111 7.634175 
-21.686728 -3.986716 0.910986 
-10.326747 27.486542 10.068266 
18.380823 24.031054 1.669345 
13.984739 21.968710 2.218411 
-13.165710 25.921862 3.109533 
23.503187 8.601206 -0.084997 
-1.491054 32.685383 5.831148 
-19.625837 10.162786 10.311248 
-15.989229 20.489487 -2.468804 
3.905755 25.302317 -1.051394 
-20.466242 -3.459423 1.975149 
-2.694092 32.868443 6.686828 
-6.531449 30.348824 11.235474 
-24.595778 9.880630 -6.848640 
7.541249 23.187647 9.307770 
20.867599 18.141310 -3.873458 
23.401087 -13.433929 0.166501 
-15.961000 4.019736 -5.783660 
22.857323 -12.611632 -2.573137 
-27.440489 5.059590 0.273676 
11.488625 25.586246 12.206437 
-24.345358 16.770866 9.995133 
17.768631 4.129201 -2.654312 
10.277212 25.108036 7.344041 
25.894279 -13.161952 11.342810 
26.775249 6.805066 0.335937 
9.737841 26.459898 12.462682 
-19.041941 18.214907 5.869969 
-13.602126 18.426855 -3.434338 
-14.964471 6.714462 -5.317955 
20.612837 19.881729 6.170985 
19.615704 12.354008 -4.035764 
-0.261313 28.556185 -5.333042 
2.694265 25.583525 -1.474848 
26.632067 6.034777 5.562348 
3.851646 30.645086 11.241517 
-10.685371 28.797617 3.464470 
12.972344 19.036541 8.931775 
18.001673 15.190786 -3.191888 
-20.152824 -6.803112 0.802462 
24.135813 12.151366 8.806070 
17.949013 -0.547173 1.203439 
27.999439 3.951154 6.982638 
3.094918 30.759106 14.656350 
17.843838 13.878206 1.116737 
15.633913 18.540346 7.323212 
11.265608 26.278759 -5.460073 
-20.173191 1.258942 10.435402 
22.344730 -11.807340 2.788672 
-13.740809 24.762375 14.019441 
-3.432279 27.504045 -6.255115 
-12.381662 25.132032 -4.451353 
17.298489 0.266862 10.952257 
15.652221 12.918238 5.048146 
-21.015217 5.287468 7.845261 
28.677855 -6.984550 5.972388 
13.595634 15.847298 8.374942 
-14.837237 3.066136 9.200068 
-19.614580 9.252617 -5.130271 
-8.795317 29.235476 4.250338 
4.238772 23.817343 -1.686838 
-10.782475 25.061474 3.569486 
23.557753 -1.582400 10.514095 
16.284370 6.278250 -1.546889 
-17.681761 -0.022043 5.614431 
7.998304 26.831942 -4.977039 
18.543665 9.009011 -3.856766 
-2.258285 30.638046 11.939108 
-21.543209 0.498384 11.087029 
23.178911 -13.330673 1.164857 
25.437794 6.026327 3.092007 
-22.057451 -8.197175 4.245691 
-12.957123 12.923328 9.040767 
7.873189 25.139431 3.815710 
15.501499 13.349478 9.154290 
17.972099 2.892575 7.162968 
-14.412600 11.612223 9.092794 
22.300154 -3.749514 3.651443 
-25.125473 5.184420 3.296153 
19.490854 23.636190 13.420824 
-21.381128 -11.454911 7.185309 
19.081156 24.906837 6.032632 
-24.164864 16.974787 9.207828 
-25.035025 -4.561175 13.022348 
-21.381676 -4.007333 3.557462 
-23.964294 2.476202 4.725997 
-7.245714 11.809163 13.635280 
-18.045616 10.505610 5.885164 
21.540998 3.853260 7.298861 
-13.120355 23.929529 5.367572 
-26.258821 -0.662070 4.411250 
-26.962070 -1.655777 1.491041 
-17.377338 21.019947 4.035082 
-13.489439 24.317247 9.769228 
-25.819193 -2.728895 2.297575 
26.464846 8.635975 8.976807 
-27.423552 -10.419792 6.556872 
12.548628 18.673004 -0.401382 
19.051935 -0.970439 5.370945 
15.375840 23.715294 2.520096 
19.168924 2.378989 3.758063 
-12.442092 11.845110 -4.950787 
28.305582 1.626317 -0.117513 
-15.897395 8.568780 0.290798 
27.859728 3.483548 5.522087 
-21.921621 13.696029 -1.462063 
3.872280 25.189186 9.429535 
18.098173 -3.281725 8.476604 
1.220874 24.830875 -0.255544 
-24.842157 2.159195 4.921796 
-26.616753 6.341204 0.375497 
-21.099579 9.603471 8.181810 
31.612288 -4.605644 -2.496138 
23.928450 -3.450443 4.786983 
-9.677418 22.311440 -2.179172 
25.644943 -8.983786 4.751113 
-6.079654 25.029821 9.826090 
7.855455 30.102976 6.704576 
-20.739553 9.007634 3.232409 
24.330652 4.297988 10.323915 
-21.063704 1.172424 -4.812586 
19.487822 -5.433438 -1.751374 
-5.972558 30.483662 11.903784 
26.288231 -10.113669 -0.842293 
20.115334 19.805742 -1.946833 
10.112753 21.373878 4.275989 
22.963594 13.489392 -0.586302 
-8.240162 29.792759 8.194589 
-23.114859 16.055649 13.751410 
-15.680000 5.026393 -4.954043 
-21.683624 5.722550 -4.062748 
-21.974072 6.100570 4.746921 
12.679829 23.989799 8.960318 
4.780730 32.789925 6.116208 
7.851826 23.389065 4.110898 
13.343327 28.336395 11.983207 
-12.676406 20.685120 4.284384 
-28.760126 -0.056128 12.790967 
-3.637017 32.375088 7.492414 
20.510164 10.408883 3.632544 
-18.410770 4.253828 -2.068836 
18.772398 6.385472 -1.984761 
-21.293512 -12.415576 3.950051 
20.396698 -0.835899 4.366640 
17.591070 15.606704 10.526132 
12.221272 17.592850 10.506692 
29.764551 -3.294873 2.193743 
24.468796 3.079555 4.637588 
-27.167727 -9.736871 9.882157 
19.293623 9.498004 -0.659966 
-2.531369 26.193701 4.681446 
11.939147 28.663528 4.810886 
-3.808421 19.185698 -5.837837 
-0.086019 28.459949 5.897751 
-8.461871 29.056406 8.820454 
12.565867 28.788139 11.681732 
9.395148 17.285378 -2.854178 
-22.980988 -2.674431 3.312421 
6.478168 26.470392 -1.467677 
18.081465 12.058913 6.176534 
15.506627 21.939396 0.094614 
16.773550 25.441509 0.975669 
-2.921846 24.602821 2.610326 
-1.469352 26.246704 -3.782149 
18.442408 1.919102 4.762379 
-23.310848 6.655304 8.543450 
17.315559 18.763435 4.247260 
-22.508228 -8.476635 1.801325 
-23.803431 0.195668 11.562247 
19.018894 -3.609481 -3.084996 
-2.656002 23.804943 -0.468572 
30.540165 -11.352989 9.691632 
15.078799 14.784116 8.999343 
-18.656982 17.166410 -2.215342 
26.043785 -8.765931 6.174174 
24.944407 10.528308 -3.448881 
13.415163 23.676504 1.911148 
15.261288 14.740430 1.687534 
-29.436090 -8.681223 12.046484 
17.826941 21.134390 -7.125499 
9.446719 29.658033 9.126764 
-21.826277 8.120411 4.202090 
18.306379 12.446239 9.522003 
22.007412 -4.897581 4.608011 
3.059662 19.070219 -7.976202 
11.915102 25.188606 2.226804 
-4.845576 22.003962 10.126719 
-8.403018 21.353018 9.456222 
-22.763847 -5.602996 1.406283 
3.859144 26.917488 -7.670364 
17.785582 -0.009159 0.327616 
-13.541767 23.190622 2.637207 
16.101366 8.769360 14.504247 
-17.086287 15.817456 5.821761 
5.545308 23.748339 3.589514 
-29.327515 -13.533118 4.674762 
-1.917157 30.003183 8.937048 
27.889259 4.390185 7.767712 
17.418020 12.896565 -2.552544 
26.128025 -8.572645 -1.328007 
-21.000944 8.750728 8.249970 
-19.341057 -10.886038 11.035571 
-6.706651 26.582888 8.509459 
12.086401 20.509953 -3.618333 
-24.064745 -10.131487 4.708220 
16.215765 11.139662 -2.503586 
-29.182623 -9.136097 9.348201 
-2.305806 23.085146 10.786242 
22.362534 15.244309 -4.966903 
19.158657 20.173622 5.414861 
16.870819 21.682842 1.860232 
25.451405 -12.415419 0.296504 
-23.801266 -14.102818 0.605325 
0.186245 26.680267 -4.607218 
20.396564 18.763632 -5.805358 
19.812466 8.209311 0.059675 
25.637320 -11.339972 12.249447 
13.747156 19.587498 -0.499329 
-25.896027 -9.930070 11.573435 
-15.465426 13.202300 6.265336 
-2.018004 33.194054 3.327921 
-24.834316 -3.544267 10.029086 
11.793257 24.917763 3.243149 
23.632679 -7.608022 12.207717 
-16.561001 10.484791 7.546113 
-6.346814 26.623508 -3.719881 
21.764273 12.623586 2.978077 
20.861731 21.781057 10.681759 
21.191532 19.613878 4.758759 
25.520737 -8.272478 4.384472 
12.236396 16.834991 12.991217 
-28.527565 -4.260495 3.563452 
24.972702 8.235101 -0.428305 
-13.844720 13.987896 -2.869307 
-24.979322 10.250454 9.597563 
-18.255165 6.667487 1.356652 
11.509559 26.293823 -1.598873 
-1.859834 28.170160 6.188936 
22.549406 -6.977598 5.925120 
1.607625 31.112658 2.614215 
-23.387590 1.126085 8.933390 
10.068714 28.724247 1.552524 
-14.613602 14.849665 10.545064 
-10.535259 25.691721 -2.678111 
-28.005045 4.151739 -4.233210 
15.626358 12.056740 2.523516 
-21.804665 -7.332415 4.376471 
10.917993 19.930853 -4.399727 
-19.323290 10.125767 4.055351 
22.198828 19.837816 12.483710 
-27.899702 -0.269878 0.335934 
-31.033960 -4.899863 -1.157317 
9.060716 20.894510 -4.644289 
23.905872 4.413396 3.807689 
-21.205439 19.392487 13.751765 
30.335348 -1.393422 13.935615 
23.795301 -12.603392 7.560707 
23.225830 4.574200 -3.715010 
-18.203428 2.161548 2.557917 
13.892833 10.037226 -4.345852 
-3.014539 25.475054 -1.420666 
-18.696497 13.883169 -0.151660 
-21.083540 7.844306 7.983966 
20.300011 5.126786 7.446041 
22.895325 13.006521 0.849746 
-16.580416 14.820618 2.419222 
-14.805441 22.210878 6.261254 
2.856294 25.011299 0.336821 
20.619434 9.205782 -3.503413 
-23.386982 18.437603 9.062197 
27.734699 4.751835 6.953154 
-12.696108 1.068277 15.066866 
12.047416 25.905684 -5.831588 
4.241843 23.506756 1.686233 
-13.625119 23.675989 8.040948 
-11.019555 17.969395 6.335773 
20.153137 7.134379 2.750251 
-9.254521 26.376179 -3.243037 
-5.199888 24.596613 9.576217 
-0.621028 29.506723 7.699844 
15.295819 10.659311 9.982418 
-4.968489 28.274593 10.937370 
-17.488997 11.105756 1.913940 
-25.463467 2.612648 4.516253 
-19.498333 0.429891 -4.649327 
-11.648403 12.554380 -6.173372 
23.700212 3.257592 4.018946 
3.892008 30.331268 15.259149 
-14.994104 23.555283 12.681594 
-14.026639 14.220097 -3.789091 
24.706968 7.858828 2.207346 
-19.504677 17.627728 -4.409775 
-25.375130 1.899427 9.829327 
16.489162 3.828944 -4.353268 
28.059832 -2.724381 3.850352 
12.949876 25.517181 -5.542507 
-18.168951 5.215813 8.712483 
-30.141180 -13.635439 3.148261 
-19.378460 -8.293799 10.354401 
-14.104439 0.950638 11.613089 
28.205109 2.616085 10.028424 
-13.482569 24.632301 -1.489190 
22.944490 11.158348 1.527873 
-2.371106 25.530836 3.952495 
14.350320 10.840034 -1.777402 
-23.241707 -13.088327 8.188521 
-9.903107 25.282003 -3.250143 
25.684305 7.708126 1.161739 
12.385305 28.417021 13.753831 
-18.104099 0.038376 2.316192 
23.232376 -10.972694 6.305761 
-24.562601 -14.965207 12.008533 
-28.594454 -6.462703 5.590522 
-16.046848 -4.455677 10.772980 
-23.625093 16.228624 13.030681 
-21.714966 12.398757 11.051307 
23.752859 16.883890 9.009631 
15.122755 15.589890 8.670489 
-17.884161 12.763849 7.979463 
-17.809433 -2.590970 6.947710 
18.723122 21.523649 -3.679477 
7.719782 28.502462 7.175665 
-10.605785 16.397123 -2.593488 
5.337900 32.448883 2.073391 
26.514784 -10.275809 8.229509 
12.368938 24.233156 -2.670026 
-15.863968 21.985573 -8.698516 
-17.880358 -0.790291 5.705135 
7.734199 27.907990 7.881758 
17.066971 8.589287 4.702640 
0.609227 28.977942 1.866967 
23.236120 4.595921 -0.792293 
2.292426 26.001194 10.051023 
-25.845459 -7.898038 14.054882 
-18.630739 10.817488 5.251137 
-29.299070 -2.517918 14.480798 
-22.158567 -3.522109 -1.781136 
-11.306244 8.395826 12.780936 
-16.188923 8.409635 6.609107 
-2.706213 32.970470 5.734614 
-30.618364 -12.732642 -3.257437 
-6.232141 25.903069 -1.162366 
23.824835 11.424323 10.294756 
-15.397441 8.236876 -2.122107 
-21.992924 -11.634960 8.663002 
14.916021 8.372287 -3.013724 
-22.499962 -4.490940 9.364018 
5.590469 26.364763 6.224880 
0.952201 25.999516 3.630399 
-9.703181 21.175652 9.416673 
-26.722918 4.410768 4.173814 
-27.783285 -2.189107 0.890518 
28.259298 -1.008942 6.394555 
2.441728 28.365793 -3.614483 
20.187618 -2.503804 3.929040 
-23.337574 12.767063 -0.455852 
25.048195 8.207549 5.938007 
-23.803234 2.316881 3.888461 
12.722266 25.012125 -6.952020 
-23.281755 -7.547796 5.045892 
24.316311 8.431731 2.991542 
21.093868 20.856712 14.630341 
-30.722767 -9.016048 11.044256 
4.065022 28.085567 -1.821003 
-1.012013 27.753771 -3.966957 
15.498952 19.340897 -5.320554 
0.485156 27.647837 -7.299772 
-20.142050 10.895357 10.016982 
19.187822 -2.473939 -0.295476 
8.990647 18.822149 -1.341703 
-1.618440 28.729017 3.699024 
-1.245518 31.031143 8.930174 
-26.049004 2.884260 -0.596528 
5.920534 26.038258 -3.992216 
-7.568594 21.739462 -2.116434 
-21.891296 -0.606567 11.152327 
-17.418081 -1.037445 8.403924 
23.325768 15.240726 6.418136 
31.004900 -10.589972 9.942355 
-30.649141 -6.266735 1.015345 
25.789928 -4.034529 11.965970 
-2.391561 27.346024 2.042095 
20.570471 8.173647 1.136295 
1.787450 32.993210 1.594083 
21.377487 -3.950927 1.846983 
-13.905390 21.297899 9.704420 
22.909809 16.719280 9.447180 
19.907940 17.705370 -4.190844 
-25.160952 12.595450 11.420107 
-7.294181 19.463404 -2.329497 
17.008530 10.582380 -1.063497 
28.122921 -10.400474 -0.047626 
28.705173 3.240877 -1.699002 
-20.820929 -6.360248 7.691942 
-10.580541 16.322575 9.472465 
-12.739913 22.567104 9.775464 
12.465041 28.741941 9.771299 
-22.283031 5.746766 9.394970 
-11.262919 24.368177 13.503634 
-22.600275 -4.761825 7.261486 
8.390313 24.820704 7.566285 
9.778654 24.099266 -1.992294 
-19.705072 11.921099 11.937773 
-18.832384 15.240202 -2.651797 
10.857865 25.779917 1.612589 
24.940248 -10.697685 -0.768477 
21.173222 -9.101155 0.644413 
-20.900648 1.302820 1.732268 
-15.475304 21.985390 6.874372 
-16.640841 15.861439 12.543492 
16.851963 26.129494 12.708976 
-16.743408 14.439619 1.641418 
19.819170 0.213029 7.412580 
-14.513719 13.746708 7.235679 
-21.867258 -2.728058 2.859928 
-30.261686 -4.455326 0.691383 
28.905945 -13.672386 9.929585 
7.809015 24.038605 0.217520 
-7.807952 28.016563 2.648303 
-21.911726 -7.538136 -1.105610 
9.257724 26.834642 8.094687 
7.925262 26.332016 10.340466 
11.248738 23.717554 9.387055 
19.576914 1.796905 7.204826 
0.364902 27.791506 -2.412655 
-16.089664 21.966827 4.947427 
-12.161327 23.388515 13.023074 
7.696165 26.196375 7.269882 
-9.840954 27.477282 13.172433 
16.511106 10.650725 6.918387 
-26.385265 -2.558841 1.048784 
-12.932261 13.368878 -1.938538 
15.985852 27.219225 5.398092 
25.365845 -8.345191 5.441233 
15.594356 17.727139 -1.374700 
14.785328 22.923985 -8.447372 
-16.015846 22.453335 -7.508844 
-23.626211 -14.707910 -2.844778 
-15.058823 15.140760 7.890341 
18.298540 -1.631251 -2.962357 
-26.461555 7.114155 -3.269754 
19.890244 18.697424 2.373302 
17.767731 21.077541 -4.462840 
-1.538867 29.095112 12.278201 
17.799803 1.791724 14.316492 
26.543226 -12.636615 11.786098 
-20.022717 10.151831 -5.101205 
23.867907 17.083044 11.010103 
24.210104 -0.021195 0.238510 
-21.111200 19.907024 6.701299 
-20.846619 -7.071507 3.963781 
24.127863 -14.266728 13.823669 
-25.523438 11.177807 10.914346 
-14.869802 17.835728 3.602786 
17.260006 12.267911 5.195498 
-16.000774 22.882248 12.865214 
-15.645643 9.277035 0.528613 
-23.228287 -2.720146 0.796904 
-24.217464 3.789519 10.895329 
20.610609 -3.884646 4.788718 
-8.170907 24.437447 4.172931 
-21.809124 -12.739061 4.652783 
-27.548796 5.658616 -2.966220 
12.000051 24.039228 10.448950 
-19.728594 11.809752 4.111897 
-10.601084 25.738419 12.006310 
-14.734922 10.257355 -1.976652 
28.525406 -3.749047 11.586979 
-22.529274 0.132961 11.363214 
-26.175589 7.638751 10.417772 
12.235775 20.369495 4.128555 
5.333693 24.856886 -1.302744 
-16.289646 8.564596 5.832350 
30.760900 -12.349536 12.730742 
31.255316 -7.631618 10.639446 
4.181118 26.258808 12.007248 
24.995029 -3.206362 4.391117 
25.954391 -10.076503 6.071795 
-21.917397 -11.027112 5.256784 
-28.077095 4.598783 -2.981860 
11.229907 26.656021 -4.282228 
25.536289 -12.907946 1.438632 
29.941792 -3.732158 9.668663 
18.644346 2.866812 4.838787 
18.700588 21.838797 8.585059 
-17.713106 1.388383 5.266937 
-24.773289 -8.994324 8.550413 
-21.454060 0.378122 -4.738194 
-3.061279 22.700005 -2.875380 
-17.435896 1.224849 1.154701 
-20.472525 -11.118056 -1.625791 
22.725473 7.948951 7.481455 
-25.180414 -10.353599 6.900204 
19.903172 -8.325309 14.053279 
-6.363790 26.238672 4.187656 
12.573949 23.299713 10.106208 
-29.725159 -4.271163 14.008462 
24.393841 -8.586588 4.088851 
27.478483 7.312403 11.838620 
-10.764103 22.010979 6.088537 
-7.158159 16.765049 -7.736541 
13.997153 27.801060 12.745664 
-2.890720 26.586493 5.475190 
27.121588 0.140465 -0.285353 
-3.377033 27.066586 7.223950 
7.755336 29.674252 15.148519 
-0.441511 23.998085 0.222044 
-3.796386 21.126234 12.272317 
-14.506668 15.940166 -6.187870 
11.615270 28.887993 13.388171 
16.308540 15.674401 -5.121182 
15.873585 17.590397 7.294862 
15.748724 15.965514 2.930289 
-17.842522 17.157724 5.586553 
22.035725 2.388760 3.901569 
21.301861 4.604183 3.927547 
4.746980 25.442902 6.226856 
-6.617658 28.825869 2.624894 
-4.438429 24.535082 4.163181 
17.930836 1.040870 5.987897 
-13.411623 24.027069 -4.517036 
-6.578772 18.440464 -4.456725 
23.389120 -2.972045 0.519147 
-27.185070 0.814056 11.360321 
-23.252045 3.971772 10.686548 
-3.777494 27.382219 -1.429621 
-0.179495 30.719988 3.135623 
-29.858953 -13.610558 -3.104941 
-25.219070 -5.346662 6.346540 
27.667114 4.540190 -0.945270 
-18.050623 19.764982 0.348855 
-19.149302 -6.965341 -1.988674 
-23.794725 14.443988 11.840250 
-19.961805 -11.853683 13.630527 
-26.013472 7.233867 -6.437691 
4.205330 23.799688 10.593752 
-22.560169 9.410006 -0.958230 
25.592402 -3.774622 -0.948782 
-24.383520 -0.221006 4.854513 
-1.868324 32.941574 2.436701 
1.929799 25.831591 -2.495459 
-10.823482 28.466969 5.306428 
26.146994 11.203741 9.017254 
-4.682937 27.820499 6.683946 
13.813860 15.306522 -3.895703 
23.455343 17.409325 7.143783 
20.463003 17.614620 -7.510841 
32.025772 -7.572155 13.764677 
23.119202 0.606758 10.843586 
-3.198153 27.683207 13.916281 
12.440850 24.662455 7.268042 
-24.533573 -9.457932 3.974965 
-8.013165 24.869827 1.315991 
17.068106 21.992743 9.000619 
-26.169924 -15.732542 15.055613 
21.684368 3.544004 10.186050 
-14.049500 13.372321 0.763286 
-21.682549 14.225475 10.119565 
-18.067301 22.165359 15.640470 
-19.568022 4.612282 2.550991 
-20.397701 17.204414 -2.369905 
-22.558376 -4.045805 0.806893 
18.186632 -0.715502 14.254636 
-31.609344 -6.966203 1.576027 
-19.334208 -3.970843 5.317734 
-4.943786 26.334352 -3.796685 
-18.050732 11.933744 12.116536 
-28.910469 -12.942653 1.125802 
-13.907061 24.490467 -6.316852 
13.733144 23.534498 -0.517961 
-19.866850 -1.874063 6.884227 
-26.026814 -5.367213 6.496704 
-10.427707 28.432236 6.130968 
-9.110641 27.926353 12.795438 
-5.334907 19.837231 11.544871 
22.816063 -6.026076 -1.402747 
13.320829 20.718500 3.749332 
12.865316 16.583939 10.160210 
0.358061 24.503883 -3.981935 
-25.611784 8.695677 -3.521621 
-1.689650 26.108335 8.736493 
-17.534275 18.798260 8.207107 
-10.220645 27.324726 11.122150 
11.156457 25.355896 2.728749 
-8.934407 24.188913 4.967700 
-14.755138 18.907824 3.174868 
24.122929 16.382380 11.442038 
-24.456930 15.891008 9.996047 
28.471851 -7.391756 6.796216 
-20.951649 13.862465 -0.168616 
14.698753 18.513208 7.915894 
-14.874061 15.188576 2.677579 
-10.785923 15.287877 7.690724 
5.053529 28.489826 12.966575 
8.833992 21.403412 1.784506 
17.135258 10.041900 5.405766 
19.459641 12.701740 -0.938385 
4.749937 30.614002 13.101054 
26.038996 -1.265682 4.219995 
16.226124 4.536246 -5.443793 
-19.515327 15.054553 9.291304 
-20.012146 -9.405399 8.274488 
22.161322 14.795723 -7.030935 
-22.095268 18.906157 3.820773 
-23.050863 5.861581 5.521931 
-26.042969 -4.829973 13.478864 
15.115509 23.868914 -4.312057 
-19.370401 21.027164 14.594051 
18.881575 15.898524 -3.266476 
12.676960 28.534342 10.646769 
-17.365261 17.051462 -5.900956 
-28.220736 -8.910426 13.338870 
-17.065382 11.750092 -2.513346 
-16.619547 22.692017 13.772254 
-23.511667 18.117601 8.091072 
17.869783 -0.617620 -2.330878 
29.758299 0.550950 13.103827 
31.082865 -5.347581 2.602287 
18.651466 -2.581373 -2.579348 
5.368621 26.706278 12.121859 
8.311370 23.990099 11.088527 
-1.237708 28.270634 -2.210266 
25.711452 3.805737 8.582715 
9.059951 25.736744 1.353713 
17.679720 12.135446 7.332806 
-28.333483 -7.655148 5.801795 
-28.149282 0.617392 -0.717786 
-19.204769 2.096031 2.412550 
-0.106304 29.288399 6.085416 
29.598858 -11.479418 3.370222 
21.318302 16.857475 10.432178 
9.524174 23.418932 -4.875561 
-23.364174 1.906304 5.138824 
-26.213915 5.575460 6.250575 
26.692167 -11.143675 12.514438 
-2.585238 30.267431 4.201677 
-29.367931 -3.506819 0.558419 
-28.953430 2.089185 -3.061280 
-5.668896 18.570557 -5.255367 
-26.912359 5.445282 -6.159209 
17.186974 2.905901 1.767544 
-23.765205 17.309601 5.975642 
24.750397 -9.511817 4.247568 
26.243814 -12.904862 0.843298 
11.116350 29.109566 2.553107 
19.803152 6.945177 6.787318 
21.735462 -5.733105 -0.770958 
-27.394258 -1.212000 0.390915 
-14.741034 -0.451526 10.799447 
-16.282059 3.167204 -5.649508 
-14.498227 17.286791 2.856667 
25.738234 -13.403389 7.276374 
-8.714405 28.447439 3.789274 
10.542326 23.801815 8.031340 
-6.632430 31.413055 6.064355 
19.308502 18.440489 2.909420 
8.720896 30.325876 10.308693 
-21.978228 6.126355 -0.527950 
-26.671688 11.502915 15.634667 
27.394005 7.168410 14.187514 
1.300070 27.421417 7.741281 
-9.906813 26.820986 12.239650 
-0.085256 26.209095 3.589140 
23.878225 9.747725 2.202801 
14.390023 14.138932 6.432907 
21.777090 13.639162 3.496259 
30.576433 -5.939243 6.483993 
-24.161919 1.875620 11.453361 
16.781799 23.786963 12.309410 
4.223472 31.848845 11.520870 
-24.333553 15.106292 9.696674 
17.259792 19.013277 8.585216 
-5.830129 26.179434 5.347555 
-29.268055 -2.548954 13.599233 
17.087059 11.632804 -3.486154 
-21.401075 -3.509669 -1.423487 
