-24.460615 -5.809763 1.585384 
-30.408747 -5.820915 0.913305 
-21.765379 9.776505 4.503229 
-21.849617 -4.375761 4.605580 
28.929844 4.810840 -6.083807 
-27.732136 -9.108650 7.486141 
-18.182898 18.234079 7.383356 
-28.393543 -0.042369 4.774385 
-19.776525 9.534923 -4.323317 
-17.421471 -0.544781 -3.990512 
19.183886 4.223474 0.278987 
-32.188370 -5.595988 9.371341 
-26.531349 -3.447889 0.980836 
-7.843604 27.171398 -1.371926 
-18.498186 8.985721 -4.460137 
18.495071 11.607841 7.228471 
30.667759 -10.353859 8.275055 
2.694838 22.512114 -0.061427 
-25.144531 -13.334325 5.492892 
-8.502034 26.819912 -6.083581 
5.729502 21.039124 10.594225 
18.306305 9.391932 10.396659 
15.917977 9.144559 9.015495 
25.594490 -9.927107 11.980528 
9.881697 26.424997 3.573675 
13.684318 15.530727 -0.952024 
4.912724 26.772408 -0.952136 
-3.964594 17.904629 14.401175 
23.150980 13.777339 4.483633 
25.002737 0.762306 3.566719 
-26.573925 5.574609 7.449543 
-27.636074 -14.343727 9.276896 
-20.968937 0.146549 -3.829704 
-17.450413 2.823245 2.841685 
19.646399 -0.969713 -0.782808 
-21.778410 -0.331021 -3.842388 
30.380520 1.604992 5.487900 
-30.987505 -4.795820 7.894802 
-20.885822 17.698460 18.387560 
-17.707600 23.201065 12.680054 
13.521514 13.094642 -6.248343 
-14.356483 21.003504 2.502184 
-10.966989 12.278632 18.250063 
-27.416218 -12.422956 8.361081 
-18.616543 4.892955 9.404529 
19.246225 -1.015247 8.806422 
-22.874310 4.093485 -3.533312 
20.503979 2.066504 3.754265 
-25.368328 -12.488282 5.498781 
27.698822 7.408728 -2.196602 
-18.683304 9.718245 -0.627199 
15.537730 17.973070 9.722351 
-26.522400 -6.591060 12.646025 
-22.157848 -12.220930 12.517106 
-13.487836 10.009049 12.170617 
31.549473 -3.985942 12.395675 
-12.457784 15.105247 11.372620 
18.177792 7.432988 1.699269 
14.752527 23.726460 18.697523 
27.940331 9.261961 13.050533 
-25.651678 -15.355900 15.860845 
14.340848 23.115337 6.482948 
-3.544419 25.578352 -3.357631 
-18.179388 9.160775 5.733608 
16.887852 22.436283 -8.627594 
3.851662 29.635099 9.142340 
-5.985781 25.278578 17.806524 
28.168938 6.637434 10.598907 
-32.355045 -6.098199 10.046566 
30.390409 4.669837 10.959807 
-24.453756 6.365264 3.849612 
-26.713453 5.905904 0.499204 
9.030271 17.440302 -8.025206 
-6.180105 17.590872 11.068103 
-23.083500 13.166195 -6.453509 
-25.183300 10.792983 9.091664 
24.059645 6.642512 -0.360366 
-15.980033 19.455050 0.125755 
-23.654602 -0.314396 9.014215 
11.105496 27.200686 -0.169006 
14.986882 21.441780 2.687360 
-8.094394 22.697617 12.299451 
-26.037884 4.740084 4.153315 
30.298801 -5.390797 -0.433632 
27.561100 4.312591 4.594222 
6.701629 26.173027 0.151160 
32.787701 -10.388035 8.994523 
11.470749 25.642391 10.368065 
28.925941 5.630393 -3.071161 
-17.670670 0.834148 0.051083 
6.065194 26.974144 1.030786 
15.165677 25.939695 1.860739 
-25.300747 -13.657248 12.342510 
30.893991 -10.627532 6.131733 
19.247660 2.513269 8.686328 
0.296514 24.349245 0.167738 
-22.635757 8.404547 -1.831192 
22.871269 -10.365263 1.155960 
-23.939129 4.649316 10.333820 
15.492525 14.590916 11.107148 
25.787090 11.659193 6.034170 
-18.398163 -3.537905 -2.649058 
19.436577 17.162043 9.520976 
-21.298054 18.326212 11.012175 
-14.491178 25.140980 -3.725607 
-32.098602 -8.653447 13.003529 
-20.883005 -3.917290 0.030668 
10.846115 16.391665 -6.327201 
-25.093855 0.912208 5.501656 
22.616386 -1.032393 -3.573423 
6.221270 26.334440 1.915499 
21.789946 -2.079061 9.530265 
7.532300 22.097897 -0.575902 
-7.269353 23.113113 6.475237 
-21.835318 -8.029563 4.622724 
30.691504 3.310328 16.723593 
33.364330 -5.373084 -1.016215 
23.292177 8.235847 4.580223 
-29.522179 4.995975 13.464068 
-30.249933 -1.050651 7.377422 
20.156696 -0.193914 -2.755360 
-28.626371 6.155926 16.160933 
12.453341 26.576046 -3.216094 
-16.394415 22.482319 -6.410102 
22.586979 1.028480 2.785922 
-23.961098 -4.108119 3.293313 
-14.437356 7.649624 -5.824124 
20.461935 -3.324752 8.899946 
22.475580 16.879345 -2.911220 
-1.046628 20.193134 -5.666317 
22.582470 -8.223389 9.196479 
-21.653051 15.977889 -0.687671 
-28.390356 -10.379361 7.893464 
7.884345 24.080940 6.474504 
21.633615 1.004165 10.219201 
19.810064 3.705207 7.657142 
-13.330297 15.446806 -1.786679 
20.182377 2.665297 9.378556 
-21.941923 3.124930 4.537338 
-8.623288 13.988162 18.311846 
-25.794127 -8.866113 13.240598 
2.103115 22.095406 8.930763 
13.511839 14.301017 8.175295 
-23.184517 -5.021320 2.741567 
-18.247004 17.909119 13.161529 
8.668607 25.783579 5.450844 
-11.905043 20.617060 9.003148 
27.707771 5.104907 11.130605 
3.498064 26.668825 -2.056394 
30.296822 2.525242 -3.985607 
30.422140 -0.586238 9.120625 
10.199551 24.071806 1.152063 
22.195503 19.689608 7.381506 
-23.601189 -14.562706 10.150942 
13.185023 18.913164 10.467404 
-13.721191 22.353743 5.432633 
-14.112242 13.844856 -1.783521 
-21.471975 -4.743924 9.675447 
14.010030 12.914343 -4.044027 
-17.623791 21.898729 -1.864978 
12.573638 26.045174 0.973180 
-29.249338 -4.766810 12.022746 
-16.779524 9.436992 -2.939431 
-19.002790 -0.505547 8.521264 
-3.792986 17.391712 16.248652 
30.069056 5.872248 11.713386 
-0.799556 18.916773 14.917522 
22.860031 -3.213891 9.500083 
20.159300 9.750066 11.005542 
32.470486 -10.474287 0.877478 
-19.919674 8.983508 10.365915 
-4.514724 26.052563 7.923653 
-17.027132 1.085605 -6.056772 
-28.225796 -1.602279 11.778319 
5.026704 21.762129 12.370856 
-20.066370 2.898526 3.746314 
23.202478 16.478085 5.364214 
-29.666103 -2.357991 9.149116 
13.559066 21.624445 9.158754 
21.245876 14.417839 11.231862 
28.303806 7.146976 18.220411 
-14.257933 16.264566 11.294812 
-2.248634 22.715195 -2.071065 
11.009644 21.785969 9.503691 
27.172958 5.784532 -1.983199 
-29.055384 4.454002 17.942509 
-29.778065 -4.808922 2.785931 
21.652599 18.163864 -4.042513 
10.101663 26.494421 6.023574 
23.608177 -3.455443 9.264372 
-7.534309 21.234053 0.177296 
-18.411373 5.132454 4.647346 
15.755229 24.718706 -5.376434 
1.055535 25.978119 6.445459 
6.830523 19.683777 -4.478168 
4.922633 23.931112 10.467342 
-18.393637 9.509698 6.736382 
22.827993 7.526186 3.013314 
0.572830 28.656263 5.411522 
12.146912 28.212355 3.973609 
-29.141739 -13.576845 4.819875 
-21.801966 12.115356 3.479937 
19.392792 15.874965 -4.561263 
19.972904 25.253244 8.460770 
21.559322 16.581791 9.992810 
-27.888084 7.071922 9.633826 
26.612886 -0.960119 11.132536 
23.611956 16.413038 -4.690948 
20.789875 0.561328 -3.615543 
-23.215025 -2.359462 3.192309 
-16.267736 5.281650 11.170671 
-1.831481 25.587528 -1.750250 
-11.497706 26.149269 1.815993 
-12.781351 26.488127 3.782528 
32.393387 -10.592888 5.901465 
-20.002510 -6.916270 -0.126392 
-18.528727 16.522427 11.634384 
-4.737621 26.881758 3.811110 
-29.685900 -6.645618 7.535556 
20.556726 7.352956 3.496557 
15.950469 23.459225 5.481680 
27.096411 7.860610 7.188486 
22.991970 2.471940 -0.703003 
-31.465706 -11.692992 12.726608 
-18.723942 -2.600031 12.490232 
-22.618061 8.427499 3.362724 
20.958715 10.367088 11.122822 
-11.433064 24.348650 12.959313 
23.280092 -3.946500 -0.978368 
14.036015 14.907297 8.267637 
26.477932 -3.746514 3.698391 
28.884651 5.421974 4.977005 
21.679976 3.162108 3.251414 
-15.916262 13.218932 1.077603 
24.623175 -13.122755 12.212396 
21.391272 5.811755 2.959538 
20.480431 -4.079032 11.225435 
6.805237 22.937866 -0.606577 
-0.618658 22.746698 -1.312665 
-5.037559 27.017485 1.298258 
32.626671 -5.042677 6.705031 
-12.462055 23.987810 7.110242 
-16.250467 16.493591 7.966049 
24.224524 0.333664 3.226817 
10.676617 17.233753 -4.136090 
13.666416 21.139874 14.686432 
-15.511218 22.464712 -2.395829 
-21.055738 -10.479188 0.982253 
-2.710115 25.568211 18.696831 
0.352579 21.471384 10.275620 
16.777983 7.429338 -2.992885 
-19.311642 3.839397 -3.232745 
3.395409 29.894032 5.009209 
3.059928 22.222538 12.870799 
18.817654 13.385937 5.547562 
-28.974260 -5.794996 -0.034593 
-25.515465 4.014460 4.366190 
13.181402 24.912062 -3.913758 
20.446806 14.668937 4.476435 
1.531164 26.352257 13.399737 
-27.664549 -5.477289 12.287117 
-30.470823 -1.957823 -3.024097 
-22.330723 11.507691 -3.354255 
22.032480 -1.638621 4.640811 
-32.087055 -8.556215 8.591712 
-22.855705 14.260339 -3.983509 
-16.517776 22.218996 1.806255 
14.785744 16.080767 -1.945198 
15.523714 25.605789 4.042783 
-22.091331 1.904490 -3.926524 
25.635036 1.127683 4.160277 
24.064596 4.803945 -3.292967 
4.312981 26.476101 17.349871 
17.342270 27.052227 9.898573 
-16.645493 13.431438 2.999326 
-14.089193 22.999487 5.031391 
-25.311512 6.072682 8.755123 
-18.911509 -1.838706 16.103796 
-17.811068 8.190361 -4.403567 
1.561213 27.922968 1.210135 
-18.025480 15.173003 4.625010 
-23.455898 12.229626 0.284148 
-1.475940 23.848127 0.871551 
-0.566289 23.600483 8.035482 
15.448507 9.364281 12.333855 
19.560841 13.075081 7.144022 
8.069774 25.082983 6.524414 
-24.022310 -10.737272 -1.736092 
11.968701 24.893721 4.584064 
-18.819874 -2.633304 13.607597 
-28.103472 -15.748134 14.828790 
-19.485743 4.505906 9.863967 
30.159277 3.620659 7.225346 
-1.017847 20.430655 -4.505682 
24.197237 15.370059 9.060303 
32.766281 -10.181732 4.392319 
-12.952616 14.540609 10.756560 
18.499041 13.275758 -1.455475 
9.649800 25.154081 1.957804 
26.465811 -7.071843 12.504738 
-14.017947 19.817698 -2.495797 
-20.751148 17.826756 5.615407 
-17.040104 17.105553 4.939671 
-5.168849 22.346668 -0.713385 
-25.571762 4.774804 -2.808457 
-2.343985 26.240147 3.229288 
12.383545 20.762949 -0.392348 
-21.467972 10.125319 -3.870090 
-15.812842 24.184042 3.106605 
-25.724365 -2.117236 -2.881298 
-1.940292 28.239420 12.288897 
26.987608 -12.029844 1.694257 
-19.202835 24.245478 8.055199 
-27.146454 10.163733 11.566394 
-4.836231 24.365654 2.210684 
-12.026299 26.460817 2.547272 
24.526012 14.509449 8.955884 
-28.368586 0.618374 -2.124847 
-22.014181 -8.537086 -0.928202 
-29.321768 -0.043690 -6.031343 
-31.412203 -14.115355 17.349133 
-2.150130 28.826872 11.225164 
-9.279247 15.015690 14.261500 
25.917231 -11.374292 -0.958281 
-24.786367 -13.194343 7.389863 
18.241756 1.003274 10.326192 
21.839817 15.789405 9.380860 
25.406982 -12.110996 7.846995 
23.596865 8.024057 -2.944753 
-29.463724 -13.077645 12.287717 
13.197328 21.206789 1.734397 
28.350111 -13.982270 4.982248 
-27.488380 -11.133543 3.258219 
-19.099676 17.883566 11.428948 
-12.965952 20.570715 6.510262 
-21.886328 10.630521 9.181694 
-15.984230 9.650920 7.928073 
-27.998526 2.957731 2.003653 
1.920252 27.394920 -6.618174 
-7.956939 26.114021 11.200617 
26.154356 2.058180 11.519194 
20.357651 15.880119 12.117081 
-18.497042 24.093973 9.996778 
2.032921 27.241516 6.409835 
12.027456 25.721989 4.778686 
15.193084 14.007443 5.635407 
-13.392731 20.943588 14.375008 
-16.104389 22.128136 16.824966 
3.454056 24.395002 1.380169 
-3.147622 23.281944 -1.505321 
-17.016829 20.933920 1.237909 
-14.673002 21.397610 3.246885 
15.628323 10.956196 9.319868 
-13.055023 11.135022 -4.191343 
-20.650057 15.332532 -0.939270 
3.827856 27.881575 12.756339 
-28.119535 7.839221 12.123088 
18.673029 3.716427 -1.406867 
-5.081633 22.745924 0.094636 
22.484718 18.645807 -1.756413 
16.884996 19.872581 7.290597 
11.610356 15.695941 -6.027679 
25.870007 -5.982234 5.558701 
28.549974 -9.779293 -1.285889 
17.036562 18.958241 10.189727 
26.638186 10.474914 -5.174820 
19.339821 13.318941 6.358346 
17.507032 8.596331 0.206987 
2.868893 26.180130 -9.288581 
22.526480 13.422686 -2.613981 
23.950943 15.646478 -5.337516 
-30.656944 -12.688182 2.302573 
21.429771 4.472451 6.869958 
-20.202850 22.620264 9.998322 
32.196949 -6.560383 7.533470 
-12.740396 12.477663 -2.572442 
-19.585255 8.718544 3.730304 
-25.216614 8.163432 -1.650648 
27.451042 -2.839238 5.847233 
-2.553504 25.757120 -1.344451 
-32.172501 -4.402433 13.444484 
-26.746635 4.705173 10.690989 
-21.649153 15.795413 3.738276 
30.988514 -7.511434 4.916095 
19.212379 20.160570 2.810290 
-22.868942 17.025711 11.955188 
-30.339359 -13.325106 11.691058 
13.266645 24.035143 -4.126425 
1.212160 27.798161 1.971345 
-10.549760 24.979862 2.667416 
-25.598383 -7.169755 12.480244 
-22.517477 -14.236981 3.214414 
10.410490 22.839136 12.978911 
20.299826 -4.226209 -3.859461 
-16.723835 19.483706 12.429399 
23.797871 12.979359 3.859588 
-15.939175 14.203420 0.517308 
-28.668156 -11.318414 -0.496480 
-30.443123 2.388509 15.567640 
-17.949903 11.900505 -1.556919 
27.803200 7.926768 -4.215466 
-29.983459 0.848617 11.429134 
-5.866970 20.128958 9.094564 
-29.753071 0.359082 -1.502733 
7.590529 27.976391 11.293457 
-27.425117 5.017840 10.071791 
-20.710411 18.066212 -5.453786 
0.551576 28.213779 2.280144 
27.785686 -11.130615 12.702308 
-8.773745 25.613731 12.005607 
27.366100 8.865765 -3.640183 
31.226263 -2.503558 0.426124 
28.932688 -10.288547 7.726780 
16.511955 14.224955 7.589918 
14.833662 24.031946 17.724665 
31.499624 -6.434973 5.252042 
-21.107109 -4.275118 1.004849 
-15.441711 24.247477 -1.029484 
-23.551779 -1.529433 3.248370 
10.314108 18.845514 -1.584519 
13.480197 24.510010 17.541016 
24.392761 8.911123 -0.620621 
11.765809 16.001917 -4.574360 
18.646246 16.520819 5.645248 
-17.653366 20.439289 3.812339 
-10.462318 18.893398 11.753927 
6.340280 28.982649 5.622096 
-20.788160 10.277475 4.452560 
-27.382790 2.075540 4.756155 
28.164690 5.587810 1.014441 
29.824362 -10.388586 8.477312 
-22.744759 -3.730553 -2.387191 
1.816163 28.314983 -1.852049 
-16.524958 2.376774 -3.680329 
-22.478764 11.679019 2.950270 
-20.714148 18.563580 -1.703011 
-15.364294 12.575914 4.449524 
-22.450266 14.966137 -2.939716 
-26.784521 10.847541 11.962832 
-18.096468 21.751909 7.231426 
-29.588198 -12.438693 5.690752 
20.151234 -1.814929 17.910435 
-19.534693 12.186521 11.609980 
13.032610 26.120071 -4.270948 
-14.944451 24.504631 8.514195 
5.168411 24.686827 -1.236339 
0.961796 27.609753 14.412341 
-22.289385 -10.964593 17.479166 
24.532362 14.575985 -3.273329 
-20.247499 18.705114 11.109968 
14.213506 15.217499 9.127975 
-0.749990 27.100637 4.365803 
-21.697702 6.639610 0.917946 
21.966255 17.096399 3.724009 
-22.592255 10.536057 3.116551 
-6.713553 27.748545 2.328845 
-16.541906 22.756397 -5.347751 
-24.438971 -9.091345 12.383961 
-19.429110 8.347658 10.543229 
26.680239 -12.073785 2.479347 
30.337652 -10.961779 3.199820 
6.688119 27.607368 1.201309 
-6.825916 22.164158 0.941739 
26.165806 -4.192912 3.074381 
21.503218 10.295026 3.674319 
-32.895309 -9.262033 14.626099 
-24.721127 -7.684713 12.117269 
23.950106 13.625774 4.858407 
15.789507 14.015479 5.039248 
-2.940760 25.121935 12.536575 
-14.142544 8.927166 16.036037 
-17.215586 3.743329 9.682069 
-14.913577 19.994881 0.118092 
10.757461 20.492813 -2.045111 
12.593186 23.885519 11.110560 
-14.041956 23.612616 -8.107692 
-5.336234 27.312124 -6.465362 
24.382215 2.760961 3.983697 
11.503559 25.578512 12.967200 
21.723494 -2.804434 9.180091 
20.065241 6.723862 3.737885 
-25.735397 6.023537 -1.732223 
-14.969479 7.114157 -1.657265 
-30.643593 1.357429 16.567947 
12.675867 13.739141 13.292488 
-19.508587 -2.221167 8.314377 
-13.979510 18.860847 13.963155 
-12.664206 13.352962 -1.418734 
-11.632586 22.842714 2.964701 
20.837181 21.401125 10.241652 
-11.504786 16.243294 -1.143860 
33.838036 -8.306363 -4.233346 
25.042875 -13.941039 4.722787 
-14.813089 14.960155 -3.205080 
22.833399 7.535357 -2.539177 
16.309710 6.455198 10.669132 
16.592955 6.505414 14.584692 
30.026331 -6.806228 7.463385 
-1.434500 23.405434 -2.850953 
-23.481792 9.323029 1.072503 
34.559410 -10.702365 -0.807102 
-30.989996 0.370476 16.463480 
-25.877251 11.506323 9.229948 
24.169111 -11.374397 17.622568 
-12.063252 24.154617 13.478991 
25.846375 -6.847638 5.140472 
4.302755 28.926243 10.628651 
4.199410 25.022747 14.978891 
6.998740 25.051754 2.933879 
4.932565 20.006054 10.970280 
22.367476 18.491503 0.146970 
-30.270252 -3.299388 9.715679 
-14.496492 23.205078 7.595805 
13.566446 18.711491 -0.940230 
21.723753 12.908175 -3.887098 
22.154312 3.506286 10.409855 
16.725538 24.574888 -0.668490 
-6.230973 22.916960 -2.726072 
-17.311926 -0.248452 -2.589598 
0.568406 27.536541 11.242635 
-18.312571 9.065511 7.448128 
31.378649 2.345411 12.114254 
-23.926931 2.220477 11.329498 
-23.293688 9.467025 -2.052770 
20.068951 26.109966 8.496257 
-22.675102 12.318366 6.037107 
26.335890 6.383022 -0.948156 
21.907017 0.491494 -3.785571 
26.875628 -2.116714 -2.447108 
9.698917 27.483940 -2.719112 
28.596395 -11.007853 7.939467 
-5.974209 22.251284 0.720333 
-23.885382 14.651442 6.822368 
0.227305 24.403334 7.683894 
-9.222915 24.640911 0.283594 
-30.409843 -4.110094 11.020193 
-3.440062 27.325449 -1.645708 
17.796873 14.038596 2.623458 
-25.209265 -5.832096 8.270889 
-10.894068 19.538263 12.231300 
25.395124 -12.580162 10.100710 
25.614876 11.725121 -7.066876 
20.451361 14.563871 8.204807 
-25.274965 -3.829941 4.801744 
18.386515 12.133634 1.930571 
29.817270 -2.243920 11.096806 
-14.954203 18.100588 -2.409307 
-12.722651 26.170067 -3.041677 
17.958263 2.520232 12.012480 
0.824016 19.935921 12.791862 
22.475338 0.538079 1.922983 
-1.045686 26.552334 -9.380835 
18.074799 20.591253 8.257367 
13.400076 23.889782 -8.863632 
20.475687 20.397745 5.705266 
-3.640930 27.957073 0.731934 
30.680590 -6.608962 2.803593 
27.021917 5.664791 10.981475 
16.240677 19.395538 7.092827 
13.776330 21.812956 15.264090 
-12.195703 21.891176 2.479311 
26.684673 -10.381049 4.899430 
7.087831 26.703152 -1.205317 
19.871555 24.464655 8.729901 
16.550814 24.123285 -5.633601 
17.426914 13.483335 7.236681 
-23.106195 -13.968958 0.941789 
23.078482 -7.596999 0.975478 
-18.756916 -2.435605 9.928792 
12.718052 25.727629 8.296129 
22.581070 -7.469383 8.317112 
20.857725 11.455047 -4.478251 
-29.296076 5.258093 11.238171 
-5.945572 21.620071 9.795205 
30.727110 0.547618 9.598135 
28.377262 -0.897884 8.458029 
-28.926651 -10.250884 8.605407 
-4.609614 26.696283 2.954865 
8.889774 19.622154 -2.283190 
-14.513843 25.604538 0.032864 
23.356062 16.313437 -1.876073 
-3.181288 28.268410 1.500910 
-31.129099 -7.420367 1.031516 
-17.508490 14.806819 5.300732 
-23.870752 -5.596958 -0.082277 
-28.496717 -13.543579 13.278282 
3.102391 22.560350 -1.831474 
17.832478 20.238207 -1.709800 
-18.090782 2.900324 -1.277177 
-25.904352 -5.378568 1.802138 
8.243943 28.026558 0.019027 
30.023693 4.026285 18.127810 
17.516218 4.168427 10.585308 
-24.539497 -8.231595 6.488562 
21.848249 -4.762494 9.014340 
-24.640762 -3.726708 3.890946 
-24.989016 -14.847919 1.989994 
-24.236582 11.442769 -4.166492 
30.646389 -2.598558 6.634492 
17.849195 18.872190 8.492308 
-23.784555 10.076890 0.754000 
-19.590704 23.086227 10.509655 
-26.475357 -14.406989 12.094193 
31.206158 -12.854994 17.599566 
17.798092 5.851253 -1.776613 
19.680096 16.775648 4.950211 
23.944918 11.956027 -3.998873 
-12.476079 20.235859 10.409982 
20.947815 2.908084 3.677755 
19.391842 0.710389 7.458716 
0.540417 28.199800 -0.603451 
31.515087 -11.326939 6.420046 
27.842308 -8.319534 5.634736 
22.277359 13.988664 2.036232 
2.024425 27.194042 15.561604 
10.446802 21.717731 -1.316354 
8.765800 22.888630 8.975080 
-26.441578 -0.083312 4.561681 
-21.547606 18.422132 12.852289 
14.581263 16.395206 9.746839 
-23.756102 6.364327 -1.661351 
20.618050 20.044289 0.422791 
-5.109820 17.807356 12.815955 
-24.998798 -9.481385 12.871019 
23.280773 -12.950638 3.846672 
-11.458848 13.038377 -7.637262 
-7.975760 27.634691 4.737759 
14.779603 16.778194 -1.365762 
-9.497959 18.766361 11.610065 
11.232398 25.324255 11.366139 
21.981852 18.979246 16.048027 
2.285933 28.157858 -0.057091 
17.047693 9.004169 6.952185 
-32.629417 -6.521000 15.855785 
-15.023990 24.231503 12.313356 
-19.029989 1.386643 7.987666 
-12.270697 19.577957 9.878339 
-30.754538 -9.322559 4.991801 
-24.318062 5.331779 8.778797 
23.280422 8.624054 -4.054751 
-28.117981 -1.104922 -1.105515 
-5.485014 18.601583 -6.828221 
26.525032 -3.496297 6.019206 
33.096325 -11.109773 16.286114 
4.794504 17.761665 18.475964 
-19.036364 2.892946 -3.348161 
-22.430380 -4.248296 10.513771 
-21.738699 -5.606051 2.909225 
11.901366 24.433546 -2.935930 
17.917950 26.173813 12.364080 
-22.296883 -5.142025 9.738750 
20.447779 4.640119 9.214992 
29.831348 6.022826 10.615718 
25.978895 -12.331208 1.585893 
-25.246426 12.420611 9.501794 
14.301552 25.338503 11.955637 
24.285082 -7.727589 11.087253 
24.020676 -6.530266 0.196356 
14.839981 26.086258 2.809735 
-24.552713 -4.209465 0.176621 
-11.800036 22.006180 12.152699 
-3.211651 23.095213 8.472692 
6.594728 25.227030 7.551491 
0.710078 27.146124 4.625620 
22.795483 -3.391915 5.442868 
-10.731462 26.533298 3.941135 
-2.876355 21.764256 -0.884570 
-18.662956 17.810543 12.269843 
-3.748114 26.516514 -1.694151 
11.991282 19.381557 -2.110392 
21.978828 -4.014396 0.275074 
-19.254725 5.785131 3.393406 
-16.570122 12.996758 11.627817 
-32.747589 -7.749922 13.879457 
-21.757460 -8.670290 9.214466 
-11.663816 23.829716 10.368606 
15.585070 19.591908 14.944105 
3.967215 26.594122 -8.089171 
23.996033 16.533663 14.529246 
-20.768879 15.911679 -1.606800 
19.259314 -0.399223 -0.248602 
25.426174 -3.999963 6.562222 
-15.182270 5.979662 -3.407122 
-24.873428 -11.880254 5.062114 
-32.196362 -9.675772 9.797233 
7.632252 24.335831 8.315656 
-13.482471 25.020390 -3.755039 
11.552907 19.863338 8.327991 
-5.181033 27.705404 -0.712198 
22.905592 -10.444706 3.839633 
-22.285500 7.862477 -1.007718 
24.396856 15.552981 15.106583 
10.737503 19.836037 7.981321 
29.619793 -3.586473 6.337144 
-13.139277 14.853304 0.868694 
-17.458744 6.094095 8.054915 
-4.100281 20.040094 -3.775326 
-25.831871 -2.422403 5.404899 
0.183411 26.658674 16.876587 
2.832291 26.598082 3.920908 
-6.922166 28.778587 5.443670 
14.348924 21.233585 15.434683 
-19.627142 18.160555 10.877320 
20.623392 3.606974 4.808376 
-16.452608 3.704908 -1.775595 
32.163570 -11.560653 12.972618 
20.996273 -5.082378 -0.773219 
32.609715 -3.512346 -2.093072 
-11.602128 22.765221 4.604892 
-25.483654 -15.435913 4.942235 
-16.916563 4.188516 -0.358222 
-27.841066 4.551929 -4.543296 
22.324566 -3.308531 6.276916 
-14.518917 14.304999 4.491676 
-20.087389 8.293263 11.022992 
0.008516 28.082066 12.928713 
-14.326901 23.219450 -3.827124 
-25.921341 5.356136 9.280848 
-21.568943 4.510151 -3.408538 
8.573578 16.463085 16.666269 
10.311673 17.672630 11.739556 
20.933184 7.195775 -3.222373 
14.096571 25.374779 6.212052 
24.189934 16.700027 12.564602 
-18.077417 -0.014128 12.551015 
-24.619152 0.775234 11.757784 
-28.825794 -14.111806 5.603944 
2.787515 23.720667 -0.307549 
-24.512594 -8.802570 4.224460 
26.389910 -10.249882 5.741839 
-26.991697 5.406430 1.154946 
10.689029 18.134300 10.661635 
14.751981 16.037657 4.516781 
-15.945286 21.667475 18.529318 
21.454525 1.284729 -3.775884 
6.852623 24.397572 7.861212 
21.813328 -2.214239 3.889770 
17.801182 25.790842 13.281373 
-30.922459 1.446913 14.398909 
18.308672 4.227273 -2.068377 
15.132327 19.022579 9.948363 
-17.744602 -1.154420 -1.681007 
-29.965349 -8.179605 14.026220 
-10.625605 21.376181 -2.926552 
-26.341953 -14.831551 2.895131 
7.021815 22.458643 0.251524 
17.660736 8.239515 0.948281 
6.094973 19.692694 -5.186719 
-5.752517 28.785473 5.489701 
-19.317574 18.408798 12.280663 
14.085063 23.868153 -4.301533 
14.901514 23.305511 16.279900 
-19.864763 2.187898 9.455801 
-18.189178 10.271637 9.407205 
31.644262 -6.714545 13.375060 
21.146238 20.270769 9.520446 
23.242239 5.720918 10.294065 
9.977060 21.285818 0.144831 
-21.172106 4.244696 5.441503 
-14.670535 16.395412 9.328250 
7.597864 21.252600 9.460773 
-17.951143 1.658407 3.802132 
-2.692991 25.033621 -3.610266 
21.606436 19.644123 -0.506752 
21.442493 -7.646516 12.554049 
-25.524788 6.608051 0.767232 
14.480323 26.346182 0.870118 
31.045542 -5.762825 -0.230446 
-25.508226 -0.300867 4.914689 
16.556889 20.672832 -1.884737 
-20.710173 2.202607 5.242695 
-8.196851 19.176025 11.471191 
28.662132 3.023658 -2.034273 
-28.423994 7.039673 14.503845 
10.543126 27.409878 -2.357996 
-24.502304 -10.503287 6.157496 
11.883518 25.713894 0.638833 
18.808147 20.780886 8.701348 
25.138454 -9.385530 -1.487499 
16.218338 21.071402 9.381562 
-12.115746 12.592476 -4.945528 
-23.539717 14.753720 5.925242 
19.101202 0.236096 1.215637 
-30.194836 -11.336628 5.434577 
-0.039184 20.747894 -3.906479 
13.016364 15.333224 -2.604853 
-13.224073 22.543629 10.764794 
5.461694 29.933754 8.563132 
-21.222815 -9.347097 15.682367 
-30.156450 -12.634247 4.637941 
30.449818 -4.698187 4.953822 
22.730852 -14.114435 -3.553804 
14.650467 15.847016 10.421236 
21.227699 17.310175 3.081623 
-12.919392 11.827744 -3.229530 
-20.573811 19.378790 0.764373 
2.683240 26.883739 14.037618 
16.248096 23.379274 -4.169528 
26.378693 -9.708517 12.464525 
18.776459 20.931660 7.796286 
2.749123 21.181700 -1.862435 
28.089561 7.504609 5.441632 
2.059385 18.165056 18.479477 
-28.441570 -14.381070 11.107407 
5.427717 28.900055 10.668630 
7.959940 27.152868 11.267469 
8.608916 26.089128 6.552149 
23.057343 7.783947 7.370068 
12.828677 23.562283 3.005794 
22.998728 13.169313 2.814363 
-4.061821 28.164162 3.432271 
-14.360617 23.120686 13.696254 
-20.364378 20.501005 12.124214 
-18.724535 9.768888 -4.438743 
21.719206 14.853126 -2.106142 
-24.031292 -13.772782 8.597837 
-28.095310 -1.100965 1.989314 
13.271208 13.744423 -5.072330 
22.460182 5.335656 3.900174 
20.462473 -3.838679 15.801678 
-18.441742 16.071747 6.060545 
16.380875 8.212406 -3.932085 
-12.754884 23.310942 4.063006 
20.459902 10.030718 -4.716183 
-16.965811 11.384068 3.207226 
-26.116129 -14.786709 11.064387 
22.550896 17.661949 0.792141 
-14.574389 24.873680 -2.757488 
-32.405956 -8.319112 9.874784 
20.578335 -0.428762 -3.430644 
-23.731543 6.960516 1.233253 
31.135790 -12.608115 12.791491 
-10.879839 20.429482 -2.581344 
-17.565025 11.012732 5.254468 
19.104673 7.019540 3.615621 
8.377738 29.540880 7.272176 
-12.680862 20.130606 9.442330 
15.702384 13.772093 -3.243914 
23.307304 6.719006 8.597110 
13.207017 22.714437 14.597070 
-22.797365 10.822836 9.199970 
-17.107512 11.467473 4.683683 
34.120640 -8.674038 2.852521 
-7.218436 22.052420 11.412695 
22.525488 9.359096 8.340197 
0.769024 24.034363 10.371482 
2.336444 22.519032 -1.525072 
-20.683668 8.401577 7.865719 
20.219908 19.123514 11.599293 
0.967206 28.024616 0.116534 
23.402443 4.060794 10.803696 
-7.708895 18.804098 8.067568 
29.034830 -11.279366 4.285164 
21.736961 -11.849227 0.083104 
-18.546965 12.609271 -0.770141 
-4.586074 24.389446 0.348112 
30.531506 -6.635051 -0.690380 
-12.732009 25.320154 5.569220 
3.532999 24.559845 -1.003930 
31.903614 -7.122710 8.047353 
-26.076899 6.503557 -0.738951 
25.703470 -1.105614 11.026913 
-18.280687 -2.299217 -0.919032 
22.242073 8.543550 2.760159 
-25.965672 1.051259 5.718897 
-16.859381 21.696194 16.750555 
27.927301 -0.619224 3.808844 
-19.926126 -9.719141 -2.572143 
25.453537 -2.165627 -2.920271 
-21.710930 8.792857 4.948284 
22.608538 4.241615 10.473650 
28.157269 -2.241807 8.006636 
-14.507463 13.634296 -1.032191 
13.129606 19.584208 11.769661 
-27.989048 -10.340743 14.150041 
16.402203 18.337021 13.760538 
-15.524171 9.561166 3.574281 
20.484903 10.310879 4.844975 
5.920750 25.727152 13.180148 
29.553106 -16.828979 -0.943163 
-23.221912 1.773756 11.247715 
-16.879393 4.943120 0.042789 
19.087927 23.965591 8.849048 
16.835299 24.213722 -1.922811 
28.336386 -1.115850 3.180549 
32.026192 -6.941899 4.824060 
20.808632 1.868491 -3.658890 
-18.064028 13.027414 11.914137 
-13.538189 10.080413 -4.128664 
-17.089869 24.289206 11.525518 
-9.168558 26.427666 -6.850154 
-6.925592 18.987217 -3.389518 
-22.414961 10.282844 10.273803 
21.621132 19.784740 -3.598324 
-22.754902 12.098112 2.307029 
21.239500 17.851774 3.738326 
6.757786 21.449839 -0.873819 
23.204958 7.378168 -1.288022 
2.435433 23.828602 9.023890 
-31.992428 -9.813630 12.849734 
-32.187126 -10.317222 1.999004 
-26.443306 -9.538989 13.652442 
28.412905 -0.150276 11.247066 
23.384298 -4.311900 2.400602 
-22.372402 -5.813813 7.143861 
-30.467997 -13.364276 10.736891 
-0.704087 24.849628 7.455779 
-0.495708 27.469860 5.228056 
18.060863 21.319065 9.256398 
22.659985 6.333614 7.833458 
-11.931452 23.357553 3.630493 
-21.991714 15.109950 -6.562988 
-22.408880 13.075573 1.552157 
13.385472 24.187136 18.707447 
29.291319 0.783702 2.195622 
29.264696 1.989638 2.136555 
-27.045189 5.933353 -2.643672 
19.849125 20.086937 10.186459 
-28.353312 -12.589809 6.549845 
27.204699 10.735596 12.553835 
-15.333966 23.278559 5.017344 
18.949125 1.596468 18.013943 
23.071756 -11.385008 1.036109 
19.627789 17.799576 12.365826 
17.585405 10.361217 2.625462 
-21.438337 7.541403 -2.552249 
-26.977491 -14.790610 10.862558 
33.730255 -8.653234 13.567320 
-18.350588 20.507280 17.680079 
-5.938974 22.148716 8.222110 
-22.434757 -14.512664 -1.498425 
22.185844 18.289072 -6.389894 
-21.883783 -3.828375 -1.605926 
2.583061 26.129553 14.525145 
-27.097130 3.357708 -2.599687 
-18.316942 -0.703779 1.881378 
-23.042604 16.871603 7.436935 
8.306499 16.770260 15.329576 
-19.181532 4.735117 4.720982 
19.187220 15.858658 5.059674 
13.555966 12.895885 9.821886 
-30.591118 -5.517488 3.038649 
-12.394485 11.691593 -7.462423 
23.304890 6.520864 10.000779 
-19.756237 -4.292074 0.134993 
-11.404764 25.482197 4.369434 
20.005379 13.717935 -0.839586 
-2.659501 19.749783 11.697061 
29.863066 -4.241094 4.637773 
11.441038 25.304047 16.541477 
-19.801897 18.371851 5.792795 
-7.105897 27.323353 -5.254165 
-10.505803 25.136730 1.001345 
-9.642316 26.640574 5.684884 
-8.978686 23.875216 0.421583 
-23.892382 9.779024 11.068956 
-28.491449 -9.070190 14.135777 
-14.782031 9.432837 1.638064 
22.937073 -10.286326 16.150038 
10.385818 20.982412 12.095016 
-19.955032 21.784676 12.044408 
-21.769276 17.830877 8.038029 
29.921926 -11.022005 4.247303 
-4.986353 27.618914 12.948263 
5.444049 28.027205 -0.908549 
19.872017 -1.659971 -0.141650 
-27.035089 10.122341 10.350175 
-26.293203 11.077648 15.012051 
-15.170921 16.010338 5.389286 
-22.051477 6.508064 4.950402 
16.514023 26.575603 12.294013 
8.111012 25.839563 9.538336 
22.879442 7.907877 -3.869390 
-27.290478 1.149782 5.241843 
-20.936378 18.733606 1.103804 
-22.996082 4.811090 4.449901 
-2.854121 27.043501 -8.123422 
25.259090 6.623529 2.797873 
33.134666 -5.469924 10.710706 
-10.308621 20.492855 0.941770 
-29.225262 -10.223898 6.566096 
0.123463 27.704336 7.282029 
-15.709121 24.156872 -0.272481 
31.802002 -2.062152 10.024538 
4.023221 27.047201 -7.025777 
-19.271595 -3.631776 14.614463 
33.989777 -7.320535 1.960873 
-6.127335 28.757204 10.506456 
-27.678450 -14.617495 10.045311 
18.224985 11.255778 5.366158 
14.864772 23.782640 -3.107370 
22.303219 5.185781 0.171369 
-18.047522 3.664462 3.313663 
-15.724731 17.319036 -0.391336 
-21.284559 8.688709 11.185739 
-20.298126 0.006527 -0.478939 
11.133054 23.604506 1.729702 
-16.076912 16.282658 5.482504 
31.860668 -5.969208 4.667312 
-31.833761 -13.362926 15.225090 
-18.707861 4.677943 0.185756 
-0.669795 28.713812 10.558420 
-14.761883 20.876020 7.046163 
24.383915 -4.253499 9.697554 
-17.065277 17.575054 14.356012 
13.994852 18.801729 -1.622252 
-16.017569 5.999442 10.744027 
-30.197079 0.265480 7.783688 
6.199708 20.538847 -2.822445 
-31.457077 -7.445251 2.963845 
23.282238 17.390577 5.656661 
27.405556 10.009511 11.037271 
-29.921749 -3.969953 10.096831 
-25.653547 -9.057308 4.355640 
-28.653425 -12.214641 -0.144155 
30.996431 -15.231324 0.904660 
14.102680 18.875206 0.168484 
30.784506 -2.290184 10.407565 
-22.604996 -0.059238 3.001568 
21.281113 14.541805 -2.861167 
-19.000952 15.665561 9.771824 
-29.155069 -7.565687 7.342903 
-19.950102 -5.585392 14.120839 
13.292191 19.567751 0.828535 
-4.093204 28.200672 4.501773 
27.666456 -11.579292 5.985991 
-27.449669 -7.086725 -1.129575 
4.674481 25.684233 13.870729 
26.299854 -0.203516 11.295541 
-2.925156 27.436392 -6.958080 
-18.460930 -3.659176 -4.374436 
-11.633636 25.351942 -2.749703 
-23.900967 0.577905 -3.821763 
26.754078 -13.356883 17.568764 
22.216452 17.981699 3.983850 
-20.390125 -1.083282 4.769002 
-23.821247 -14.217031 0.396047 
-3.177586 28.412508 3.000110 
-21.760105 -13.576222 3.059880 
20.657112 -4.884273 13.775415 
2.119895 20.311541 11.580363 
15.313509 18.168190 8.939300 
11.539332 25.827995 -0.117383 
-12.707629 10.837234 14.842173 
28.926933 3.610319 1.419682 
-23.797306 8.710199 0.079730 
-20.020798 -3.609531 2.430429 
22.784086 19.340704 7.845650 
11.753526 21.076275 7.414496 
29.962505 -13.423329 12.580869 
20.733448 19.435947 2.060275 
0.210631 27.017309 6.748711 
1.099658 25.946529 -0.018287 
-21.900845 13.404242 11.692779 
16.853699 7.417334 18.190409 
-25.358128 4.210184 10.841689 
-25.841709 -3.846357 5.446173 
30.021576 -1.414282 8.481999 
5.945907 25.860500 18.735170 
-20.976194 -3.730239 3.884284 
-31.096310 -1.109080 11.351573 
32.990692 -4.930160 9.031384 
-14.635384 8.453606 18.117126 
-23.862768 -1.663488 11.601518 
20.305717 15.443756 -0.886913 
20.008673 5.594696 8.489429 
-5.625026 20.549004 11.343553 
14.461205 20.838741 9.220565 
-27.151226 -12.704680 -0.598876 
-28.370243 -9.836794 -0.969254 
18.911709 19.529530 3.380882 
18.766783 16.377899 -4.717880 
-27.461082 8.344049 16.442003 
-24.857681 9.212568 -7.253676 
-32.133965 -5.583158 10.879781 
26.858677 -4.054530 6.610734 
4.048511 21.105185 11.201114 
-17.241499 6.816496 2.999013 
-7.398239 15.411845 15.046700 
5.963171 26.362032 17.207706 
5.138875 29.286766 9.795211 
27.685881 7.467636 -6.461236 
-16.109621 22.753643 -0.853992 
-21.677916 -10.962373 9.770860 
-6.399801 21.371859 12.413459 
28.831369 4.534208 4.792312 
22.303015 17.681482 -3.238551 
-31.859890 -2.579444 15.004596 
20.030594 -1.077887 -1.641010 
-16.257626 7.057586 8.539437 
27.875401 7.344243 4.592550 
28.877813 5.632242 -0.953095 
11.252661 17.348270 12.859791 
-16.298853 5.161193 14.839282 
23.166842 6.483852 -0.259232 
-29.974468 -0.828395 -1.570647 
29.790422 -6.015036 -0.820797 
14.218847 24.995483 10.283019 
-8.532838 21.699131 7.040964 
-27.687550 8.474589 14.984680 
29.091570 6.574959 8.902246 
25.153868 13.109168 7.094697 
25.806618 1.595684 -3.518010 
9.723079 26.636292 6.740807 
23.199390 17.712389 14.956476 
-32.300083 -8.727394 1.244736 
1.915285 27.767094 -5.435077 
-20.931990 -8.394124 15.568016 
13.291176 23.430285 -1.868308 
-14.996497 14.960041 9.143744 
3.040450 21.340611 11.441901 
29.217144 4.624158 5.511173 
-11.047845 22.336821 5.717144 
-4.825099 16.802595 16.221006 
-26.072304 7.238472 4.816810 
23.710337 15.153777 -1.696513 
-10.355593 24.792120 1.859644 
33.971672 -8.378932 17.749990 
11.518130 24.417845 -1.474254 
23.738352 5.765281 -2.415160 
-16.404930 9.554543 3.631160 
22.372004 18.709700 -4.575758 
-22.544125 0.066799 11.267482 
21.888470 -11.593377 1.434914 
16.153875 19.940489 1.632452 
-2.576321 22.649239 8.734153 
-22.018072 17.695129 9.194993 
-13.205272 21.443638 5.715654 
30.280272 3.489475 8.113578 
-21.459751 11.827332 10.977686 
-21.037928 15.348031 1.415577 
29.089737 5.859686 5.885812 
-18.154358 -2.646027 -4.601548 
-21.131405 18.517023 -0.884034 
-6.513187 26.121555 5.202328 
-18.486198 -1.363973 0.337285 
6.989194 26.363768 4.896361 
-1.794058 26.928734 15.678730 
24.507381 -10.348712 6.874238 
-11.846050 20.206331 -0.107254 
-21.572529 7.806188 -3.374381 
17.896341 19.512306 15.326112 
21.430563 12.766578 7.242268 
28.442165 1.177529 11.423977 
8.186876 28.100576 10.127735 
-28.361443 5.011931 7.658518 
-21.220163 -6.525764 9.516977 
-25.654463 -15.822569 4.046958 
7.782360 26.232601 5.080278 
10.227477 25.652275 16.445812 
-4.172431 18.444647 12.852659 
-21.260052 -3.409495 10.287938 
15.726963 13.790507 -1.713264 
16.221483 8.617217 8.032408 
33.240562 -10.977691 4.281730 
-0.012103 24.721828 -2.951662 
14.314291 17.398466 5.967508 
-25.291176 -3.015004 5.137134 
-16.332642 19.515320 8.075108 
12.169471 27.007204 4.231524 
-13.434547 12.301335 8.503328 
-26.377708 -11.024501 13.621640 
31.682886 -10.688183 1.157042 
16.562548 6.543786 8.322261 
-31.942188 -12.413757 13.604251 
-18.479530 -1.728107 13.271125 
21.370049 -2.674180 8.245621 
-24.236034 -9.263204 -1.883752 
-25.084887 9.572409 -5.091796 
-6.123841 29.896872 8.205386 
29.301521 -0.788735 8.892174 
-25.933062 -2.863878 -2.543309 
6.129753 24.672520 -2.528502 
11.979033 14.779548 16.326866 
-1.811250 26.719997 3.667579 
20.857153 5.279324 -0.640946 
-22.792673 -13.552513 11.640595 
19.275932 19.021379 11.687569 
-28.192621 -3.090638 11.141257 
3.433692 19.882605 11.682527 
-12.635615 11.450581 13.126677 
18.186750 13.587489 5.057676 
0.940127 27.997042 4.692444 
12.182671 20.886595 -3.304408 
17.594662 10.435204 5.704738 
18.171846 1.652091 12.373725 
-21.636475 10.499366 7.135469 
-23.479668 -3.588528 -2.834484 
-21.305962 17.962883 9.593171 
-5.339394 25.100718 18.673244 
-32.444874 -6.685493 10.637519 
7.183753 27.819712 -3.544568 
-22.720785 -11.653470 8.511099 
23.044603 18.325739 5.887876 
22.749115 5.566199 -2.209235 
30.705412 -10.107805 7.173433 
25.630421 12.447222 0.143199 
-25.032713 7.527964 -0.764315 
3.728993 23.447298 0.861793 
22.347883 17.159571 -7.846506 
-10.664086 25.154942 3.483040 
-8.732259 26.210213 -2.001796 
-20.879335 21.933102 8.065397 
-0.083102 28.979261 4.698830 
-22.197842 -11.054849 9.057615 
21.234886 4.811943 -2.059705 
1.613007 21.219715 10.247766 
-27.552399 -14.111121 12.611746 
-29.452446 1.775870 5.556290 
30.714489 -6.965335 7.871920 
19.781693 1.824529 9.117465 
-22.904547 6.970307 4.558302 
-27.419432 -2.651478 1.093966 
-25.694427 -4.200328 2.006128 
26.276123 6.669991 -0.047984 
26.157574 -5.751219 -1.258449 
-7.607214 20.480873 -0.559365 
5.207668 27.500839 -5.429186 
-7.617373 26.292202 12.061530 
-23.479153 5.463179 10.416368 
15.716457 16.501453 7.743476 
-24.195124 -6.442694 -1.475429 
-25.703360 0.017302 11.943290 
2.889021 22.256063 -0.810872 
-30.292580 3.492245 13.295346 
-20.846033 -0.505149 3.942990 
-14.395638 23.147448 15.328685 
27.346518 -13.066078 8.255813 
2.367332 23.159855 0.416901 
-16.985706 24.842077 7.902087 
11.777685 26.132956 5.547045 
11.290256 27.197762 -1.661618 
9.318117 23.019493 -0.030051 
-14.030446 13.657535 5.785561 
16.182848 21.816061 11.377946 
19.513056 18.601774 -4.470301 
-20.873764 20.098417 11.251604 
23.694279 -15.218637 -0.392674 
-15.392031 15.583196 -3.481688 
18.023542 7.637779 3.745167 
17.707882 22.539139 0.744526 
-22.424511 -10.215865 10.338291 
-31.716026 -9.970451 9.110271 
17.844473 8.515425 1.706848 
3.265066 28.655319 4.719821 
-18.665817 13.984376 -2.492992 
-6.288433 18.012047 10.194838 
-26.575317 -11.830359 13.577137 
3.657586 28.180241 -0.715655 
11.118742 22.666843 1.695576 
23.613819 5.681694 0.334111 
0.832615 28.016218 13.083680 
20.253498 4.322433 7.235821 
24.418951 -4.488423 0.960807 
6.968763 29.555178 5.248350 
-26.082327 10.882121 16.501572 
-31.772024 -10.834809 12.793656 
-28.793829 2.449036 -0.603748 
27.556698 -3.888388 6.182166 
-18.963820 20.783352 -3.139158 
32.621166 -10.321793 2.727330 
29.502653 -7.399402 6.575948 
-16.887060 1.228488 -4.855310 
-28.901184 3.020405 -2.674853 
6.071717 20.015877 10.554604 
28.964758 2.984117 11.358886 
26.116142 11.043704 0.050743 
-6.894640 25.678350 15.693471 
20.130091 2.627986 4.356662 
32.937119 -4.865376 1.160154 
13.178549 12.606672 14.736814 
-16.735411 5.981912 0.491097 
-25.748489 8.544753 3.611511 
-25.434423 8.851983 -3.795260 
7.815277 23.415094 -0.225050 
23.264112 3.180220 10.890556 
-21.967480 6.232991 -1.055151 
-7.166339 25.084333 17.455347 
-10.610144 26.842030 -2.010380 
27.012094 7.422798 9.387430 
25.096905 13.781526 -4.347221 
27.178001 -4.069076 4.819055 
16.769642 13.379961 -0.805135 
-6.130411 25.524187 16.996746 
14.598143 21.225897 -3.961816 
-3.660895 27.971310 -4.493621 
28.403728 6.481955 -2.961919 
-6.713001 27.603951 0.148371 
0.330926 27.546043 5.477760 
-16.982641 14.440649 4.400627 
1.553440 30.499468 6.270489 
12.812263 20.301634 1.135216 
-26.328196 -14.785245 9.316854 
17.651598 17.486097 12.123711 
33.282356 -8.884299 10.638298 
26.566607 -13.122169 9.769404 
16.444841 24.352274 -3.090223 
-28.332232 5.168779 5.402022 
19.065659 7.368006 10.314163 
-21.803728 7.471524 5.032278 
30.946463 -5.705766 6.478225 
-22.638866 -12.410407 -1.149064 
30.976704 3.499812 14.363317 
-13.280498 10.834333 10.583856 
-5.888903 27.672962 -4.442483 
-32.232510 -5.605757 17.614658 
-19.459803 16.696486 11.804824 
-24.885527 -15.521167 11.944540 
-6.024075 24.044912 14.998876 
-21.396263 -12.099878 4.424576 
-19.129316 -1.156957 7.936931 
-21.948746 -1.017142 3.417866 
18.833601 0.400273 8.022013 
-24.381929 5.527478 3.846511 
18.316996 21.964176 14.883487 
-18.130016 2.996377 3.921838 
17.619677 19.341871 2.205335 
-12.032662 24.309315 6.270333 
-10.528734 26.137596 -6.425091 
22.758375 -10.413121 14.773421 
-22.272989 -14.523803 -0.517973 
18.475039 26.962381 8.513927 
-24.380527 5.123803 9.744816 
-14.476651 20.184288 7.369802 
-6.119360 19.060137 -4.045483 
21.283627 -6.711696 15.615602 
-19.562105 14.414399 12.241624 
-6.973336 27.579996 -3.289285 
6.211267 29.837200 8.890889 
-21.510878 -9.624455 4.009305 
18.521484 19.623215 14.622192 
-19.707829 1.796200 7.430102 
10.842785 22.226128 -2.846153 
-12.078833 15.678512 -0.521498 
3.140636 26.814806 16.556324 
-28.369127 -4.738505 7.564159 
-17.287399 10.320333 7.461496 
15.900640 8.596006 16.145399 
-21.138853 13.661640 11.962738 
10.979010 24.925510 4.656405 
32.013069 0.520178 14.877565 
25.242792 -1.353631 8.093480 
32.063667 -0.605991 17.988632 
-12.974689 10.402809 18.184166 
30.020281 -13.671165 4.623203 
32.187054 -11.792420 5.184594 
-22.763891 -7.578900 1.146060 
-2.398479 21.090885 -2.116271 
32.223637 -2.532439 -2.288113 
-8.435412 20.050005 12.229977 
-23.236227 -11.387285 7.735471 
30.711329 -4.273806 2.155646 
19.239307 3.836653 2.867002 
-31.281221 -12.811385 11.121842 
-14.763072 23.579906 5.568012 
-30.532936 2.537580 11.642925 
-8.356497 15.227365 14.524486 
-7.992587 25.130911 3.291378 
31.353649 -0.932489 -5.270695 
15.571851 9.526611 10.880017 
-14.274661 14.765627 5.354312 
-12.600675 21.708820 12.721329 
25.162975 8.370910 0.258117 
-20.719860 -1.720538 -3.469167 
1.690858 25.271181 14.095667 
31.312344 -9.311477 4.214948 
1.778916 20.115688 -6.705525 
26.872458 -8.307774 4.470477 
-13.813085 19.945583 7.892581 
-9.004898 25.534773 -9.325086 
-10.162443 23.576252 4.585840 
-15.663769 12.377555 11.186354 
13.330869 16.616793 -0.806745 
-27.344017 -1.707291 11.858850 
-28.106968 1.001866 5.114672 
-27.403891 -5.029629 -0.397409 
26.333426 -2.909743 -2.319072 
-21.801031 15.977442 -5.532427 
20.512045 5.481381 1.120081 
-23.320087 15.956396 14.804631 
19.718575 25.191761 12.216166 
21.494890 -10.023017 -4.127880 
22.025934 8.401458 -4.341403 
-8.548939 25.320169 14.869373 
-18.883560 22.752247 6.292368 
20.569269 14.020682 -2.793490 
16.066442 23.162802 8.347469 
-20.603848 18.020775 2.590640 
-7.075232 26.022884 -9.371707 
-24.475866 -14.142001 5.089236 
-28.547443 1.840436 4.682952 
29.058289 -1.161162 6.351457 
23.446388 4.911007 10.619042 
18.448179 2.793511 1.405458 
2.541234 24.350496 7.786897 
23.779604 -7.471284 -0.253270 
31.930170 0.481618 16.367245 
24.552336 -11.918372 10.575982 
33.421585 -7.462236 10.149743 
-21.838873 0.904835 -3.943290 
-24.350283 14.754193 13.338909 
8.149419 24.911366 9.506538 
14.264485 21.645742 2.389403 
-6.812489 22.561279 9.671169 
-18.952568 15.698714 5.520909 
20.597132 13.957014 0.088852 
-9.266003 23.601429 5.075404 
-6.173413 23.992962 2.197345 
28.958750 3.845969 11.265152 
-11.749852 18.843262 9.443696 
1.646115 23.493801 -2.011325 
20.984213 14.009320 6.940986 
7.596443 25.627640 -1.332208 
-3.122208 24.098690 -2.914735 
7.408241 29.874357 8.640612 
8.713341 28.459923 3.704996 
21.070219 -6.119613 -1.304687 
19.507126 14.042318 4.876674 
17.028368 19.870337 -1.496334 
-24.446899 -14.525405 15.885670 
15.302594 12.382964 -1.721460 
14.037276 16.729916 9.202150 
-20.373457 15.713451 -2.400125 
7.506530 22.013309 10.526663 
5.652808 30.720831 6.353421 
19.661329 23.274090 9.159020 
-11.025724 14.471128 -4.630530 
-23.094826 12.896037 5.549688 
-14.135774 14.854190 6.246592 
24.138371 13.703336 6.881919 
-15.138915 8.245289 2.027914 
31.021030 -4.595955 4.172641 
-0.492011 26.334969 11.901427 
14.894863 18.301195 6.373295 
-7.793972 29.513351 7.971506 
-16.714783 15.633911 5.488993 
27.691790 0.867523 -2.739712 
-11.518498 14.672421 -2.645910 
-29.341690 4.651882 16.294443 
24.930182 14.658197 14.750167 
-16.201908 17.030849 7.237099 
1.633991 22.765640 -0.045441 
-0.970074 23.154545 12.652227 
20.187698 19.348631 4.454546 
-2.573610 24.294136 15.221737 
33.235371 -2.961143 12.749773 
-1.564059 21.368513 9.915505 
19.555954 20.469601 5.658096 
23.650928 1.567459 11.064424 
24.099396 11.914913 3.767282 
-4.376822 24.025431 15.308876 
10.081568 24.560661 12.446769 
-20.624737 -2.214733 5.525945 
-27.525915 9.363165 12.950670 
15.787066 10.048059 -3.307826 
20.409218 13.979564 11.149776 
-27.567245 3.993617 -6.566516 
33.190529 -6.820470 0.907381 
-14.240166 14.891544 7.761746 
27.846987 5.370066 1.939786 
14.949571 22.052725 3.280603 
2.538407 29.584377 5.081896 
24.715929 9.669329 2.717337 
20.231339 9.450913 2.369766 
22.256302 10.421305 8.501233 
-15.710754 13.498971 8.254617 
-12.256704 25.206490 -3.534760 
-9.576368 20.826044 7.487217 
-17.231010 15.698906 -3.613429 
14.839660 12.377371 7.999960 
22.463881 10.331340 4.326433 
-6.731136 19.442900 -2.617343 
23.061020 -3.769937 6.189775 
12.846221 15.020318 -3.576606 
29.800825 -2.068762 8.974048 
32.682552 -7.933780 12.804639 
-26.852606 -15.894884 -3.831640 
27.547562 9.963253 13.384916 
-29.073874 1.349350 -5.175766 
25.845272 13.480333 12.596030 
25.913811 10.984162 6.784043 
-1.534269 18.124506 16.880836 
-22.728081 -7.599585 9.761605 
-1.805425 22.704594 9.149601 
-31.411789 -0.607032 15.108351 
15.160933 15.738378 -3.881790 
11.035812 23.585106 6.438096 
-24.447760 -6.061612 6.700847 
-8.320543 23.549376 11.169077 
-31.207033 -6.432222 2.848033 
-18.463129 4.665852 5.771177 
15.753617 8.966811 10.036213 
21.998278 -3.670210 -0.640758 
-20.505445 -6.576397 11.240055 
2.444183 29.799938 8.544032 
22.334023 15.805956 1.290323 
24.843128 13.180239 18.398981 
10.903625 24.949022 -1.161152 
-16.599319 10.307393 8.424124 
-18.010958 6.853179 -2.587723 
20.469181 20.772003 6.788168 
-16.788364 18.968855 -2.715663 
-22.221588 17.421534 7.312533 
18.689344 26.118282 11.822757 
-17.145487 8.489367 -3.932199 
-19.045116 -3.695001 12.187865 
-19.205608 -5.751570 -5.142109 
-21.030233 18.944141 12.198342 
27.705591 8.280774 8.821260 
-8.885646 20.819534 12.758917 
29.419804 3.538009 0.554410 
-18.390213 4.420651 6.779183 
31.990490 -10.869348 8.777143 
29.040895 6.645333 16.455753 
-22.051817 -3.041079 10.754233 
4.550740 25.275862 8.202210 
-26.610149 -14.056094 12.848705 
3.609263 22.621511 0.216847 
12.750161 18.315504 11.289778 
29.584892 -10.335631 11.032722 
23.331419 18.724333 8.304932 
-20.048862 -4.916076 8.918260 
-5.346984 19.944933 9.708465 
6.401770 18.828489 -8.243244 
12.540302 21.266129 7.142031 
-19.779198 0.678097 -3.662690 
-23.062782 13.076874 9.098966 
-20.921238 -10.734656 1.951071 
-6.654310 23.754883 -0.927763 
-3.736838 26.098019 4.779624 
16.837002 14.310617 2.617387 
13.107925 20.916964 8.397686 
9.071023 18.168297 10.046202 
-4.505638 27.640938 2.897086 
3.442699 25.963900 8.068553 
-1.781319 26.064964 2.586432 
31.811663 -6.673904 -0.042502 
2.819359 26.021917 2.934752 
-17.252108 21.704470 -0.500901 
-22.262142 -5.671980 6.315549 
-28.119659 3.927927 -0.492178 
-18.574953 19.553564 4.050498 
-7.773888 27.977957 10.560996 
-15.852226 6.306043 16.076675 
29.631393 -10.619568 -0.703235 
-14.472797 11.150734 -0.056258 
-15.171173 15.567276 3.148871 
0.503703 23.283993 0.263211 
-9.183132 19.019972 -0.907201 
-15.161827 21.634815 14.156276 
23.420467 -11.920782 10.509376 
-14.186863 8.638695 -2.813389 
-17.171427 23.930607 12.271782 
26.710552 9.784410 8.754172 
33.090084 -9.913154 9.791121 
12.199876 20.045792 -2.799114 
-18.148649 19.470877 -2.419343 
26.219250 -4.191062 2.093875 
-31.968285 -7.919106 -2.393445 
-3.489712 23.849966 -2.120381 
-24.879847 13.762017 13.533403 
0.489567 24.886787 10.162003 
