26.284670 -1.149447 7.726667 
29.846195 -3.136914 14.388028 
-0.916437 28.993689 8.245805 
-16.341759 -10.541864 12.588939 
-23.087337 4.765912 9.287169 
-15.118651 -9.401101 18.432049 
-27.402187 -7.366119 9.489282 
-9.805120 22.973289 8.478467 
0.092395 26.584076 23.144793 
-14.737030 2.651402 12.455500 
19.902304 -7.714765 -3.705976 
24.015137 7.510948 9.118397 
27.999325 -3.464239 19.402428 
19.270569 -6.630157 7.390677 
20.376188 -9.621645 -1.124907 
-27.113424 -3.294424 4.628067 
16.978624 23.778219 16.689903 
9.417610 27.001442 20.503948 
24.633766 -0.862775 6.893754 
17.483347 14.791531 15.538570 
-5.091136 27.710554 9.455976 
-2.105515 27.436018 19.201525 
-22.288994 -13.765966 6.138017 
-7.372903 20.645571 1.946424 
-16.962126 23.659395 14.305008 
23.174397 4.588003 10.830065 
-15.864687 22.046135 18.973076 
26.661848 -13.569988 3.981102 
17.289307 19.800907 11.607880 
19.206892 8.132339 6.648196 
28.560486 -5.377983 18.505404 
1.619661 24.051571 0.225204 
14.648729 22.767887 11.989120 
27.294756 1.842409 6.856096 
-10.331025 14.679210 16.919052 
-25.558874 -6.108173 18.661791 
-15.851658 19.853214 22.633701 
14.471250 18.699924 13.244018 
27.274370 5.636780 6.189581 
-19.455755 2.981119 0.270990 
-28.611071 0.951812 -4.507770 
28.095592 -0.068809 17.668947 
29.883017 -2.089094 1.777842 
14.667032 25.361776 13.301359 
20.288746 14.952256 17.301130 
-13.342797 4.245034 10.260479 
14.233632 11.279464 23.729134 
28.872364 -10.585995 7.327859 
-10.544480 18.826040 14.653829 
-15.409945 1.449896 10.417589 
-21.301392 7.430161 6.644577 
-19.773514 13.357957 19.988264 
-1.134003 28.748154 5.417171 
-3.494063 28.012959 0.115872 
15.187648 14.809125 11.177870 
14.640852 21.985571 18.660135 
6.682922 29.469360 10.926662 
-14.008091 3.138772 10.491744 
9.916775 25.174879 0.148188 
18.983149 -11.837461 18.978090 
-20.598707 -3.368310 14.563412 
-19.167093 -7.358395 16.504679 
-4.598709 30.472977 11.592924 
25.760532 -6.273822 10.012457 
-9.727427 26.152060 3.470048 
-21.245337 -4.514133 17.188509 
-31.021658 -11.033740 -0.742459 
-17.002647 -3.152674 7.689381 
5.174185 20.122942 -2.687717 
-16.879086 -6.072639 11.371803 
-3.096534 27.894316 11.830467 
19.961864 21.956430 16.426407 
-26.319578 5.002711 6.383076 
15.389134 10.861289 -2.561238 
-3.308307 23.601246 14.805983 
22.579708 6.362808 10.488143 
-2.055946 27.148623 -0.896048 
20.546425 -16.904198 22.526827 
14.484865 19.804930 4.771257 
-7.126350 27.411642 11.931823 
-15.848975 21.462406 -0.597972 
-15.513217 2.392350 12.126897 
-14.076100 25.295290 13.336207 
28.736420 -2.586608 20.293596 
26.197838 2.661720 17.708132 
26.129648 7.339606 1.740091 
-19.021046 8.220033 14.181119 
-15.878218 21.338919 11.192061 
-31.384811 -9.715978 -0.078843 
-23.028889 -0.133520 8.960914 
14.808223 19.880728 1.951267 
-4.420482 25.843332 6.327457 
-1.837159 25.739223 5.664840 
21.649824 -1.529604 4.482433 
-15.795874 -10.877958 13.281234 
24.565634 10.490250 11.225593 
-10.889028 20.902473 2.876697 
4.480351 22.451286 16.769169 
19.288755 5.878217 10.170226 
-11.389123 19.195847 -0.991665 
-21.244530 -16.555925 15.168679 
-6.056827 22.591322 4.024886 
-13.101288 24.682703 -6.098439 
8.364633 23.650108 12.857867 
-9.790417 24.279148 19.914982 
4.491446 31.934246 14.425157 
16.318630 13.501424 14.927303 
-9.241486 18.711323 15.633503 
22.982435 -0.816878 14.143403 
-28.226198 -4.304856 1.970334 
14.198644 25.453627 11.193739 
22.998810 -13.274214 15.053561 
25.760139 9.796000 10.532451 
-12.851294 22.977518 7.644904 
-16.200806 -7.135932 11.952342 
-14.374638 -0.460558 14.757925 
21.072857 18.435982 -7.963369 
25.796865 4.742684 11.338083 
-28.837614 -3.013631 2.988800 
19.951031 4.033794 17.667879 
19.014629 5.474473 11.057436 
4.137533 31.904675 10.397658 
-3.280848 19.315228 -8.568948 
-23.362310 -13.812807 5.393142 
-4.345022 21.953810 13.960860 
-19.334455 2.612586 14.904478 
22.129642 -13.896365 16.257982 
-3.027163 22.487537 18.684095 
22.322031 8.197914 8.222423 
8.390171 28.206772 18.475817 
-17.897301 21.986198 11.234479 
-17.863869 -13.014188 10.622032 
20.687542 3.802221 17.346285 
18.222433 19.262402 19.274517 
-24.322720 10.932356 -6.348864 
21.792698 4.313653 18.046911 
8.581836 19.266323 18.393063 
-27.146347 -2.310532 4.280205 
24.932993 -13.117164 16.540520 
-23.524738 -13.603937 11.655293 
24.439816 0.133227 9.406625 
-19.942957 -9.751869 -0.871102 
-21.399649 -2.018325 0.178227 
20.177485 -9.732157 5.581303 
-30.031176 -11.085770 5.325806 
-29.419130 -10.397058 1.843710 
-17.547375 0.952755 7.456091 
-17.939631 -1.702790 4.163778 
9.535261 21.001482 18.035763 
24.772934 -6.691336 19.271936 
0.913729 27.718908 14.946245 
-4.272887 20.513527 15.601182 
18.611982 23.705873 10.530993 
-6.126881 19.650269 0.085757 
23.959038 -5.869601 19.177437 
19.591967 -7.191761 8.034668 
3.711925 22.429096 17.450438 
20.621008 18.079409 19.982758 
11.555601 26.954235 12.742954 
6.002979 23.393993 15.916508 
20.338015 -9.341069 4.813581 
8.095767 31.382595 10.458899 
16.620850 24.127550 13.019169 
-24.818024 -15.793404 18.041498 
25.707508 9.909394 -6.480126 
-24.436968 12.174589 7.569151 
24.834686 -14.703506 16.759384 
21.851398 -7.422251 1.626054 
-2.449332 25.772224 -9.609875 
-11.071923 24.293304 9.406471 
17.444931 4.156566 17.950134 
2.151914 27.815451 17.926912 
-10.169683 26.027262 4.229812 
17.546427 23.437653 17.315544 
-8.796274 18.395214 15.054956 
21.115799 5.856040 -0.794302 
-13.915334 22.954401 19.292259 
-22.993971 -16.147726 22.607929 
24.595474 2.807712 9.799211 
17.784571 7.236471 1.053079 
-22.417019 -5.555126 9.960304 
-17.685947 -11.429931 9.297053 
-12.801446 20.542774 18.121702 
-5.402406 30.126402 9.706164 
-23.120667 -7.902997 7.540768 
9.868803 25.083242 11.216946 
19.620037 -7.360862 2.991057 
-23.647305 11.734788 7.306896 
-24.057184 12.939462 -3.220315 
20.896450 -3.357540 4.110192 
19.191055 8.166440 -1.432558 
3.562117 29.766953 9.404146 
-13.301765 5.127564 9.665895 
18.369329 -1.775136 -0.328290 
-24.638597 6.025970 7.912599 
19.812538 -4.397965 4.836545 
-25.788465 -2.678914 6.542078 
16.645596 22.183363 1.358436 
-22.438343 -2.878905 4.610991 
30.402239 -5.466749 -3.874810 
-27.192947 -13.232048 20.056938 
17.552162 8.427239 6.177069 
28.204763 -12.142700 20.149519 
-4.643692 21.215229 15.813734 
26.690361 -16.800117 21.271824 
21.422768 -11.594150 17.785789 
29.125875 2.204648 -2.567513 
24.202015 -11.706429 9.494300 
27.805775 2.010758 1.762796 
-14.210775 20.365086 0.632533 
-4.324605 22.321754 18.119547 
-15.970811 23.350174 -1.613856 
13.109141 26.239491 11.253187 
-17.533024 19.745644 17.134602 
-4.639589 24.836760 0.114380 
-17.486685 22.920092 14.341919 
8.657434 27.771425 -2.964141 
31.134687 -5.491553 1.474031 
-17.479214 5.366491 7.530660 
-7.666656 17.968651 -4.238664 
-14.610820 -6.772724 15.861849 
19.519821 -8.637824 14.800804 
27.708647 2.520109 6.064765 
-26.260748 -1.456920 3.817530 
-12.754629 12.752659 -7.674582 
21.789881 -12.536910 18.146767 
-19.358858 -5.397098 -3.203597 
-10.228614 24.573172 1.499915 
29.941027 -5.824833 14.713199 
29.334164 0.969113 -3.435101 
-7.052508 27.712992 10.785532 
-21.013184 0.252098 -1.375134 
22.774794 -12.276822 7.927028 
-6.039912 24.734941 16.153734 
27.441830 1.536850 19.539454 
-18.994827 2.592223 9.095721 
-19.463181 17.960350 0.179227 
28.236927 -1.631531 23.329399 
23.884968 10.218092 12.853059 
18.849918 4.609606 15.542262 
-16.409170 7.746299 16.668295 
-24.573603 9.596265 2.014318 
-29.899099 -2.621092 -0.310817 
-10.914569 26.432135 0.104536 
-18.503176 -0.816522 -4.275393 
6.392401 31.868481 13.137662 
24.430727 6.683439 9.507580 
19.698700 18.332600 18.498148 
7.354077 28.515676 4.940509 
-19.012344 -3.117702 -3.684109 
6.026021 29.953255 10.711051 
-23.044779 -12.733408 2.924964 
9.915318 24.160362 16.431814 
30.348984 -3.085271 1.649478 
5.624050 23.776106 15.331102 
-10.826076 11.944142 19.397991 
-25.164516 9.574450 5.438724 
4.145245 28.936644 13.282962 
24.001959 -4.529798 19.286880 
-25.088064 -13.103082 6.076156 
30.278002 -4.470123 13.410787 
24.603098 -0.864119 5.476576 
16.881891 16.716387 15.833529 
16.518209 19.956594 11.345905 
-13.641894 3.151565 20.844448 
20.506660 8.261316 16.873589 
-23.326872 -7.140105 16.367111 
-15.492506 3.105223 9.012997 
-16.916050 22.549316 10.459044 
-16.836748 -11.813686 15.252278 
-27.495594 -11.375070 13.271557 
22.574331 16.313593 11.780645 
-24.119045 13.159203 -1.690293 
8.431210 23.759859 -0.623111 
27.734734 -12.652338 18.719971 
29.225775 -2.914589 5.651539 
9.163049 31.163746 12.474963 
29.288174 -7.461972 23.147499 
21.127556 14.067836 0.154052 
13.110490 23.312719 11.561241 
-19.710182 3.833362 10.993563 
-31.413153 -9.635274 0.985513 
-16.330357 2.431283 12.357009 
-9.176673 19.195135 12.671770 
-22.864468 7.501489 7.312937 
18.609838 14.821827 18.925781 
15.302345 22.265167 -2.082768 
22.497766 -1.390558 6.487655 
25.252880 -7.796989 15.941361 
27.877048 -7.827008 10.788091 
-19.113766 5.755539 16.395889 
15.937699 11.545547 11.710165 
-16.760227 2.609208 13.647647 
24.937189 -8.122662 9.313832 
-1.981416 25.053617 4.920375 
2.794877 19.956774 23.279268 
-9.744695 20.860779 0.295481 
22.972994 0.150480 9.489255 
26.852415 -1.687434 4.654086 
1.834601 19.971842 23.245897 
-3.892178 22.186346 17.328758 
-23.042646 12.389680 -1.668705 
-17.731619 1.950737 3.386772 
17.847282 3.540092 3.586128 
10.849559 25.567207 6.605128 
22.466026 14.051149 23.997358 
17.984770 14.733638 10.315117 
-13.837937 21.752844 -2.761873 
-25.876635 0.959791 8.825044 
16.393116 15.504396 10.021235 
-20.528940 5.731843 12.569065 
29.703766 -3.752033 4.999186 
13.266942 24.755667 -1.081577 
-23.170858 2.798743 18.860142 
23.732809 -12.325334 8.808015 
-5.497022 23.483152 1.725127 
8.428064 31.288054 12.956612 
-7.983659 21.653936 1.052714 
-11.649894 17.568758 19.003321 
-13.903869 24.966993 -4.018769 
22.353317 -6.485394 9.098690 
24.327818 -0.607401 18.614300 
-9.971572 17.212603 -2.768356 
27.779953 -11.254691 20.893456 
21.230761 6.094744 7.738785 
-11.725173 23.232168 5.499607 
-15.055533 18.593513 12.970780 
-22.040339 2.835105 9.617348 
-15.494114 7.188709 16.590483 
-4.948118 23.979084 14.510759 
17.757751 23.343084 -2.966696 
-9.974395 24.556585 0.720050 
-6.651575 26.211576 12.911158 
-23.387323 13.796031 7.407170 
-4.391193 23.883488 16.097502 
14.375910 24.085505 21.652027 
22.262882 -9.291068 1.941746 
-25.195692 -1.696001 11.724241 
-15.181133 25.275856 11.769680 
-10.999489 21.826405 13.982793 
20.202442 -9.519233 -0.169044 
21.227076 19.523594 11.517990 
-18.511480 5.891123 2.477363 
11.210692 16.417528 -1.549254 
2.390247 23.010183 17.202576 
-6.773938 18.300297 -4.520567 
-6.676653 20.465265 0.815686 
20.841976 3.978723 9.193372 
6.302048 26.770813 -7.246077 
-22.555750 -6.234038 9.033225 
18.059616 1.163359 -3.908615 
-24.860703 7.103091 3.752066 
22.769943 -1.068026 13.046110 
-28.243069 -5.334523 8.642156 
27.130709 -8.858922 14.509153 
27.935087 2.557812 2.454963 
8.909245 29.974068 10.204636 
-20.682930 4.411012 7.709937 
-24.861811 -3.609189 21.255220 
-26.628969 -9.324321 19.774422 
23.603014 14.518522 -7.274309 
28.469910 -2.708990 23.451794 
10.127334 21.578180 -0.242043 
19.825367 22.537910 15.782774 
17.915789 5.253806 14.815505 
-12.102490 23.873987 12.381491 
-24.595280 -2.636267 21.340530 
15.355113 26.001143 3.506596 
19.391003 8.127975 0.285191 
-10.453421 22.601652 8.963247 
-30.403028 -12.119698 -1.891161 
0.819625 27.043900 13.945189 
-17.469988 -6.967130 14.696056 
14.122543 16.962858 15.052164 
-19.487999 -14.678782 10.514339 
20.476435 5.769389 -0.264266 
1.918842 23.400473 0.762032 
-21.373058 -9.034451 7.543526 
3.850642 25.320967 -0.175790 
27.631489 -6.082564 18.477652 
19.009275 10.426369 11.009413 
-26.160025 -14.475012 20.074625 
-2.953550 25.666750 1.155312 
8.524486 22.940203 17.360006 
19.196018 23.232113 9.878887 
23.228355 -13.239327 15.872113 
3.179782 27.850924 17.839514 
9.563004 17.723444 21.746284 
24.798748 -18.911287 24.281231 
-22.488958 -2.097444 3.697506 
22.824322 -10.947560 2.499690 
-0.142949 25.046087 19.243370 
-22.848713 -5.122051 10.653291 
-14.465265 19.079885 12.756785 
-2.381938 26.836590 0.798358 
-21.004417 -3.754616 6.050089 
5.521784 29.171165 12.352809 
20.820648 9.165528 -2.356962 
7.028355 28.377254 11.873616 
18.347038 10.121347 -2.158311 
-14.806319 22.682076 -7.989894 
-14.117895 -1.149386 20.964418 
13.410655 15.962335 17.415426 
-6.625847 28.616507 15.012934 
-17.375591 8.729879 1.253939 
15.104183 20.197746 0.013067 
21.871761 12.133879 16.530664 
-19.290934 -6.374057 -1.611569 
23.514837 -0.276559 -0.225702 
-18.882175 -7.371716 9.269655 
10.516263 16.181417 -7.794538 
-14.916332 3.462763 8.514941 
-4.095975 23.795650 14.451674 
5.378879 26.544333 8.949824 
-18.540403 16.273165 21.547173 
-16.632227 1.934368 8.469538 
-16.843836 21.422531 17.935467 
-20.950071 -12.274476 1.521322 
18.994492 13.050782 19.641132 
-21.819122 4.316236 -1.201823 
-16.020824 2.662985 15.044998 
20.997992 -3.349652 14.253746 
-11.603720 21.958702 18.913477 
-16.632704 3.679967 13.313575 
-5.565836 26.999226 9.201554 
-21.006556 8.919109 15.759855 
19.648996 13.681788 -1.000257 
9.323654 27.538027 12.749914 
-18.848312 -3.031354 -2.353493 
-22.680632 -3.119145 6.811628 
21.158323 5.148682 7.480480 
-13.024998 23.056925 18.661806 
-22.012053 14.972960 3.501595 
-10.697047 16.694265 -2.406865 
20.146381 -5.250061 3.752195 
-23.786144 -0.600345 9.051068 
3.643228 26.776655 14.555693 
-14.669757 -1.784287 10.587751 
-18.840899 4.680749 16.187559 
-17.131151 20.753685 -7.493860 
-9.893942 17.166054 16.885099 
-19.751505 10.779599 -0.693518 
0.675336 30.660683 14.027338 
22.238184 16.641567 13.104070 
9.633509 30.064190 10.680880 
-16.576763 22.367462 3.264091 
-30.121426 -12.460297 3.772527 
17.595772 9.431032 14.110485 
1.992898 29.025698 18.887051 
21.735970 -15.852487 18.794853 
-9.274420 16.916166 -4.960368 
17.828785 -2.941125 16.531826 
20.942383 -7.510053 8.977344 
-10.794501 21.134127 1.030340 
-6.240659 25.245857 15.467139 
-24.364794 -1.647686 21.426937 
23.478228 -3.956257 8.944002 
6.734938 24.276302 -0.632740 
-21.654026 3.014240 14.165706 
25.909903 -2.226375 19.564772 
21.306818 14.938998 18.541597 
-16.501324 5.689835 16.748642 
19.776194 -4.388087 16.963404 
21.161926 -5.920541 17.874414 
3.831434 30.566257 10.873046 
-1.527230 26.541304 13.705203 
-7.411054 23.443045 8.675580 
-19.630161 -6.874010 7.785625 
8.609661 25.944372 14.958867 
-6.185501 22.502993 -0.912922 
5.455906 25.255299 5.210733 
-24.991598 -2.740442 5.647821 
-18.625957 -8.203427 11.428538 
-8.100887 27.009853 -0.770719 
27.525486 1.632470 20.546978 
-0.871899 25.381821 15.284988 
25.031664 -1.533590 9.631599 
13.674529 23.354424 -2.235955 
28.113085 -0.391379 22.237982 
-20.441811 14.609751 3.514508 
-26.661697 4.858476 2.079786 
6.793939 25.257938 16.716078 
21.385506 -2.293630 8.473265 
17.967539 24.092978 15.354599 
-5.252107 25.378620 18.390053 
-29.993353 -9.141325 7.205052 
4.566832 25.315161 1.979746 
-6.698342 28.877846 9.433363 
18.361509 22.784513 9.634870 
15.053587 23.876820 20.639490 
-12.473685 21.442787 20.751171 
23.706911 12.891476 5.228759 
-19.252542 8.883596 7.348147 
-16.070288 1.677886 14.308014 
16.995476 22.386520 20.790379 
-13.960666 -2.979164 18.514668 
-9.847791 20.949125 1.228065 
-0.459298 20.038977 -6.266416 
-30.382465 -5.605509 -5.004440 
-21.610743 -5.408212 13.371288 
21.237011 4.341119 7.527982 
11.553565 20.666506 -1.369026 
-21.143179 0.420350 7.542696 
15.534384 21.417862 -1.713728 
-8.326156 22.693785 0.928842 
24.660299 8.601585 2.156402 
22.077600 -6.364456 3.765839 
-15.755512 8.244721 -5.228873 
-20.323427 7.270351 -0.837675 
18.074411 -8.380805 17.348948 
25.191469 2.275716 -0.632835 
16.587139 21.562853 7.093680 
25.581903 -12.164930 8.998277 
29.989513 -4.608387 4.587368 
28.893530 -11.945741 17.668242 
24.065859 11.939907 20.199326 
14.579835 13.922429 15.616553 
19.435261 13.978449 19.567354 
-5.768539 25.984049 9.034555 
25.074600 12.246703 -3.034273 
-24.805010 -5.226100 17.202681 
28.722168 -14.348509 22.927799 
-20.130978 4.438037 2.327951 
-26.949217 -10.292059 19.016657 
3.520009 26.287743 6.007846 
22.098886 15.071458 3.788707 
23.366529 -1.333134 1.785524 
-20.255562 -0.132503 7.238942 
-17.610483 4.294717 16.356464 
15.229403 23.531769 -8.908075 
-23.474663 2.079906 19.317469 
18.853876 -4.139053 2.648318 
-21.243336 -4.596601 7.348423 
-11.323471 10.812436 19.262989 
8.346740 29.995193 16.372641 
-8.083264 26.992987 -2.197131 
27.912594 -8.601725 10.535940 
17.084263 11.588332 19.078815 
-10.130070 19.839582 18.883097 
-10.065536 14.001801 18.741175 
-15.949404 4.472875 8.557559 
-4.573028 24.327669 0.889914 
27.308205 -7.166992 17.705799 
-0.352476 27.766775 5.881237 
19.108114 21.249502 -6.951776 
26.006916 -7.774845 1.982232 
-30.418238 -9.378035 2.438739 
-20.868631 6.047178 11.921593 
13.156551 16.763556 17.033499 
-24.550652 -3.846271 9.782087 
19.880476 -7.873645 15.746908 
-10.160697 19.769695 16.186651 
-24.643681 -2.427610 7.204254 
-27.141964 -0.383366 2.304097 
-9.235322 22.004925 -0.376418 
9.128537 23.369051 4.017339 
-20.511612 8.726691 13.659880 
-23.504498 1.979701 20.266195 
-21.729153 7.016614 22.509083 
-16.649439 20.225834 19.678455 
7.281365 30.219042 16.811920 
15.211706 11.776837 -1.256220 
21.646490 -9.756513 9.708275 
20.635315 11.727696 15.833208 
8.992672 26.184246 1.258720 
15.772013 20.558220 4.594367 
11.448899 26.689827 -3.821490 
12.611036 18.444559 18.265881 
-28.331678 1.552421 2.063947 
-26.649471 7.276374 -1.911387 
29.776598 -9.383173 7.565060 
-22.080130 -9.046844 7.094115 
-10.701603 14.585394 16.031776 
28.214701 -15.571645 24.379045 
-25.912460 4.812740 7.207792 
-23.279873 -13.344833 16.626205 
-27.103189 4.131148 1.494330 
15.316945 12.010633 17.416042 
-27.413038 -10.013859 20.480671 
-26.162836 -5.626764 13.623292 
-31.495689 -7.855756 1.948236 
-26.361908 2.465946 0.214191 
-20.730568 10.341648 16.909130 
30.158434 -1.676546 -0.993511 
11.270394 23.578024 6.311900 
-9.693705 18.313652 17.652798 
29.415539 1.600192 0.186502 
13.237760 20.351847 16.127426 
-9.981999 20.430149 17.272661 
23.381657 15.854738 3.045084 
14.792320 21.545786 12.130976 
9.691284 22.299456 18.950502 
23.564806 10.618737 14.864565 
17.705877 4.560461 1.781443 
6.084234 22.980137 2.236561 
10.094587 20.509027 3.220730 
17.890741 3.190231 16.717840 
-14.770504 25.319351 12.952785 
-5.437853 30.299282 10.662268 
18.280636 12.532372 10.642509 
17.109068 -4.372929 23.925192 
-11.651105 20.680086 4.557688 
29.320623 -12.397712 20.350031 
25.293903 -2.481656 2.526278 
21.425257 -8.162067 9.058391 
-6.650616 21.858700 -0.838417 
-21.497980 -3.121991 4.405669 
8.389502 22.234474 14.546642 
16.993755 -7.387594 22.020708 
-11.270134 20.981215 3.619921 
-15.462974 19.717154 -0.111145 
24.300491 -0.310560 11.407496 
24.349449 -3.075631 19.299946 
27.809172 -8.949533 17.636848 
-14.388588 4.977345 8.256476 
0.346032 26.452755 8.930422 
12.791473 25.851322 -5.487028 
-23.344391 -5.508036 7.830079 
18.755053 -0.446235 5.243336 
18.267185 0.122793 -3.625789 
-21.000080 9.156504 22.521168 
21.263723 -0.658711 4.687781 
18.627298 16.552658 15.977820 
17.637335 10.896411 11.241317 
-7.996502 20.763573 -0.141901 
-20.335291 -0.042654 9.361916 
-0.211740 21.262291 -0.650573 
-22.284437 -2.747753 17.776272 
27.245792 -10.564392 15.990194 
21.142717 11.365638 5.014044 
-12.834497 4.703155 17.234762 
-3.292107 27.360588 -0.592630 
-28.212507 1.950142 -4.799631 
-20.335777 14.865078 4.302088 
-15.758268 -8.392201 13.149550 
19.700079 -4.509991 11.193934 
-15.422009 16.599638 18.235723 
7.433682 21.140312 16.637350 
22.688564 12.834319 -1.100011 
-12.335879 22.342619 19.328808 
13.271253 23.174242 17.396975 
-8.302074 23.611755 17.089367 
24.894041 0.174943 15.918655 
-12.542236 23.730640 16.522945 
-24.776779 9.708228 2.846173 
-14.766990 5.980417 8.689642 
2.748748 29.610699 6.341525 
15.809706 24.992411 9.160552 
-20.323378 -4.823567 7.663028 
21.877239 -10.554156 18.093601 
8.669146 17.560671 -8.055269 
-1.616573 30.464491 15.329460 
-15.074296 6.333449 16.559645 
1.176960 28.798597 16.578014 
-12.586802 26.401241 6.951467 
-29.660660 -9.871552 7.800915 
-13.873765 25.205912 -3.056529 
-27.672583 -14.531995 -1.055064 
28.777929 -3.910104 12.156420 
-7.381550 26.301979 -6.342676 
-25.727997 -12.653568 15.235857 
-26.933983 -15.254783 4.227475 
1.483895 26.694656 14.761497 
-29.824991 -11.018023 4.171829 
15.225057 15.547832 16.045237 
24.494589 -13.280928 -0.428182 
0.195748 28.873245 18.763975 
-5.568267 23.386360 3.663194 
22.318838 7.841287 2.549258 
3.937116 28.185537 3.200336 
26.966520 -8.762617 15.312430 
-11.937040 15.540376 16.889894 
9.782877 18.711449 17.771124 
-18.449810 12.493234 6.142351 
-15.250091 -9.024302 15.272023 
-11.052371 25.432655 4.121863 
9.748412 16.812557 -7.912381 
-4.057705 30.366610 13.713063 
0.968039 28.431488 4.324005 
2.981451 26.801670 23.243572 
14.438726 25.832436 -1.291511 
22.094498 2.330610 8.283111 
-2.115091 30.121199 15.946638 
15.419743 25.143421 -2.517558 
18.508102 1.133707 3.409787 
28.684362 -2.630451 21.968540 
30.213877 -2.359298 0.601633 
10.528172 17.340725 20.189962 
19.172106 -4.684326 12.396580 
16.969973 -6.464854 23.933260 
20.259434 -1.359576 5.375885 
17.182135 7.066176 16.081631 
-4.031025 22.107111 15.244970 
-4.474905 26.518459 12.358714 
18.541403 20.432802 10.821989 
-21.449017 -0.695523 18.024853 
8.603819 27.093729 12.734398 
-19.788788 14.138875 3.461303 
-15.492502 21.794922 19.761257 
-25.822065 -12.175500 9.170050 
-6.224684 19.199940 17.604364 
15.738984 23.787094 -1.708319 
29.452265 -9.985188 6.926903 
7.809743 18.587107 -3.802264 
21.887449 4.657787 -1.619535 
11.177507 19.924576 -0.917462 
-9.895152 21.872131 1.758675 
26.019617 4.137402 18.502960 
16.310333 24.923941 7.079118 
16.948431 -9.417518 23.950699 
31.208712 -7.021843 0.431315 
19.864132 5.587754 0.292929 
-25.245626 -14.590859 -3.436599 
-13.572643 23.673399 -7.794212 
-16.227526 8.947227 15.118123 
4.420029 25.434252 1.000615 
27.345364 -10.090640 10.248152 
21.478455 18.878445 14.862745 
-16.721350 -14.672341 20.805557 
9.285767 30.864683 10.887723 
18.353069 -1.639880 0.780764 
1.264349 28.379145 12.090785 
-19.179094 -4.118332 17.094481 
16.704136 24.134497 6.916950 
-25.311253 10.665983 -2.841398 
-22.518290 -13.574243 -1.968093 
26.522797 6.589296 7.154234 
5.364458 29.712831 11.500050 
-3.018742 25.389017 13.901484 
-4.259989 26.364876 20.906731 
27.588711 -9.832517 3.039572 
-20.891422 5.307532 11.014188 
19.832867 -6.455049 4.296207 
-23.041168 7.334285 5.914444 
21.185562 13.582385 8.641397 
21.247990 14.640118 -0.629495 
-18.847095 1.057566 8.358522 
-10.453499 22.611448 2.678226 
-6.799126 17.858141 -8.397194 
19.671833 -8.726445 6.226384 
17.067427 -4.338877 22.135681 
20.716772 13.161194 9.242522 
27.251616 -3.190959 4.926105 
-18.755440 -14.064340 10.689418 
21.915857 -7.568862 14.061618 
-25.180737 12.856518 3.490736 
-30.236767 -12.388071 2.708023 
-27.371815 3.524874 -6.441557 
-21.541216 5.812544 3.253246 
-17.928064 -14.996835 12.367906 
-22.777452 -6.181947 14.977921 
-17.621998 18.903351 16.475235 
-31.399008 -9.571202 1.894657 
28.307995 -5.154114 2.767901 
-0.699467 29.361887 17.295034 
20.915863 9.215425 7.077938 
2.742623 22.087427 18.375389 
6.057061 28.526125 21.114023 
-18.352715 3.315818 13.608704 
23.075275 13.202370 4.864563 
26.318329 9.621364 -2.985785 
-9.796939 26.276058 7.944701 
-26.805861 0.882049 0.580619 
9.470634 27.947866 15.634177 
-22.339090 -5.055588 13.285339 
-2.052817 28.388102 2.557625 
-20.721924 -8.012447 17.606642 
-15.288392 -4.104405 12.365361 
21.084835 6.432229 -0.003211 
26.095398 8.068780 15.088116 
-21.929539 3.343788 2.019727 
10.804889 24.735678 6.508219 
24.132658 -8.857833 1.862439 
-14.022889 19.840996 12.343077 
27.749474 6.055240 -3.137197 
-5.978181 25.322952 1.807642 
-19.986940 8.821376 8.298717 
29.260511 -8.243086 24.370148 
-20.645657 15.545612 -8.281246 
-20.492542 10.627521 22.529696 
4.481691 22.896824 2.666962 
-13.480172 9.541786 13.830360 
16.614241 16.495680 19.677319 
-19.571838 -5.336847 5.348505 
26.290562 -1.979366 9.676097 
-12.132114 16.598412 18.428455 
20.924019 5.156684 -1.435036 
22.887348 -1.217225 7.269544 
-17.142580 22.363558 -1.296424 
-3.550584 19.107899 19.954302 
-14.415602 26.574238 3.652664 
14.465888 20.073771 6.268954 
24.597712 -15.857616 17.539532 
-8.768964 21.295820 2.077783 
9.830627 19.890829 0.630384 
12.958585 25.845739 1.809729 
-28.465538 -4.164101 2.851491 
17.323357 5.126858 17.136269 
-8.153549 20.882771 1.722546 
-24.358370 8.824800 3.262410 
15.003664 14.224835 13.205151 
-11.108325 22.572859 5.455444 
24.991089 -13.814434 6.220942 
9.536892 23.870464 12.389222 
-5.270323 30.270594 11.999998 
7.508801 24.505995 -0.979096 
-14.331405 22.157574 11.160904 
7.970419 31.521395 12.199331 
5.343243 31.234457 15.854845 
17.882063 1.313977 -2.763181 
24.058935 -11.923825 20.114639 
-25.860752 9.043361 -0.389672 
-17.238577 18.982664 20.319717 
-17.645281 3.041149 -1.618545 
22.940704 14.631742 8.708888 
-23.211132 14.245814 -2.951600 
-20.032480 -6.434687 16.631687 
25.924133 -9.692743 20.607691 
-15.382191 19.475986 19.245380 
2.027453 27.393044 22.430460 
-14.897036 21.613758 20.682383 
-27.248442 0.104454 4.310979 
10.345688 16.506676 -4.550825 
18.901520 -12.968661 20.633757 
20.579552 -1.494148 6.334093 
-17.417036 3.128815 15.172750 
-27.492409 -9.543525 11.454223 
20.689653 -3.051534 8.753602 
14.467018 21.803392 14.071323 
20.443523 21.078079 10.084373 
20.388075 14.442970 -0.534053 
25.117483 -6.490356 9.225760 
25.742170 -8.566204 17.706953 
27.687927 1.623582 2.608277 
12.112512 25.962465 1.683108 
24.560087 -3.751252 17.093143 
10.412592 22.468262 0.355468 
-15.935659 16.771156 16.069101 
-27.000971 -13.622913 12.485159 
5.191789 25.908264 20.372208 
-25.101160 11.375736 1.482319 
22.779520 6.303732 8.901822 
16.277620 9.015860 -2.919310 
-22.381918 15.030860 -0.565915 
14.081312 22.449661 -2.233290 
17.096987 -4.293731 20.541714 
4.921890 28.590321 5.771931 
21.017193 17.396023 19.804956 
13.395135 26.160841 0.253207 
-23.750601 -2.209444 15.917856 
-26.079628 -9.441525 18.861254 
-22.366493 11.505933 -1.845331 
26.042442 10.430859 -3.537631 
-7.616979 18.792004 14.194768 
26.400303 -10.531561 21.027573 
-24.987228 -1.377484 12.450200 
-2.575570 27.500383 12.471494 
1.422736 30.013559 14.453286 
5.007119 27.009001 5.965585 
-21.949543 -4.963349 3.556064 
21.506403 2.947215 12.660419 
20.064474 -10.048504 6.713189 
15.018260 9.984892 18.080132 
27.635496 -5.107069 11.871608 
24.807512 -13.000801 -2.747921 
-20.097383 12.307917 0.815887 
17.748482 0.656610 5.339562 
-21.338942 7.980975 3.279382 
16.899561 6.345094 17.508772 
-23.158098 -0.437189 -0.917227 
24.031469 -9.587975 15.584558 
-17.986925 6.105639 8.951375 
-3.635071 27.474628 20.518518 
-15.290424 25.085709 0.636244 
18.989689 5.469683 1.469350 
19.274641 -6.064143 2.847940 
0.855010 28.748234 15.435219 
-16.607143 17.475117 14.034152 
-11.890162 25.804655 2.615700 
24.490944 -3.186619 1.982851 
21.475002 11.288678 19.000347 
-13.637259 1.410041 18.891945 
23.407787 -15.780376 17.282587 
-23.856228 2.446914 9.203684 
15.472105 10.810805 14.865278 
-6.719751 27.296200 15.749077 
-17.847610 19.082052 -8.806941 
-29.459873 -11.519197 4.855660 
-25.791216 -5.953026 15.278892 
-13.814918 4.092000 22.801367 
8.568876 27.944626 -0.146861 
30.673231 -5.149948 -2.233464 
-4.890463 25.663376 12.452672 
13.796711 19.263712 1.110496 
-30.967728 -6.057172 -1.771292 
-9.138700 24.488060 19.212563 
-16.211069 3.585470 8.832697 
3.547570 30.232416 18.150455 
16.387928 12.990866 9.516768 
24.249884 -17.066122 18.929256 
-17.310524 2.714425 12.270434 
8.595159 24.630770 11.638809 
-20.293661 -7.270028 7.981684 
26.103977 -4.686931 12.100290 
-2.324046 22.513779 1.008975 
14.138833 23.672768 -0.687147 
28.538771 4.439048 -2.114666 
-15.566504 -1.797983 8.666124 
-16.461901 10.237311 12.329123 
-0.958104 25.275055 14.391997 
-30.216789 -5.757289 3.129524 
19.237814 -6.861609 6.542666 
-15.629946 24.843561 5.914798 
-29.668428 -3.868048 2.661151 
17.672691 5.980123 15.135333 
28.047798 -7.823598 15.736422 
-20.447861 -5.628771 3.244277 
-19.644819 12.467662 16.588110 
-21.692181 -4.261609 8.992664 
-7.172253 24.376209 0.950623 
17.238838 7.918197 7.047078 
25.624062 -0.472103 3.842684 
23.386362 -13.969796 15.548997 
17.367678 -7.395071 18.873199 
15.032557 20.578461 11.437152 
-7.792206 17.441990 16.657438 
3.442400 31.119621 10.408984 
11.211685 15.828907 -4.201920 
24.294098 -0.720982 0.285977 
-21.521637 1.958048 16.463194 
-9.827408 22.042599 3.086728 
-4.618709 22.919451 2.527058 
17.800562 2.107969 21.839165 
26.591122 -3.292211 19.850967 
24.384310 9.151949 7.135185 
-19.355120 9.349898 8.122435 
-21.226936 -13.107136 6.851564 
4.744798 29.505810 12.320415 
24.700460 5.463924 15.673729 
13.748525 25.930265 11.864801 
-11.742187 23.289316 16.730881 
-13.762561 -2.020844 18.239138 
0.867037 31.141968 10.454359 
-18.039091 2.086826 15.849486 
-23.859819 10.878406 7.248502 
-27.568926 -10.293398 12.374384 
14.057741 19.296476 13.765800 
19.857340 19.490587 20.550016 
1.536698 24.077858 16.143759 
-15.629595 10.786263 -0.752454 
17.636564 3.118692 20.311842 
-14.657218 -2.431926 12.195628 
-13.625300 15.778483 15.503521 
-3.003969 21.130962 0.547683 
16.859081 22.616848 4.116619 
-22.110163 -3.904401 14.563292 
3.067292 24.732040 18.940376 
23.875038 7.542705 16.918470 
16.319849 24.051270 14.229395 
-24.849493 6.635542 6.120785 
18.069275 2.358223 17.440350 
19.859262 0.029162 1.038360 
-3.973168 27.570314 11.947207 
2.216119 19.928362 -8.565079 
15.838485 14.722851 15.753511 
-0.207563 20.130713 21.900938 
-17.083277 -12.293911 11.836933 
-12.209599 18.670172 1.097266 
7.822126 25.566454 14.318480 
-19.055006 19.895945 -3.040871 
-28.657331 -9.770942 4.533811 
-28.095299 -6.125246 9.062707 
11.850174 16.674833 18.571732 
21.611732 -10.728593 17.157782 
-17.657644 3.022317 7.298149 
26.892860 0.653160 17.003874 
18.279230 16.243418 11.066441 
-12.261503 26.079891 -0.790028 
11.161075 26.569452 0.953432 
-14.864590 18.010376 17.009153 
25.748762 -8.749499 16.575146 
-5.706689 26.307377 6.061347 
-8.010534 26.709032 -4.150591 
15.121772 20.985426 17.826813 
-17.063923 6.496454 8.968896 
15.097200 24.871710 12.826010 
-12.816989 13.723999 -3.783115 
-13.372358 19.447130 12.583375 
25.214727 -10.646914 15.970545 
-2.106135 27.676081 9.694862 
18.303215 -7.609321 15.680059 
17.036177 -5.391545 20.795177 
-14.123103 -2.936850 19.813204 
-4.782049 26.109518 1.204219 
-5.978963 27.247292 6.878022 
-27.034592 -4.230752 1.200513 
-17.020056 16.298262 2.020443 
25.990191 0.731402 14.888445 
25.621710 7.135501 22.978325 
-2.605805 23.293108 15.127483 
-14.310087 24.337835 16.902725 
-15.591557 -11.648775 15.448526 
14.474768 24.780497 10.812608 
7.959432 26.809668 22.546768 
8.891973 18.620605 -0.422406 
5.692039 26.052820 8.408137 
-1.792135 28.663876 11.008136 
20.156157 22.848457 13.752278 
13.760542 22.257343 11.885685 
10.557642 17.740530 0.601470 
17.941841 0.376644 -1.316896 
7.094523 30.971556 15.317185 
12.478741 24.603746 -0.443949 
-4.572049 28.864204 17.336241 
-0.326122 23.809694 19.230343 
-15.560570 20.371502 4.191487 
13.580004 13.818554 -2.051877 
15.645027 23.149343 -2.185434 
-26.055332 -5.374109 10.467892 
2.888219 20.394676 21.916132 
-14.969560 -6.564228 13.777207 
9.783909 21.171957 2.361402 
-24.884481 -15.222731 12.987681 
-0.786788 26.821077 -7.391152 
16.903828 17.129562 2.333452 
-13.836323 19.278965 0.726530 
-24.119982 -13.400375 12.314005 
-20.967545 -1.399209 2.226566 
25.576649 4.161702 17.739466 
19.104435 -9.288090 16.108707 
-4.768581 28.835274 6.705743 
-3.672482 28.783394 4.254307 
5.592720 24.607630 2.248907 
-13.946571 0.584033 20.684782 
-15.559800 17.311975 19.622381 
-23.566753 1.075428 22.481993 
25.452452 12.082846 -0.140462 
-24.239761 -15.327219 3.505534 
-5.646420 18.049229 16.346125 
14.447949 19.855867 -1.065745 
0.851688 19.905136 23.212246 
-10.223557 21.031563 16.762949 
-25.755949 7.060893 2.528051 
18.783747 -1.152085 -4.801167 
-1.987361 24.981768 1.846041 
-13.870606 1.442179 20.688089 
2.481601 25.159643 5.287982 
14.810430 20.529913 7.404422 
20.839676 17.198385 13.833246 
-13.268530 4.651890 11.478868 
-11.009303 23.522657 22.778915 
22.225712 7.839902 -0.564756 
6.489064 24.143665 4.839617 
7.528231 27.692032 21.356438 
-0.466086 21.336432 18.729208 
-18.388988 9.148886 5.619505 
-28.209126 -3.654612 4.876312 
7.117174 19.148273 21.956963 
-27.664436 -13.005270 15.443931 
-21.558949 2.355276 15.670960 
19.183718 9.362901 -2.168899 
-12.648788 6.663003 19.693235 
-27.327597 2.934916 4.526623 
7.151272 26.457035 20.438063 
8.644923 21.297312 17.711050 
-20.426386 -10.854922 -0.071108 
14.846115 25.165226 -0.790477 
-2.295228 29.190880 6.535482 
-4.105680 18.375645 23.049870 
17.803644 4.983832 3.383457 
-14.402355 11.512759 -3.412472 
-16.878696 3.249487 6.183896 
-30.999529 -10.085919 -4.282917 
13.461531 23.561823 18.501867 
21.623411 -10.955553 -3.142991 
0.613768 31.189507 12.859405 
20.109028 17.040329 15.569595 
4.768952 20.093914 21.760498 
-5.739430 24.247604 16.765850 
10.824010 16.519075 21.972370 
-17.721735 -15.360568 14.003626 
-26.034758 -14.204135 22.490578 
21.938114 -10.722779 2.444009 
-19.288399 10.886967 0.563758 
19.461132 -15.283447 22.547045 
-8.096634 25.107639 19.084642 
11.342415 17.100643 0.376780 
-7.252583 26.965561 3.492673 
-26.580153 3.910440 0.556490 
-13.038703 24.427090 -0.903886 
20.404181 13.634025 -1.841550 
-13.234836 3.929995 19.424889 
-17.875671 13.958226 14.320260 
28.564995 -2.607981 19.281902 
-19.882771 9.163902 2.651806 
-21.537521 -12.979727 7.810426 
-27.368324 -4.258668 8.605328 
17.221745 -3.186190 20.287205 
17.192472 -9.306310 21.773659 
-23.215231 0.387366 -1.069747 
9.271497 20.277401 15.999206 
20.673258 -10.374451 9.274547 
25.654922 7.391675 8.926729 
18.139332 12.955178 15.663380 
-19.667011 -7.638768 7.515365 
-22.013407 4.495787 11.402112 
25.664135 -6.580533 11.041345 
-20.896564 -6.431252 2.041105 
5.708418 25.912420 -9.478168 
18.969061 19.149523 12.098152 
-16.084127 20.056252 21.729153 
30.020823 -4.627171 14.991003 
-7.331623 24.147577 8.289363 
23.627680 15.022722 14.383547 
20.264393 18.714827 12.161213 
14.782270 21.393126 0.900323 
24.788013 14.478426 2.466513 
-7.897649 19.183708 13.520539 
-13.423902 2.921693 14.194723 
-19.108158 -5.074656 -0.470250 
-18.860590 -1.339326 7.516668 
9.428598 26.180925 15.823319 
22.633759 -5.828478 1.517006 
-3.731240 23.130060 2.185381 
21.028782 2.175565 8.458618 
13.126528 19.425789 16.978939 
12.945509 24.368587 23.603872 
-22.189054 -6.341558 2.670107 
-16.270021 22.426062 18.088541 
22.320002 15.519626 18.630369 
-26.597620 -3.066723 7.012438 
27.349474 6.640620 -4.439929 
-22.141386 -13.164643 12.491858 
18.530142 -8.452461 16.303122 
28.844625 -8.560202 9.562924 
-10.861925 16.854589 17.726103 
-8.606900 23.729856 7.157385 
25.499933 8.173784 17.750269 
30.421026 -9.738142 -3.175438 
29.930433 -0.985464 -2.789564 
-14.345148 8.846043 9.630686 
-6.756114 21.164297 12.800656 
-20.947586 -11.800789 3.543081 
-12.709149 15.673578 15.452370 
7.738004 21.899715 0.925818 
30.055483 -2.797383 2.592791 
-13.341347 23.850515 17.442343 
18.316994 -5.346523 14.358096 
23.174137 -12.770242 19.358345 
-23.038036 -12.787790 8.107810 
26.244818 1.072768 13.252766 
26.263214 -12.405709 16.914373 
-8.796104 24.764408 9.346344 
-6.474702 24.116302 8.631554 
22.966360 16.130163 -6.300520 
15.803417 25.322720 8.399599 
21.991144 10.370314 13.394028 
15.219759 23.945713 13.133903 
-15.457880 -7.575343 13.245379 
-0.157751 27.769424 9.765275 
-14.838369 -8.069474 16.793606 
17.743200 -4.062886 15.971668 
-16.469156 -2.645044 16.609398 
23.026829 -8.976897 1.839273 
5.998500 27.969839 21.865068 
20.373322 -5.491322 17.402149 
-14.524990 22.792761 8.246674 
-8.831535 26.810650 -2.938127 
11.339948 20.335331 1.457172 
-15.709121 17.891521 13.084914 
-16.761646 -5.738125 10.591898 
1.202568 24.409817 4.154741 
12.300115 24.134583 -1.136838 
7.093860 28.838036 7.634884 
-25.829905 1.941293 -0.127857 
21.191355 10.444520 5.728363 
28.677528 -3.258672 8.455029 
17.707979 4.196258 16.075726 
16.736591 13.509963 19.188227 
22.745142 -2.781239 15.471589 
11.985884 22.690414 17.123667 
22.257977 -11.369782 3.753521 
-30.587282 -11.117807 4.623282 
-27.273481 3.630669 2.577895 
8.191129 19.901049 0.466690 
-0.784870 29.484600 10.062065 
20.814442 3.437870 15.801918 
30.072472 -8.878423 6.429212 
20.475994 -5.716457 2.919170 
22.340857 1.302295 -1.136176 
8.697737 22.254841 2.906590 
0.735108 20.815796 -2.101756 
-14.804105 -4.069168 22.817356 
-9.932318 23.702251 8.800633 
-22.395914 3.519882 16.352552 
28.938906 -5.088376 23.214273 
2.750767 30.423527 17.346233 
27.965994 -0.152929 3.925371 
25.818056 8.784491 8.723613 
19.033911 20.569384 20.100344 
11.725735 23.737631 1.615148 
-21.495455 -7.479753 17.796806 
0.270089 26.485323 2.834200 
25.827372 -15.567492 17.737782 
-2.575842 26.060516 13.581653 
26.993155 -5.127468 2.220448 
-25.774755 6.463455 3.055637 
-25.134007 -13.361866 3.552642 
18.684036 -2.073914 -3.022847 
-5.311939 27.888258 0.216611 
20.017208 -8.644221 -2.249638 
23.343836 -3.177754 2.056524 
27.389645 -12.559248 -2.771231 
-23.655008 -7.962256 9.438120 
-21.425259 16.466993 -3.533401 
-25.481157 -1.981246 5.419030 
26.042946 -4.632783 1.990802 
18.567318 12.033436 4.896300 
-27.290071 -12.697104 2.600883 
-21.525812 2.883033 -1.447715 
22.158146 -0.952149 17.738758 
-4.552691 18.154203 21.594879 
-14.891641 21.253498 6.856121 
22.043633 -12.027269 6.804556 
-13.987006 26.964104 5.808185 
-15.786089 23.014509 10.116890 
25.511477 -9.055775 9.579547 
7.889320 25.510885 -1.236438 
20.903330 21.379690 14.706316 
27.700975 5.727076 -4.349059 
-20.286646 -2.221757 15.216348 
3.983136 28.213892 -2.843458 
-22.513344 -11.497805 1.406786 
-17.361723 21.240767 -6.201653 
-27.726883 1.242681 1.290668 
17.911106 21.590298 0.780265 
-22.267550 -13.637876 -0.573760 
24.138369 -10.618230 9.558364 
14.326591 21.275299 7.933747 
2.542246 20.124527 -4.994371 
21.896557 4.821084 8.117771 
17.597483 2.669543 4.439672 
11.363294 18.834135 1.920535 
21.197462 8.563415 17.449104 
26.653624 -5.472617 12.196918 
9.431712 24.761425 16.094076 
-13.819185 0.195745 13.998698 
6.126725 28.731531 7.279272 
22.234390 -10.867817 9.905799 
23.223934 3.509890 13.967845 
15.297550 25.118759 -1.621634 
25.934034 8.473439 0.502408 
15.609195 21.804712 1.439822 
13.964597 14.451847 0.191624 
-8.856200 15.304963 20.421106 
24.153326 2.167200 15.527778 
8.307084 27.689245 20.271313 
-16.072596 8.741868 -2.339666 
28.351505 -15.131362 22.850971 
20.979269 0.929064 14.191680 
22.340340 -13.002571 5.313340 
23.060635 -5.200366 9.043177 
-14.053246 3.201548 12.144251 
24.738405 -12.666533 15.470062 
-4.901062 23.892805 15.352165 
-14.135203 1.704140 13.777237 
23.023605 9.256704 4.381197 
-27.189816 -10.846396 14.048592 
-25.472723 0.887863 -0.260697 
-3.673463 24.145739 20.134962 
7.680994 30.419832 16.062263 
3.112969 21.547071 1.274119 
-2.473896 30.390749 14.806351 
18.556812 8.382652 4.488454 
24.307167 -12.092367 4.430744 
-22.532797 -0.545861 8.403877 
21.924917 10.898774 5.387937 
-30.111246 -3.118032 -3.451887 
28.288002 -1.489813 4.211985 
-9.306255 24.226564 -1.514980 
-6.582400 26.969681 4.130506 
18.112015 2.394233 3.419689 
5.913886 27.171238 22.804115 
-7.332970 23.339260 5.699157 
-15.071134 20.685678 6.066512 
-17.440805 10.335266 12.158638 
-27.043303 -11.980860 11.125602 
-24.790035 -9.924590 8.493380 
24.417267 3.995731 11.866694 
-23.234333 14.346074 -1.254703 
-27.299967 -13.456465 18.041115 
-20.239338 12.420499 6.791440 
30.565395 -6.561825 -3.692508 
-27.185133 -11.727112 0.972748 
-13.179198 25.429611 -3.465754 
-17.447161 -6.049951 14.894911 
-10.592649 24.368168 -9.534480 
-16.516924 -9.250436 11.547557 
-10.923847 22.475010 14.593214 
2.747491 28.436344 -0.776702 
-15.990127 22.974398 6.104156 
-19.172712 4.402465 14.585529 
-24.937521 -14.895510 -1.235278 
23.401690 12.955464 9.542593 
-15.569265 20.204233 3.388950 
-10.918695 20.323690 13.419597 
28.202454 -10.957090 9.077332 
24.566353 -0.005901 -0.019693 
-17.870554 0.826369 17.233147 
-18.978975 -1.659273 2.647449 
5.860854 31.954006 10.324018 
-22.423759 4.834976 22.498447 
-24.436550 -0.597891 15.565429 
-6.545771 29.928596 11.912851 
15.384742 25.815208 2.724255 
2.078441 26.922779 17.453083 
12.444702 26.346632 -0.065737 
-19.405764 8.150270 7.828195 
18.417038 -14.335045 24.031885 
-22.800703 -13.468370 -3.573946 
-8.907753 26.832535 6.360704 
-13.815404 21.311392 11.618199 
15.718840 9.501139 16.646542 
-20.128716 9.305619 9.191200 
-10.908814 16.013859 16.662365 
1.869356 22.015072 1.947574 
-26.486103 -3.904417 1.918333 
4.616062 31.220825 16.289190 
-9.610917 26.557009 -3.654193 
18.086639 0.786864 2.209440 
-10.856184 19.548210 13.843925 
21.184589 18.821934 -6.529866 
12.938392 17.276659 18.044054 
24.071592 13.383085 12.492344 
-15.364366 0.704728 8.867069 
-18.015804 1.603823 17.115339 
-10.932397 25.125847 2.283596 
-11.795413 26.109100 -2.847293 
16.412119 21.179638 2.431286 
16.681597 23.667341 1.754140 
-13.145622 4.991680 10.656240 
-1.230372 22.336529 17.369919 
12.352559 24.124691 8.207186 
18.765757 16.989857 13.441507 
21.542154 -6.202735 8.984323 
-0.553142 21.744905 17.893322 
-26.557152 -11.732575 5.131360 
22.379810 -8.097416 3.990314 
-21.004204 -10.482387 2.894071 
24.842737 9.847158 21.381660 
-20.790941 -11.637855 4.426538 
26.080107 10.654333 -1.324445 
26.920097 -12.938924 18.708353 
-22.263821 5.515564 8.551963 
-5.263633 20.375792 17.787788 
-24.884182 10.056421 -6.077022 
6.181437 31.261749 15.344444 
28.893831 -7.826677 3.163726 
-16.062420 -10.406681 14.605993 
-19.651030 -8.750949 -1.774484 
26.347534 -9.264725 14.604903 
-3.450520 27.254318 12.549611 
26.153658 -0.190302 2.356074 
-15.357827 20.535255 5.275524 
-23.942617 -9.536411 -0.334372 
-20.047585 4.775106 7.408866 
17.900513 0.654896 1.162773 
-14.845263 8.091680 9.145720 
-6.469717 24.956467 8.549075 
-31.284786 -6.523959 1.302023 
-22.066324 3.517225 15.502416 
-16.187538 -10.018292 11.920115 
29.955103 -10.734365 -0.844387 
1.808877 25.344343 5.681068 
-23.057716 -16.433044 18.261311 
-4.761248 18.817717 -8.515595 
16.045244 24.014252 -0.990111 
20.384743 -8.804299 4.146478 
-15.888741 -6.168197 12.022493 
-22.771214 11.135612 7.142797 
-16.054470 17.894981 19.407946 
-4.399033 25.539579 -9.608766 
15.151909 10.295787 -6.743469 
-21.190174 -16.651480 16.730484 
-17.675663 3.997497 13.540762 
-31.213278 -8.751057 -3.098687 
6.411023 28.297113 4.838122 
18.373774 19.559580 20.841368 
-4.952452 27.213860 2.746229 
-18.324802 0.560655 2.542506 
-18.747141 17.556791 1.297276 
8.567594 25.170462 1.581272 
-15.983529 21.597612 5.001383 
24.532648 -13.243974 8.530780 
-22.886799 -10.058791 8.862998 
17.463223 4.432438 -0.398618 
-22.243004 -5.484095 7.842610 
24.478901 9.230062 17.012749 
30.834518 -8.593773 -1.657629 
17.848774 21.829735 -8.579879 
19.135822 19.496546 23.848408 
2.140994 30.550329 16.430834 
0.923377 25.684097 6.339943 
15.827244 25.459326 7.466528 
6.565200 21.571859 17.142780 
-19.120953 4.492054 1.845334 
-0.698393 27.197691 17.503330 
-19.308048 -16.292036 15.703661 
-24.859827 5.046304 -0.136949 
-10.253408 19.056070 0.856539 
14.752192 21.877409 15.821228 
20.139198 -17.179470 24.109085 
-26.479733 -9.648202 11.035131 
-22.951162 3.989398 -1.069392 
-6.903561 26.666746 13.931377 
22.928514 -0.601252 17.351078 
-15.467258 24.386208 -1.714517 
22.329075 1.461117 9.070393 
-2.558578 19.724697 19.954401 
21.033953 -3.332705 17.754759 
10.817773 27.102341 -2.755645 
3.884683 25.755226 5.319643 
-26.808186 6.661905 -0.468450 
-4.626817 24.571133 3.741015 
9.659870 17.318037 23.533434 
-6.867641 17.362762 16.603739 
-25.053514 8.912423 -7.279283 
-30.967949 -9.002946 -4.459547 
-23.228228 -12.477753 14.465908 
-11.285095 10.657423 20.911552 
18.082975 4.221611 3.076818 
-4.979408 19.639914 16.660208 
-15.087045 25.883434 4.646080 
28.770433 -3.112998 17.888664 
-26.425510 -12.641214 14.420328 
8.076687 28.945974 18.132099 
16.180195 18.120243 16.709436 
18.942671 -6.555579 16.111790 
18.462963 22.204309 18.772572 
-9.667104 23.625631 15.280618 
3.091168 27.372368 7.813550 
-30.235928 -10.109539 5.236952 
24.215202 3.327966 2.266841 
24.857895 9.586802 15.415043 
-16.630608 -13.859087 12.930449 
-17.967083 18.686340 14.551580 
-19.386881 -5.315395 2.440312 
-0.437842 19.889511 -8.609034 
-25.188549 6.488103 5.071794 
-1.849834 20.668522 -1.233599 
-7.016449 26.917303 12.624890 
20.830744 -4.666553 9.779137 
-12.963772 3.720457 14.560063 
-1.512720 29.127319 10.112598 
-2.985598 24.654980 16.948479 
9.662797 25.833948 7.031315 
25.907650 -1.301077 11.114260 
-21.266613 14.321596 6.947577 
-15.292952 -3.275598 15.796818 
20.270761 -2.925081 5.467096 
19.419514 8.315446 3.800149 
-6.871387 24.089750 6.606977 
-21.984329 -5.455227 10.966109 
28.885967 -1.653592 3.568616 
-6.159847 27.230461 -3.750300 
20.825541 -14.605314 18.806185 
-11.775439 9.656608 19.131285 
3.802616 32.037148 14.908525 
4.645168 25.921436 3.746856 
-19.375101 -16.168686 14.399147 
-16.685406 5.666799 -6.589495 
28.422832 0.768093 3.377416 
28.469942 -14.121076 19.551493 
-21.137428 4.500856 14.677588 
7.674774 22.329199 3.182104 
17.396971 4.311522 23.881681 
9.677711 20.793339 15.446277 
4.070430 27.281731 20.759211 
27.977692 3.356273 2.465312 
-17.280460 -7.521093 12.462393 
-8.578147 18.220083 16.441025 
23.403351 -1.975066 9.643804 
23.515257 11.763182 13.120538 
28.116810 -6.539008 2.634611 
-8.639624 24.955286 12.166780 
-26.452156 -12.461152 0.957936 
4.406054 23.845982 0.912045 
17.856043 13.493176 2.808357 
17.340450 7.211917 7.523923 
-22.713657 13.532733 -6.471485 
12.485907 26.416950 4.586721 
12.691915 14.497822 -3.555673 
-22.394701 13.102087 -7.914519 
-26.587118 -12.123963 9.386734 
17.081978 -10.371352 23.961201 
-29.786034 -2.086447 -3.617138 
22.993412 -6.901397 8.828949 
-28.215967 -2.906588 3.697851 
-15.537279 24.946461 12.957430 
-7.145474 29.182749 11.402331 
27.684713 0.598622 23.046057 
-15.466440 -8.728911 14.093319 
9.381021 27.364534 13.530871 
23.107796 11.401656 14.076015 
-20.708530 -7.431508 2.026304 
-13.999758 22.283306 21.054693 
14.090360 25.956297 1.310039 
-1.236685 25.463673 5.054024 
14.143597 20.151045 13.450666 
-27.147219 -0.217678 3.493120 
12.956453 21.024183 13.455600 
22.798601 -12.151186 8.937511 
9.729913 23.948786 -0.061338 
-10.498992 25.906931 8.238055 
-15.859244 -12.532413 13.469320 
-26.542593 -15.254266 6.191029 
17.333790 4.333830 4.538281 
29.139717 -12.966825 19.706127 
-24.443108 -13.739057 4.960212 
11.292995 26.762672 14.167549 
-6.696769 24.781593 1.555576 
0.105011 28.401363 6.393899 
4.567852 21.016239 -0.405073 
-22.049580 5.515901 17.442444 
-6.372051 20.245932 13.825266 
22.190987 -12.071990 -1.273402 
24.529625 -13.083163 18.825949 
-30.612879 -9.756659 3.203678 
-0.113971 29.417883 16.728380 
21.539751 -2.024104 14.132531 
20.431126 1.274541 8.443062 
-27.388872 5.183844 -3.356815 
-9.128868 23.269369 6.517390 
4.609767 19.711184 23.343679 
20.505211 -8.408385 15.194586 
-29.675095 -4.945546 3.571693 
8.694655 23.995865 12.157464 
-13.595526 24.241590 -1.609165 
-6.224262 26.182810 17.801689 
17.592703 11.620193 2.032359 
-16.296110 8.964125 -1.155984 
-8.366227 24.955875 -9.588449 
-12.140568 15.672033 -1.644528 
-18.239767 9.217196 12.952322 
-26.873484 -5.920942 0.573699 
27.637083 -8.409655 16.493793 
-25.921122 -14.022782 12.047403 
3.217570 32.493282 11.737474 
-24.528248 -0.494037 9.726739 
-19.196302 -5.884812 0.725320 
24.031988 -14.250884 16.023464 
26.127773 -8.893747 20.042763 
-26.752871 4.868799 3.051712 
28.990707 -10.635555 17.500223 
16.378412 21.172493 21.052511 
6.078257 23.985434 -0.037564 
8.717234 28.754286 17.435896 
24.296747 0.897509 4.022264 
