23.575567 8.776297 -0.827633 
20.172857 9.511692 3.665768 
-11.735366 26.476450 2.213007 
-20.790180 14.125068 -2.724075 
-16.545462 -0.250718 5.142492 
-5.740001 22.683176 4.322090 
7.263333 30.453373 6.295100 
21.477478 0.587848 0.202824 
-20.674820 -0.392987 4.460180 
-4.846742 18.870790 1.030614 
5.129289 28.811918 14.123880 
19.679613 0.969093 14.584372 
4.441299 27.789728 12.829235 
-6.710680 22.748659 5.305830 
-27.135075 -9.253967 12.761738 
-19.272814 21.365271 12.842909 
-18.835703 10.833050 4.894960 
12.274978 28.863874 8.767569 
-22.067429 -0.513548 9.043743 
-23.786709 -4.562313 16.254877 
-27.379911 -0.664736 12.797166 
4.933942 27.473188 6.091276 
-20.461620 0.348440 14.605731 
2.809351 27.667242 6.796432 
23.131065 5.016406 0.339084 
-19.102753 -7.780462 13.451555 
25.469912 4.653687 8.614714 
-2.767660 24.168776 13.463494 
-18.845360 22.795429 14.035987 
18.943668 -4.197390 8.402128 
5.173825 25.351248 11.565789 
-22.197296 -4.160071 8.469993 
27.674122 -2.252908 10.332128 
-18.248949 21.323614 0.608048 
-2.415974 26.085979 7.434566 
27.408085 -11.061168 1.031482 
-9.459885 20.549967 4.985189 
-0.834543 32.930454 14.883800 
-4.447800 21.697554 14.127782 
12.855010 26.586010 8.532315 
15.222617 2.060891 3.781289 
6.708179 29.005642 -3.631468 
10.277675 30.578232 15.126167 
-16.984253 -1.538299 16.578289 
-21.413874 17.940050 15.163929 
22.872057 7.759665 8.530969 
-1.686693 25.718884 6.082316 
-28.119581 -0.727981 17.911711 
-4.902134 19.425186 12.436568 
18.890539 -1.696996 6.159687 
5.857693 29.943499 12.056925 
-1.302709 31.357504 8.251486 
-1.039603 29.655098 -2.174173 
15.350927 28.791948 8.332296 
-17.847837 10.168065 8.695494 
-20.268749 20.554447 15.463953 
10.620736 26.761675 10.261786 
14.013233 27.571283 7.101245 
-28.349550 -3.487386 9.529714 
-5.524590 22.005735 3.124422 
-18.128017 -3.438684 2.080221 
11.673627 29.657726 16.850260 
7.879565 26.898384 3.569527 
-15.869789 8.798923 2.327840 
22.082092 10.716559 13.974872 
20.466326 -10.434915 4.661868 
19.152840 13.928267 1.344442 
19.484848 -1.305143 3.175586 
23.718142 -11.605516 13.452956 
-19.657114 16.662350 2.996925 
9.937869 25.822716 12.341188 
-8.037924 23.895576 7.081279 
18.276873 -2.888188 5.396208 
1.314151 24.650295 1.570757 
-16.262493 1.376158 10.207974 
28.410358 -6.419447 8.476008 
22.064451 -10.461127 3.630213 
-22.371588 10.586690 9.262741 
-24.411785 7.597829 -0.270068 
19.177380 15.357766 3.326621 
0.095191 28.787886 5.777750 
15.248509 25.219938 16.170914 
14.669166 3.918997 3.710177 
4.377631 26.467220 11.195130 
-16.342995 -3.552278 -0.069275 
-10.070716 21.720808 3.686266 
-19.171854 11.921109 4.597956 
-20.904713 3.517715 15.336394 
17.833868 -5.297921 14.001799 
-16.138802 1.565118 16.927601 
14.851348 6.780764 3.587619 
-0.232816 26.407850 14.443758 
-2.169441 21.003632 4.077050 
17.582245 16.161360 4.730377 
-10.626667 22.999275 5.098861 
29.095882 -5.037439 10.746053 
22.032703 -9.725846 14.625607 
21.158794 15.097279 8.776723 
-16.379129 3.617580 0.130681 
22.881474 -4.864614 12.161603 
3.637022 25.273155 5.296788 
-17.423124 12.707370 3.905249 
-14.028592 3.928878 2.943829 
-29.659353 -5.011157 16.203062 
-3.328726 20.914982 12.478526 
-21.620539 9.838044 1.122888 
-15.825091 9.352404 12.169394 
-0.148715 29.615372 3.737854 
-8.677107 27.973089 1.204394 
12.721921 29.359474 9.680716 
-18.572510 -6.185835 12.104027 
-2.868385 30.156500 5.335269 
24.032387 0.233335 6.407894 
-7.675719 20.952984 4.004003 
-7.285036 19.189581 12.522796 
-14.023865 29.210405 17.404705 
22.581163 10.244431 11.054875 
8.269074 22.841555 3.132547 
-8.119100 21.543936 4.581505 
21.447138 -3.180822 7.936726 
-21.632751 11.761802 12.029512 
29.053728 -1.456513 17.426886 
15.998561 25.682951 16.141546 
-26.518623 4.018604 9.424230 
27.582594 -9.591396 11.449078 
-5.558871 19.850731 6.458926 
-17.179817 6.582779 8.455854 
11.510621 30.469440 9.603893 
-3.090295 23.023989 4.395679 
21.779655 11.729786 -2.391353 
-1.235164 24.232519 8.043720 
26.869753 -10.375533 8.716802 
-6.186924 27.576708 5.319504 
-13.862085 25.143425 7.748853 
-4.882892 27.898418 0.190409 
-2.696677 31.935751 6.055089 
-16.495642 -4.775018 4.654626 
26.512129 -10.824162 9.687590 
-21.843538 -10.914650 3.993724 
-1.163155 29.646572 14.621367 
9.542523 16.335510 3.135189 
18.098597 -7.147919 1.380009 
-14.967954 25.268242 -0.599983 
-15.469195 24.396961 7.703943 
28.768448 -3.095120 2.000056 
-6.088292 25.235895 11.178135 
20.942648 -9.965214 13.717099 
11.034212 24.531807 14.928309 
21.507189 9.165913 11.213478 
23.143206 -6.851439 2.431494 
20.297737 12.958305 6.688708 
-23.218075 12.638978 12.269558 
-12.977453 27.065229 15.434189 
-14.492413 16.904743 6.863744 
11.029449 15.968825 16.190668 
-19.462076 -7.546620 14.241785 
18.201010 -7.414124 4.692325 
25.124361 0.526963 8.131062 
-3.847297 33.391087 16.028481 
-5.316571 19.545582 3.501876 
-5.946972 25.470787 0.953042 
11.654115 24.625654 9.790698 
-23.734869 -2.058863 9.270669 
11.800153 28.456285 11.631049 
12.174068 24.239948 -1.149406 
19.549643 22.199059 17.422195 
-14.930716 8.458923 12.435337 
-3.500417 28.010437 10.423561 
-16.987202 -0.274136 9.157769 
-13.625065 5.372166 1.297991 
-24.522532 6.924069 3.629726 
3.846631 25.807030 7.024023 
19.610344 13.150702 14.682101 
14.586536 13.292587 0.749991 
-26.505068 -5.123730 8.782779 
-28.733992 -2.816460 17.107723 
-10.746238 18.549181 4.542231 
-18.125633 4.437015 7.048380 
-8.214296 21.974718 3.352557 
6.339345 18.515379 2.420262 
19.667711 -4.579803 8.854455 
-0.537069 31.429138 8.734764 
-0.985294 25.427944 6.557167 
15.762704 16.019476 5.796944 
-1.006115 18.872284 1.551759 
24.131468 -7.713199 9.379267 
24.518686 -5.916893 10.037499 
26.196129 2.454600 8.592566 
-25.870066 7.799934 11.474483 
17.721136 24.878984 14.801810 
-9.893549 27.693205 0.169876 
-3.032891 29.040787 0.993268 
-2.421927 29.726824 -2.013129 
22.910250 -12.157335 8.037714 
-15.486492 9.561075 4.875137 
14.374877 8.714002 5.000386 
-11.950160 21.762980 4.030327 
-7.629687 32.248165 7.261453 
10.776560 25.193573 -1.336551 
25.397007 -2.777832 15.493629 
-26.411198 1.502039 11.377408 
-0.137801 32.658497 14.510853 
18.349276 7.002371 13.589394 
16.709650 5.993829 10.320333 
5.581520 26.714012 7.572412 
-9.260560 24.282187 11.029806 
10.295743 27.569878 13.349589 
-23.657393 -0.800810 9.617169 
19.223776 8.320835 12.634414 
-23.562447 -6.340899 7.275236 
20.688490 7.319508 14.131803 
12.218883 28.745291 18.688499 
-23.436625 13.250306 10.899446 
0.745431 30.082920 4.313110 
-18.858809 8.644382 9.052880 
23.915377 8.020331 8.137955 
-14.123425 5.316227 6.521638 
-14.431987 21.306517 2.639972 
16.099730 0.698574 2.985288 
16.514978 3.812383 6.861243 
20.139559 -0.177358 0.216839 
16.448753 5.428976 3.050090 
21.141113 0.999909 7.893522 
-25.260180 -6.681688 16.432003 
-19.945009 -1.824697 5.196421 
19.677288 13.364464 7.896680 
16.994381 26.684200 13.112254 
6.027116 26.276062 13.334446 
10.661062 28.507133 5.015631 
24.465319 -2.540120 3.321755 
-0.510912 22.024364 5.641445 
4.097288 29.451862 4.364282 
20.160574 -2.962568 4.490499 
2.810274 28.654984 0.539626 
25.677610 1.827624 7.983813 
19.568079 10.223232 14.530890 
-27.986015 0.541725 15.284113 
21.312775 -11.078217 4.837599 
-19.557302 17.429241 -2.009696 
24.204369 7.742062 12.712969 
-17.415810 -0.363108 8.462039 
-9.233637 31.426773 5.146489 
15.466437 10.280684 13.841818 
-22.730682 12.646454 13.487968 
6.188063 31.594805 10.781472 
7.648971 31.447544 14.171054 
-1.258638 25.429859 8.858760 
-13.668518 26.442770 6.537828 
17.404203 -1.865228 17.504885 
16.593794 7.680919 2.241661 
-26.373285 0.344113 2.744034 
0.946919 32.994362 18.937263 
-12.711697 18.854197 10.429535 
14.043876 17.005079 4.098620 
-22.978956 11.120663 9.357046 
-20.000835 17.749109 11.634496 
25.806982 -2.550545 10.149015 
20.596617 -7.176425 2.701760 
4.423609 22.608488 15.694333 
4.139899 30.191164 12.047855 
-27.737007 -5.242133 6.217357 
-18.747412 -7.588610 15.224840 
-11.185962 25.923319 7.186702 
9.190343 27.954844 9.828812 
-25.394533 -2.187553 3.740055 
0.817908 26.353930 2.693842 
22.548481 -0.707127 3.838556 
12.492769 22.655338 5.398888 
24.512243 10.231655 13.711180 
10.157513 25.211567 5.704641 
19.584208 1.209626 8.445600 
-17.418795 12.556741 0.815392 
-13.894373 5.519912 3.707753 
-18.008118 -4.551301 17.688122 
-16.524107 -0.625335 15.707438 
1.797800 15.413858 -1.257188 
-26.752762 -8.961396 15.720697 
-18.512722 -1.755288 3.525320 
-18.073492 -5.048267 1.467482 
0.163572 25.369074 4.223578 
-24.699106 3.746916 12.986197 
-23.704750 12.564415 12.846570 
6.509754 30.219606 12.770809 
-4.483884 21.706516 7.704784 
22.575388 -4.059887 8.819600 
-13.987279 28.951626 13.046754 
-3.477747 19.037361 18.451931 
-1.229120 16.695303 2.230367 
20.447681 4.072908 7.065018 
-18.540472 -6.196738 13.596098 
-1.323113 24.349249 9.072948 
17.790228 -6.520267 3.975527 
-0.289754 23.203156 6.746929 
15.642446 -0.224569 13.426869 
13.281244 19.819899 11.250662 
-3.685594 24.473236 0.810147 
-16.584265 25.832949 9.573514 
-0.587977 22.362419 16.991787 
-22.712826 8.502408 8.546755 
-8.490775 24.582685 9.783358 
5.303962 24.465355 12.398253 
14.082739 11.094927 6.664524 
-19.700630 -4.328058 7.225267 
5.548703 31.244524 9.217639 
-13.042021 21.520521 13.077168 
20.551954 12.996247 3.909679 
-1.373153 24.904211 8.301608 
28.118029 -10.274123 5.638225 
19.042150 15.567052 4.971162 
23.686043 -0.495397 6.185012 
-9.893884 22.306404 12.507392 
-23.995394 4.251079 6.944307 
11.786506 21.795319 0.689171 
23.864662 -10.832685 9.727955 
17.304575 11.428701 0.540003 
-8.241980 27.695049 6.760166 
21.125071 -8.115993 9.473592 
13.788912 28.641787 16.428661 
19.003553 23.044985 14.743745 
14.817856 19.316545 2.851870 
-13.145149 24.152874 11.660602 
-25.649498 -6.976049 3.491413 
-0.955256 19.874393 1.952421 
-10.683576 10.939933 -0.007792 
-24.679340 -0.176991 13.764110 
0.394080 28.267097 7.045151 
-24.309977 7.754196 4.179621 
-13.197844 29.562212 10.245224 
-16.607365 12.892224 7.268773 
-24.626301 6.202135 3.341939 
-22.775768 1.149467 6.866885 
-19.030277 10.844534 8.872161 
-18.417725 16.048634 9.488190 
-26.893007 -6.249997 4.587684 
-13.869065 29.269411 9.783037 
-1.589186 21.687792 5.275270 
11.446146 19.313448 11.981821 
22.375982 13.351061 12.904916 
-19.414198 13.232024 2.204042 
-9.430268 31.103949 11.887412 
25.929098 -11.252424 11.898540 
15.259178 8.961445 13.071540 
19.718529 -3.202075 11.769007 
-1.416068 20.486128 8.351028 
20.146837 11.830466 7.901029 
-23.750847 9.119549 5.220681 
9.575130 19.695341 3.166334 
-11.427098 10.027064 0.010533 
18.993120 -0.563389 1.480644 
15.414950 7.299870 3.705949 
17.569651 -2.336131 9.847447 
16.776573 24.095596 13.892179 
2.181884 26.814396 8.621836 
26.454716 1.961421 13.498471 
-27.169781 0.405123 13.267507 
-0.764859 25.515554 13.765976 
21.299788 -5.402710 14.703961 
-5.913843 22.660198 5.489388 
-1.089493 25.126476 5.557152 
10.487992 17.429178 17.077219 
11.850269 22.512138 14.299368 
-7.964844 32.055401 8.805417 
-5.851053 23.535372 10.121305 
-25.396086 -3.777716 3.176932 
11.811838 27.839876 3.510615 
-17.475800 20.674480 12.401315 
7.561718 23.460913 6.384129 
-9.863965 31.069796 5.084160 
-18.609798 15.848847 8.773245 
-15.283149 13.687744 11.201399 
-17.705248 21.920433 -2.013076 
16.603907 13.846572 13.116305 
-17.272188 6.803017 7.673228 
24.633942 -12.320141 5.932067 
3.775341 22.894226 4.292226 
19.658743 -9.242103 17.211599 
-9.420493 24.232967 13.532691 
-21.561539 11.526415 8.023610 
-13.541749 21.813511 10.282490 
10.457788 15.076391 3.580851 
1.942551 22.851688 14.704887 
21.916998 12.365761 7.281583 
-26.857765 -1.594797 14.822337 
15.568530 22.510529 13.234487 
14.096074 7.269188 2.442664 
-15.387284 16.889208 2.604789 
-15.037010 20.353861 2.949454 
-20.598974 11.705503 4.114127 
11.610504 22.836117 10.659712 
-24.168673 5.832280 8.508350 
4.303949 17.724972 1.746889 
-9.425634 28.093056 13.330548 
-15.378698 10.232893 13.374815 
-6.420501 25.901072 11.389625 
-17.381077 -0.956790 9.356678 
-23.605482 8.724471 5.948218 
-19.678652 9.871298 8.677621 
-24.440805 7.947793 0.839069 
-11.491632 26.181175 2.922023 
-23.680853 -8.944798 8.352177 
-6.809061 26.963346 1.521829 
20.385677 -8.142198 9.999066 
-4.227743 27.358398 2.903242 
-5.319699 22.572908 10.942492 
-22.942471 12.821658 7.872871 
-3.571177 32.937778 13.761286 
25.844370 3.897176 8.746737 
-1.302040 31.108475 6.297044 
10.935366 27.018974 9.621379 
-7.947377 23.799767 6.351501 
27.996149 -7.478652 10.680637 
14.982254 8.376637 4.582283 
28.104082 -9.832982 13.799661 
15.509895 14.667531 7.209843 
12.368327 13.337460 18.112421 
-7.163285 19.396597 10.690462 
28.181040 0.799017 17.518026 
-0.128143 25.191086 2.121090 
27.379742 3.008374 14.499089 
-18.176147 9.709135 13.918729 
26.356432 6.172192 16.912195 
10.235334 24.564301 -1.176157 
-5.870788 27.031263 10.580247 
-14.436744 25.557476 15.345428 
-13.127150 15.360089 10.621702 
5.719089 30.412090 7.125865 
-24.914555 1.102499 4.579080 
-21.611029 13.633729 14.717926 
13.166489 12.266061 13.002728 
5.032887 30.207323 8.915006 
19.520470 15.554493 10.562060 
-15.543094 1.247999 14.047073 
12.845475 12.059362 14.623846 
-21.361917 -1.382429 5.500129 
9.038330 18.967421 2.441332 
-26.189617 5.936093 14.286521 
24.477470 -1.356748 12.648467 
-18.379686 7.569465 7.572744 
-23.818611 -8.681498 11.248100 
-11.698083 21.884363 10.518244 
-17.915995 6.738209 -0.080542 
-23.693331 7.614245 1.203239 
-23.537085 -1.839206 15.014969 
16.317822 1.011037 7.261670 
-22.442640 9.394308 13.073918 
14.916657 22.873165 9.502543 
15.433891 2.949936 16.539240 
-15.867014 -2.288943 0.755496 
-0.225830 28.008619 2.878015 
-20.494610 -5.090472 9.240486 
-18.531948 15.608644 0.908773 
-14.500196 17.336756 5.389785 
15.951911 22.359430 11.720200 
-19.666153 -8.889818 12.607791 
18.357813 9.128144 4.113060 
-2.224752 22.142124 4.199422 
-24.757065 -7.354138 5.239720 
-12.313899 12.792892 5.387453 
-20.499069 18.796638 12.836754 
21.560240 -4.089780 9.558863 
15.871795 7.905012 6.477127 
-5.341174 25.293324 8.808377 
14.957815 2.627772 4.722622 
13.700204 9.048865 15.884392 
-27.268003 -5.695273 4.981150 
-9.704731 31.491947 8.185946 
21.855282 11.941976 -1.343402 
16.157730 0.190669 3.735857 
-23.845812 12.286922 18.363102 
-12.111669 16.086643 10.654509 
-24.235170 8.927326 12.776705 
16.826159 -1.638147 10.711796 
4.170984 27.096659 6.096576 
-5.288563 21.761522 0.521932 
-15.764853 17.435196 3.715945 
25.345562 -12.357706 12.164610 
-19.126078 3.149660 7.239197 
19.741186 3.339056 -0.528943 
26.544189 1.148184 12.770849 
-16.289038 26.127590 8.308900 
-24.429426 -1.209457 3.573963 
-6.175702 23.945112 0.233990 
23.907764 -1.424784 5.453728 
16.466988 11.587194 14.460629 
8.246040 21.946232 1.993259 
-28.595957 -9.649422 17.582655 
-9.273651 22.680092 12.253666 
25.202927 -5.697278 10.766467 
-25.121883 10.037064 17.149578 
-11.244737 12.008196 2.329925 
25.654305 -2.956429 3.562462 
13.944894 26.728832 7.460227 
19.005821 -8.243107 6.238544 
-2.419256 22.629040 8.615311 
-25.657106 -8.010436 8.474339 
-28.460882 -6.793546 3.210440 
23.601677 -7.641424 12.436474 
-17.667383 -7.940421 1.793694 
12.040160 21.550556 13.050869 
29.220064 -5.784164 1.287317 
-23.169230 4.784606 9.491263 
-11.514145 20.194502 4.264334 
-15.091614 11.848946 6.689262 
10.452410 21.544603 3.181257 
-21.555460 -9.924801 14.022040 
-19.635664 12.260159 5.857103 
-6.480328 27.860247 6.928489 
-21.806644 2.153588 0.733392 
-11.589297 16.097898 4.359927 
-24.909834 7.049403 14.439157 
-26.307594 6.317364 10.756789 
-3.079309 17.296162 1.234857 
-23.162020 9.908633 10.129180 
27.006805 4.163466 17.652956 
4.630732 28.534622 0.773493 
16.817253 26.341564 15.240695 
-22.171589 -9.903504 11.717507 
-17.328320 17.390682 7.534469 
16.811281 9.389460 8.960393 
-17.950943 6.842176 3.387974 
28.281046 -1.940390 11.046220 
25.804085 -4.074485 16.140789 
11.073495 15.913602 14.597829 
18.273951 23.480394 13.289200 
-2.695762 19.078545 0.244248 
-27.896805 -9.069002 12.788537 
-25.797024 8.330319 13.429701 
18.584225 2.684242 14.439099 
20.022139 -5.639358 8.258814 
17.346655 -0.333987 2.528496 
-22.068026 16.272324 13.849715 
-22.273109 -7.563959 8.363889 
19.925846 8.475587 9.971097 
-11.689399 27.104502 15.163697 
-19.423592 15.200033 14.411493 
-28.350172 -6.636331 4.353081 
16.451097 5.760617 11.255662 
18.733845 4.799219 2.941512 
0.012233 30.765623 5.871210 
-5.467780 23.220215 4.993329 
9.941813 23.161556 12.297101 
9.249584 29.146296 8.378332 
23.553146 -10.243241 9.368261 
1.496942 32.144650 14.469989 
-27.357430 -4.880579 5.078574 
-20.036005 10.272291 14.201125 
0.614509 27.599009 3.141125 
-2.106093 21.505241 10.935759 
7.109738 30.021429 15.081316 
8.290109 30.583248 14.713105 
-16.692699 5.660224 8.695870 
16.559378 -0.597148 4.557532 
18.167768 15.034108 1.444077 
9.190435 24.994822 6.057451 
-21.088476 18.505783 14.578588 
-24.414118 11.722321 16.302292 
-11.123756 25.613352 14.974593 
-16.698956 -3.126207 4.402408 
-7.659582 24.607586 7.447658 
24.210918 6.453871 7.765091 
9.072691 25.451231 12.948982 
-23.856655 6.438806 6.787050 
13.370133 10.664832 18.004684 
20.031979 7.580091 13.892036 
-27.519943 3.485034 13.982537 
20.395161 7.114156 0.058063 
2.175798 26.355209 9.225315 
16.697638 22.648527 0.013684 
22.265219 8.389986 12.206088 
26.991070 -10.563910 7.400324 
-8.462407 23.334555 2.850931 
22.488747 -11.564950 12.927824 
3.640043 27.313490 14.377335 
13.428964 9.541170 3.624944 
28.882265 -9.231579 3.787675 
-12.125380 24.034456 14.876718 
18.315519 -6.336917 6.269195 
-21.443287 -6.044605 8.551348 
-17.899611 -5.327272 12.854127 
8.194868 24.530594 11.975042 
-11.749548 17.456463 4.711262 
-17.930296 22.231731 1.009126 
0.829722 29.406239 15.091496 
22.516914 -8.637321 9.473983 
-10.382281 19.980350 4.756000 
-2.061216 14.815374 -0.610879 
-14.831350 9.202619 11.877823 
-10.856708 14.256433 15.582614 
28.592514 -9.222102 14.175368 
26.152523 -0.990226 12.419044 
14.513855 15.659733 11.638439 
-19.816847 7.529238 8.355130 
15.515358 12.844519 7.005555 
-26.670176 -11.037785 17.515440 
-6.288508 28.480675 12.195528 
21.470840 13.069739 0.162691 
-13.461415 24.227201 15.067945 
7.280247 29.458870 8.161543 
1.540004 24.806730 11.298707 
1.560377 27.879078 2.383626 
-18.728662 23.487961 15.436910 
7.317644 13.347071 -2.625195 
-22.648972 15.660912 14.949741 
26.299784 6.477687 14.383961 
-23.754519 2.637612 5.436745 
-15.794834 -1.236982 -0.417715 
11.280942 24.706753 0.854724 
5.650976 28.058744 14.315838 
-16.038523 3.945861 9.403588 
22.344681 12.282704 8.025601 
-24.657888 -6.666776 10.700299 
16.580198 6.274651 -0.030833 
-13.242682 11.069568 13.936041 
-14.524810 24.963324 2.347363 
-20.312935 16.511148 0.447768 
-18.442196 -1.332304 4.449628 
22.233044 4.230146 8.622325 
20.780886 5.407830 9.004427 
-10.905309 30.163092 7.164394 
-22.449791 -7.999632 4.699630 
22.273912 -1.781292 6.185028 
-22.985279 -6.669392 16.183640 
-16.225075 24.667074 7.902331 
18.746273 9.726635 4.313688 
25.107573 4.759488 5.324405 
-13.723017 23.187698 14.534040 
1.868192 19.476746 3.691661 
1.673976 32.632889 17.112667 
15.821982 13.533916 12.550555 
26.858912 2.280861 0.055095 
19.533884 -3.023604 5.302140 
-0.564548 26.705538 4.415317 
2.384694 25.760380 2.373375 
28.430031 -1.782518 13.801788 
19.157162 8.199276 10.463246 
-18.720667 3.753654 3.752682 
6.931460 23.021206 1.285743 
-26.289713 -7.340162 16.249506 
22.694118 12.239400 8.931201 
15.850352 28.630396 12.446589 
-9.898756 26.396305 -0.081192 
-23.638929 -7.805298 3.295703 
-13.022356 15.476802 3.992230 
-21.809246 9.933219 7.710390 
-14.182903 28.856701 6.794755 
18.961857 16.617859 10.892847 
25.435930 4.544142 4.473274 
-14.647357 26.148100 13.789015 
-24.441177 -2.358886 9.526312 
7.214381 29.910324 7.176341 
18.262884 -5.422726 5.973130 
6.253997 31.104259 12.727858 
-11.322227 23.829264 3.909766 
2.370310 22.277929 17.284601 
-26.841244 -7.298176 7.813898 
3.133610 31.883743 14.672399 
26.396345 -11.680305 1.125216 
-0.721039 33.243591 16.737183 
-24.439384 1.692831 4.809713 
20.991480 -7.704800 5.768833 
13.631493 12.788084 6.753339 
-20.649412 11.046307 4.439451 
-10.894041 17.434477 4.491757 
21.620636 -2.863847 13.796156 
-21.459024 -8.475949 2.045839 
-5.326520 20.807806 7.839066 
18.614929 23.665337 15.649898 
-15.487865 27.887701 11.043254 
23.480673 8.498449 5.707464 
-20.516041 7.476027 0.179698 
19.110794 3.944107 -0.560516 
-10.291491 19.733866 12.246833 
-23.792912 -7.304137 8.900790 
25.824612 -6.054609 11.552207 
17.231703 -1.762278 9.379161 
26.650728 -7.505560 16.563757 
26.959265 4.171388 13.964062 
7.748302 23.853331 4.382700 
0.437288 23.241829 7.027626 
-12.725009 7.935464 -0.470695 
12.999082 8.256971 -0.012140 
-21.266447 -8.228004 5.671206 
21.960835 9.859371 12.465075 
-10.269641 28.514908 10.333947 
8.126232 29.001255 8.734230 
-3.287733 32.646008 10.209136 
-8.419281 31.949892 6.892441 
-18.211308 -4.560909 7.101407 
-28.641260 -5.388257 15.712239 
9.813684 25.709930 13.064625 
-0.956372 18.277590 2.351716 
-7.714575 28.160612 2.327337 
8.661027 19.750189 18.381363 
-18.129995 -1.559945 9.327544 
-16.110594 10.479215 4.517793 
16.815495 8.664012 6.288637 
-5.742447 24.889561 7.424377 
-12.663900 12.606370 3.560609 
14.119379 21.779034 11.222500 
22.497471 10.722209 8.552717 
9.146315 31.118782 12.675897 
-4.292679 24.779390 6.211035 
15.033689 9.520899 10.202355 
-10.545955 17.544748 12.144299 
17.641909 -4.260013 14.031808 
-20.375807 -10.438928 4.519931 
5.379499 28.629522 7.375715 
-12.957990 26.375650 -0.974524 
-21.080112 -10.145693 17.503977 
-4.818795 28.486795 9.715775 
-0.046616 30.255533 4.484139 
-13.264197 14.631167 10.840979 
-13.521442 6.260481 1.506052 
-2.893058 32.376076 9.508904 
-20.129286 2.665912 8.122300 
-0.134487 21.705242 3.300207 
10.830301 23.809988 2.062104 
17.004486 9.843227 1.063459 
17.102890 -3.091637 -0.160049 
-15.438155 4.967023 18.022688 
19.074110 22.887972 17.413858 
8.682632 31.780888 8.438596 
-4.450210 30.624905 7.116168 
12.783520 25.746622 9.043319 
-21.616358 -0.714820 2.861246 
-16.438433 1.642409 17.906651 
-25.489183 4.417953 1.835152 
-17.213512 26.095604 14.960392 
-20.818794 8.930386 8.838100 
26.284424 6.090929 17.730656 
-8.033509 32.687214 17.777451 
18.182232 -7.694652 3.953937 
19.299416 -5.348018 8.374872 
-16.415874 0.253225 11.504667 
-19.561535 5.413853 12.387501 
-16.038326 9.471508 10.393744 
21.218315 3.655998 15.047608 
10.454370 23.402018 13.865928 
22.088511 2.198418 15.085814 
1.205677 31.139954 9.488576 
-18.156963 24.933510 16.559032 
-14.212865 16.585039 3.626626 
8.907950 24.405611 5.232133 
15.615309 4.542227 11.147734 
-2.322317 26.317530 4.402758 
-5.129698 25.436501 4.700818 
24.423254 -2.424435 15.032284 
-22.785154 -9.282373 7.823033 
15.103079 2.173599 14.053741 
23.352499 9.962317 11.206646 
24.600922 -3.329875 15.600073 
-26.990950 -2.617783 15.414643 
-21.854528 -7.762514 1.856631 
-24.690487 -0.894587 6.772944 
24.245087 7.992797 4.414657 
15.665828 14.084489 0.811132 
24.311483 0.996626 2.762606 
-20.502916 -10.704338 3.527921 
14.301241 11.517607 9.617110 
19.172014 17.964369 -2.108431 
-10.412813 28.551062 8.834909 
-9.642442 28.842064 13.269099 
-20.939396 -5.152438 15.354496 
2.832086 23.234381 10.534830 
-18.854624 -7.105820 12.217644 
3.770730 25.267982 2.785349 
-0.228851 30.578747 5.191736 
7.235384 25.668274 2.789413 
23.789391 -11.687787 6.960341 
-17.449421 9.656488 9.188822 
-8.795502 23.932301 11.582146 
-9.327575 22.215038 7.608393 
-21.744017 10.860020 8.370462 
15.785759 2.893279 8.984992 
-6.147365 29.808048 15.602954 
4.862120 22.481405 1.462341 
-18.681000 -8.893167 4.629396 
-2.554459 32.428013 6.615715 
-20.263378 12.390385 14.934620 
-3.115980 23.975702 9.121649 
-5.602404 33.422035 17.417009 
14.959435 24.502266 8.936401 
-22.570219 -1.177899 9.379062 
-1.256854 27.734406 9.290178 
-22.176008 -2.172441 14.808911 
13.893563 9.118382 17.942795 
-21.361881 16.726845 12.765700 
-23.255276 9.903282 1.373321 
7.777191 31.259895 15.858785 
-2.835154 16.458324 2.549904 
-21.275007 10.513799 7.882991 
16.445757 8.387450 13.106342 
19.687922 14.946132 4.983880 
27.313011 -10.089600 17.118710 
11.870984 27.872873 4.304915 
-3.004820 28.473906 4.091048 
-13.637683 26.045702 -0.654286 
-21.713158 -5.138326 1.420266 
0.446231 14.188792 -2.747320 
-9.059244 20.701582 10.352415 
-21.995045 -4.926319 15.831412 
20.500256 14.630196 -2.826586 
15.703176 2.092836 16.603682 
-9.975777 25.963306 11.067535 
12.633527 24.446041 13.025832 
-4.292613 27.686340 7.545281 
-22.138123 -3.426578 15.463879 
9.385390 30.785488 15.965223 
-1.889922 21.286644 0.362200 
7.131530 31.058916 13.780297 
-16.866503 23.377525 -2.201893 
-0.932928 25.821720 11.321671 
23.098730 1.052216 8.387344 
17.145124 21.635403 11.645581 
-19.831055 11.185390 4.863579 
-21.473963 8.811060 0.715055 
28.546627 -6.743556 4.884228 
-16.688736 -0.387272 11.982224 
24.020512 8.208036 0.053139 
12.791342 11.976857 16.771681 
28.673573 -2.759873 3.575877 
21.710787 -3.429877 2.784794 
-7.196704 21.209557 10.739598 
-19.686008 5.725659 14.971221 
13.571462 10.922596 12.102797 
0.685651 26.930912 9.198514 
24.000292 12.726836 15.277804 
-20.570301 -8.927492 14.551131 
-19.553741 12.961084 3.430938 
4.516553 14.323065 -2.770126 
4.192325 21.580029 2.408418 
19.906145 -0.155066 7.317873 
-20.611607 5.319410 15.206493 
-15.770541 13.079020 13.967198 
15.107562 1.991134 0.486445 
-14.315376 12.475914 3.945455 
-14.500917 7.285469 16.664886 
-3.050706 23.174095 9.827561 
-28.638111 -2.099683 14.589406 
23.243853 -6.725606 8.192502 
-21.664526 10.531453 7.153693 
-23.743137 -11.689024 13.578077 
-28.469921 -2.479722 10.026257 
12.219143 24.952559 -1.313732 
24.558002 7.230048 4.767900 
-15.446470 5.099599 11.178251 
6.634662 28.861654 -2.394845 
-18.102083 1.312549 7.539548 
-0.723607 19.020189 2.898968 
-22.510458 -3.430015 1.806478 
19.870121 -9.210748 8.793501 
-19.405489 -8.965207 14.964028 
15.558256 9.997136 8.599833 
22.695168 2.412045 8.719942 
-6.733936 29.510019 13.090612 
11.957077 11.357285 2.685042 
23.216240 -12.436471 5.603710 
-5.516712 24.438189 13.794389 
17.399118 -4.119484 -0.005710 
16.604437 1.525672 0.580995 
-22.312986 -2.379923 9.372516 
-1.651943 22.609932 5.535401 
-3.883875 23.840181 11.665097 
-17.128603 7.671506 11.923626 
8.016732 24.974522 3.008119 
-14.242988 8.049731 16.765759 
-13.229228 11.423788 5.399974 
20.785564 6.570129 14.421088 
23.120571 -1.852385 13.489004 
24.469776 -10.808109 15.145724 
-8.459702 27.901573 14.786823 
4.126539 24.616915 5.165217 
-20.597921 15.385183 -1.128282 
-15.755784 24.619631 -1.917898 
-10.068198 15.274572 14.892429 
15.196773 2.981769 15.508045 
21.609283 -1.263538 7.703876 
24.717768 2.327037 6.372964 
-9.290593 27.561329 4.590625 
-26.107712 6.854234 9.991970 
22.498550 -11.351276 8.770771 
1.094434 21.149515 3.024656 
-17.844643 16.107828 8.342799 
-19.923893 -3.189847 10.781747 
4.885531 29.388567 5.760902 
-3.574036 19.299349 17.044939 
25.330133 -0.408662 9.696275 
22.280005 10.785780 1.876007 
2.767202 25.621122 8.041590 
-16.422750 10.931335 6.939149 
-15.012405 15.836720 4.256448 
29.366064 -6.457097 14.717057 
25.924959 -1.091306 11.319479 
-5.986080 22.199656 6.938646 
-9.791876 27.750616 10.019863 
24.897024 -3.632674 9.913125 
17.671959 13.721674 0.753970 
-5.333201 22.369991 7.339374 
-24.076485 -10.893737 11.906665 
12.418889 27.104557 0.807888 
26.764666 -3.854941 3.820608 
3.170672 23.321741 13.956481 
-18.516735 0.219291 4.128282 
25.357286 5.499990 -0.783580 
2.602805 30.675005 9.516054 
-21.593966 -0.357913 3.989386 
-21.307747 6.100058 15.118815 
0.647159 26.244154 10.063668 
-16.287909 -4.170077 5.358723 
-18.213388 17.732281 5.296637 
27.868488 -6.122103 8.976467 
-16.438082 -3.756023 4.674284 
12.465199 26.744888 -4.017430 
20.106085 14.354686 4.854182 
-8.550159 20.073269 10.683044 
13.957298 14.255025 4.476699 
24.868013 10.255980 16.691765 
26.632250 -2.316775 10.291962 
17.483940 3.810744 7.037106 
8.161734 25.615206 2.506801 
20.246628 8.710442 0.672402 
-14.727523 28.622663 12.663403 
14.610577 4.997067 3.541811 
16.622288 11.801892 7.659443 
17.217657 -0.916719 6.977912 
27.109428 4.281082 15.111821 
20.608463 -0.816654 1.933540 
-16.582413 23.959368 0.448688 
22.920528 2.064508 15.055855 
22.310251 11.517112 14.081615 
25.296827 8.186020 13.451416 
16.193726 9.993999 14.049696 
-16.071808 -2.897233 3.257294 
-17.613247 0.882282 2.672316 
25.208891 -4.346646 2.978143 
-8.540653 23.709051 13.451722 
27.641157 -1.391721 12.839648 
-22.615522 10.708658 1.689197 
-18.775534 -8.740770 7.332610 
3.211406 25.319859 8.556116 
24.240971 -11.332464 10.127783 
-15.384138 19.390392 3.530526 
9.942917 26.727558 -0.600231 
-28.731968 -8.850602 15.132840 
5.666883 31.328718 13.382423 
-18.765106 13.402248 9.032507 
1.055966 25.457201 3.971713 
-4.479059 22.649654 7.206021 
18.231995 20.167603 12.744837 
-5.563511 26.967918 14.492611 
-1.787405 31.744663 11.327485 
-20.402510 10.857131 3.630429 
11.704626 27.770098 2.088666 
-18.650620 -1.740327 12.413957 
24.873274 -1.619866 8.336670 
28.549938 -9.271621 16.038980 
16.440853 0.055892 7.517213 
-2.396514 25.531103 6.064838 
7.928174 30.027681 15.188167 
-12.425052 28.042301 13.061810 
9.440410 30.903486 14.987184 
-11.509991 27.729811 13.513896 
-28.260395 -2.705041 15.072949 
2.614383 23.692190 2.101146 
-23.784576 5.924473 14.998652 
-2.458368 14.387669 -1.442785 
-0.297305 28.641544 6.626479 
-8.773913 28.917664 15.014286 
14.845140 4.789741 15.226294 
-1.513597 33.356705 16.600943 
3.549976 24.659731 6.805760 
-26.631269 -10.690923 14.506733 
15.139833 21.622658 3.220410 
0.280167 27.394245 12.174273 
-9.784765 31.437523 5.739068 
-9.759155 23.705011 10.480422 
18.008009 20.476250 1.897995 
5.183026 19.937090 3.346274 
22.301821 8.684064 11.340445 
19.345963 4.523024 7.540927 
-10.053412 23.238064 13.483781 
20.043325 3.123241 6.952030 
23.491791 8.537991 -1.912591 
17.163397 25.632431 16.581276 
-9.657325 22.563841 11.212971 
-8.755148 14.057230 0.751212 
-7.386545 29.487501 15.498316 
25.129410 7.240559 12.492836 
11.040132 22.348953 11.277262 
-10.401764 28.804813 7.297865 
17.006132 -0.239232 8.633039 
13.227850 23.937439 15.705648 
-5.654031 20.326963 3.428705 
-16.057373 1.280233 7.878426 
-22.087959 8.306634 8.126576 
-20.430346 19.731388 13.647297 
-15.053191 7.736152 12.761096 
-29.374495 -4.810414 12.359986 
-5.863660 20.341293 11.680171 
-24.570883 5.259731 5.530762 
-15.133088 3.477029 14.528056 
25.764250 -10.095265 10.107039 
-8.757927 13.142365 -0.006337 
-17.872437 16.971548 1.686895 
-1.068417 24.492767 10.925332 
24.913368 6.643779 2.405707 
7.027908 30.701403 18.803036 
7.477135 24.085403 12.610273 
11.724612 20.146286 4.460819 
28.360645 -9.247117 6.652761 
-2.815985 18.059109 5.050074 
18.623709 18.138634 2.856815 
9.403193 28.228680 -4.863880 
7.173590 29.041086 12.864601 
-20.867680 6.928424 8.609877 
1.863179 22.451061 16.396566 
-24.597513 -1.481910 14.910480 
-7.973661 31.807974 12.381241 
-2.509368 30.642174 9.473349 
-10.276117 17.013580 13.013764 
23.023661 11.952025 12.191651 
19.785442 6.506288 7.439267 
-7.347201 27.342951 11.199109 
18.856745 -0.345110 4.281384 
14.882874 4.959751 14.204547 
-13.169420 27.543039 13.197855 
-1.917408 17.481386 3.936388 
-17.644365 -6.869956 6.122871 
6.233668 23.349886 1.015177 
-21.110806 -3.802619 15.118175 
-3.093079 25.164576 5.481779 
-23.079945 -10.423979 12.842249 
25.926903 -2.201804 4.004645 
6.727463 26.850260 14.263136 
14.593024 10.127837 10.101969 
11.220957 21.550219 2.738980 
-25.799381 3.367848 0.899185 
27.435297 -8.472309 4.340927 
-6.408548 24.299587 6.139446 
22.348204 -8.247910 8.604033 
-16.466114 11.811871 7.017308 
17.440117 8.016241 11.456361 
14.961601 9.043804 1.936918 
-17.079784 7.596422 10.198771 
18.830759 -2.585916 8.273523 
-23.121422 11.543791 8.622562 
-14.231825 11.812603 6.782226 
11.774014 27.318613 12.151000 
-14.549776 8.636913 7.850874 
15.498878 23.920464 1.028014 
19.978931 12.526358 7.554963 
24.510147 7.625894 0.596136 
1.209813 29.867884 12.864145 
-5.599255 18.063404 14.813990 
21.527727 14.572354 8.106062 
11.253740 15.877331 13.413159 
19.365553 11.976211 12.002149 
-27.736622 -2.919471 2.966856 
19.835676 -0.785862 1.766800 
22.261232 11.142312 -1.166936 
3.484715 25.326607 10.596066 
-18.532749 19.156391 1.957305 
12.947088 27.780037 13.918366 
-1.143206 22.865631 9.603532 
-3.259591 24.624674 7.579411 
-25.302633 -5.797731 13.492231 
-19.868633 -7.671722 11.253975 
-20.685413 -10.952051 2.384105 
5.728819 15.231546 -1.257344 
-26.607346 -0.441016 12.805769 
-18.750736 11.979445 3.409391 
-1.195034 24.498766 6.445234 
-1.827473 23.939833 13.839620 
20.050800 -5.284055 13.534725 
24.891922 2.909112 8.157728 
-10.069656 24.402397 8.631377 
3.270165 29.203714 -1.713681 
-8.800733 30.978666 14.923056 
26.318193 5.145921 12.571714 
-11.111913 22.766981 13.785575 
-17.527859 -2.477704 17.761644 
19.631634 -8.200089 13.126188 
18.669928 19.635103 1.059543 
-22.589325 2.500305 1.172843 
13.035688 23.469995 6.248435 
-15.882846 5.962659 13.262199 
-18.996168 22.796883 14.778273 
-16.255030 15.376210 0.477072 
15.129538 24.348700 -3.192497 
-24.980772 9.184120 12.811474 
-22.077944 4.580588 12.942399 
23.777931 1.694657 14.934296 
10.727249 17.567566 13.259239 
13.232757 22.784342 5.272038 
17.386461 -4.940341 2.153919 
19.195513 10.041223 4.860042 
14.253387 14.806227 11.073430 
22.763985 11.553993 9.283915 
-22.563778 -4.449353 15.944530 
11.328164 30.382710 10.613372 
22.768127 10.846931 9.832115 
16.281528 14.347549 11.276539 
-21.726780 4.687114 0.275149 
19.370747 5.855650 11.430398 
-22.179686 -6.468313 15.952894 
21.309759 10.780643 14.309680 
25.346033 5.205030 3.904560 
-11.332119 19.064415 10.441554 
-20.182520 -4.537768 14.762397 
-6.682109 24.985630 12.964491 
-16.130083 1.142199 4.060069 
12.534049 22.936657 10.474217 
-24.526138 -7.589901 3.105467 
17.607304 6.558563 8.964047 
25.606865 -10.893539 11.167055 
-6.369948 32.629810 11.541469 
19.697279 -7.626076 10.297818 
-21.290264 1.010801 8.816141 
-25.799812 3.296031 -0.032216 
-4.003867 19.236361 9.648845 
-23.012562 4.137727 0.752411 
-12.931822 15.641635 4.710763 
-17.201977 1.962165 14.082621 
-3.574445 23.198666 11.484588 
-23.214823 14.015971 17.601728 
-18.743092 18.574316 -3.394304 
18.562260 -8.081901 1.457233 
-20.205040 -3.011697 7.329375 
-14.513983 3.902403 3.599170 
8.801901 31.526155 6.779684 
16.719818 27.493063 11.572606 
0.646525 19.082663 3.412906 
-9.343580 23.412878 11.211930 
-10.422384 27.645283 13.882287 
10.524399 28.710596 6.974435 
-24.394720 8.636020 13.447104 
17.712563 15.720025 3.241836 
13.345671 28.370108 14.958271 
-15.469242 3.001358 12.108330 
24.702862 10.262732 14.599456 
-7.378312 28.582695 15.325005 
-16.121204 9.414275 3.221069 
-18.101540 8.461754 7.727216 
-8.613648 29.146616 11.987205 
17.475065 8.370726 2.538337 
-5.635283 21.540880 9.256402 
-3.510872 14.393960 -1.275199 
-24.708630 8.100567 7.851815 
11.093565 21.050735 4.393119 
25.962259 -5.633131 10.968147 
-3.107880 27.128933 12.274223 
-4.196709 33.037426 11.502306 
-22.803949 1.622311 12.485741 
9.766314 23.956083 12.392230 
-18.491274 8.868129 11.730346 
2.664116 21.971720 5.241945 
21.507212 10.707279 11.507708 
-13.748301 6.726270 3.843239 
-13.384366 9.014216 3.175722 
-23.070202 1.974571 7.071337 
6.772095 26.551388 4.145856 
23.974443 -11.281576 14.701230 
21.340893 -9.113781 6.520347 
-19.773109 16.842319 4.012887 
15.164125 14.977157 2.728530 
-15.947614 7.475155 8.427285 
7.812889 23.089083 4.439196 
-3.442502 26.021767 8.734171 
22.755791 -3.951487 15.155711 
-3.704972 25.797852 7.986032 
21.398453 -9.415195 14.336907 
7.683723 24.619234 4.337251 
-14.538889 27.679707 14.899076 
-7.223764 24.473007 14.311525 
1.108591 26.564533 4.408245 
29.374664 -8.458282 12.887478 
2.306073 27.103460 3.737773 
-22.896893 2.687585 7.497036 
-4.496792 27.764042 5.597323 
-20.856012 2.082912 9.556489 
3.547353 26.650728 4.877062 
25.171059 3.619164 8.462587 
4.909963 21.053263 3.333900 
17.615381 0.392208 7.708640 
-9.427329 28.009605 7.908922 
-9.335929 23.236155 12.831293 
-4.311206 18.060631 1.860451 
12.446523 21.604593 12.279589 
-5.633634 30.816673 5.278499 
1.132337 23.735987 9.922760 
-20.123730 11.199618 11.841866 
15.301172 5.492164 12.607327 
0.636238 21.086288 3.669028 
26.232609 -0.034445 12.334594 
-20.768450 16.574411 11.682188 
-1.988204 22.386219 16.243629 
-9.753051 30.279575 12.798749 
23.761419 -1.620050 13.087491 
-11.383993 17.082556 10.506598 
17.661957 15.076978 3.839307 
-19.887590 7.003188 0.014076 
4.644294 24.393921 10.914732 
-27.081264 -7.189470 16.134056 
-24.511669 0.965778 12.113091 
-16.399343 26.323437 10.136877 
16.639635 23.324236 12.999614 
-15.726479 5.739949 12.504304 
18.182108 7.094604 8.559347 
-14.956683 13.911864 6.676737 
-1.027910 23.650860 6.190107 
20.235785 15.365392 10.944522 
14.405290 12.434123 6.769435 
-18.155916 13.467306 8.620212 
-24.717630 0.034994 9.877212 
8.502975 21.597542 14.713991 
22.570375 -10.889604 17.126823 
17.978474 -6.422257 14.149461 
-27.213720 -2.921572 5.924972 
-22.685699 1.512323 7.568772 
-25.347906 -4.915405 16.396986 
11.334502 24.140373 -1.212493 
-1.932224 30.109419 12.567317 
-24.507387 -7.106460 9.043363 
-5.815499 30.713434 15.549334 
16.564760 4.216256 8.670434 
20.120243 -6.276739 9.585361 
10.763161 19.388763 13.630547 
-16.136967 25.055939 13.615056 
16.579176 -2.044512 0.614128 
20.648104 4.254090 -0.426102 
-20.105225 19.523186 12.821382 
12.154729 27.921093 6.096603 
-26.302042 -9.390951 15.034122 
-19.224016 1.506241 0.476333 
-27.795612 -5.367229 16.007484 
15.759902 10.548483 8.061742 
15.915452 24.125618 8.523863 
23.773117 -9.204288 15.674468 
-17.010601 3.191086 8.864459 
-20.669258 16.106684 11.124280 
-13.763830 14.365124 4.144500 
-21.080021 8.555239 14.194285 
20.705303 -10.373824 3.771144 
-24.426054 -9.423268 15.618778 
-18.614847 6.256911 -0.144155 
7.606715 26.517328 5.416506 
22.688354 9.287044 4.323050 
19.553818 14.828005 10.711430 
7.950447 18.612591 2.031342 
22.605497 10.118961 -2.149708 
-2.780197 28.497057 4.894923 
23.104725 -9.003970 9.879669 
-21.874634 -8.783685 7.991459 
19.157354 4.804709 14.493069 
27.813393 -6.569870 16.570724 
-4.904735 26.019068 3.615155 
-22.210428 12.612662 7.322355 
-22.896263 7.892901 0.924720 
-2.724125 24.405067 0.708639 
24.995209 -2.906413 9.838804 
21.171791 6.469407 11.691873 
-18.481506 7.254348 -0.023590 
17.491041 2.355638 3.192422 
16.662352 22.851204 11.870538 
12.360168 12.974991 4.603095 
21.694185 -1.168283 4.051950 
6.143328 30.052622 14.755342 
-16.767878 25.140379 10.621372 
-22.144608 7.674754 0.614148 
-12.765250 21.876087 10.020792 
21.770031 5.863089 14.730859 
3.934349 21.136356 5.381713 
-22.893415 0.387728 12.086101 
-26.589972 -10.048448 12.731761 
14.391299 25.474579 16.241575 
-1.053350 23.067572 7.484421 
-26.361887 6.540469 12.854561 
6.178810 26.583750 8.937533 
-7.738792 18.091059 2.828169 
12.856853 11.122202 6.258631 
-17.782175 22.100727 1.837582 
27.175119 0.199707 3.323361 
7.426883 18.031292 1.574542 
20.607866 -5.024591 9.825521 
-2.618674 29.360340 13.447896 
26.093142 -2.374350 8.830579 
21.248735 19.375500 15.753797 
-3.764687 15.182664 -0.122876 
-26.498888 -2.029171 4.897563 
23.475883 -2.220420 3.258782 
-21.890335 7.331117 9.102639 
12.249651 12.250402 4.575790 
-23.994320 5.798649 1.124726 
20.312637 -3.925022 13.246497 
-5.264421 32.681793 5.097653 
-23.292282 14.121062 16.856812 
-6.558365 25.915600 0.095358 
-20.884386 -8.748800 10.316439 
-14.553356 24.369600 7.773769 
-16.907135 9.332652 9.793876 
24.363876 -3.070525 9.462818 
-8.797748 31.749514 8.644129 
-12.307550 13.803909 4.624933 
-24.726519 7.313103 7.974336 
27.139692 -11.186275 5.945915 
8.597653 26.791063 3.829829 
-0.903046 32.733456 14.101587 
11.251538 26.181265 9.270269 
-6.790699 25.108891 10.654285 
14.993428 26.407936 16.294857 
11.754208 29.911913 15.162529 
-19.353058 -2.173328 10.725060 
19.017395 9.094679 10.962899 
-24.710972 8.868796 11.866113 
25.033819 6.267245 3.226523 
-15.435029 2.763457 2.128388 
22.846796 -2.539702 5.926204 
-12.457246 27.760004 15.259651 
6.337824 22.015959 16.350788 
28.204056 -10.275484 0.912848 
-8.784153 27.793512 3.927977 
-28.310019 -0.507995 16.124079 
12.301605 29.587214 13.640267 
21.695061 5.806139 8.693276 
0.129188 21.823296 8.046125 
14.096785 23.950665 3.299454 
3.189057 24.050095 5.797314 
-27.294725 -8.767262 10.837614 
15.700360 6.986061 2.623539 
12.694451 25.019163 15.895031 
-15.641293 26.463142 14.241074 
-3.982877 22.691097 1.660802 
28.851313 -9.131453 6.057449 
4.734819 16.494932 0.151609 
5.817744 19.514385 3.112833 
15.296129 10.818913 6.683428 
20.331358 -8.956635 3.213662 
-27.922350 -0.892356 13.279016 
-13.753450 25.939779 -1.832347 
13.581106 10.444139 1.524041 
-1.677344 22.274090 3.730089 
-8.835199 28.301899 12.597405 
18.986979 14.809015 12.492907 
9.733027 13.041134 0.075022 
-1.312243 19.611629 5.798049 
3.192296 25.062696 12.719413 
-24.563301 -10.270747 4.526522 
-17.060940 0.250695 8.621704 
-14.311061 7.078376 3.343813 
-1.672763 22.150654 10.415075 
-16.818480 4.475706 -0.028824 
-6.626925 21.788166 7.798573 
-22.590363 10.691037 9.979774 
-27.347073 -0.851946 11.237557 
-12.649762 26.249445 12.396499 
-19.018122 3.667438 7.792713 
-16.364643 25.944712 12.248059 
2.411344 24.857042 11.097777 
18.972200 8.359707 13.365824 
-8.589914 24.239082 10.702423 
24.694918 -7.498159 10.595339 
-17.835293 3.832609 7.473680 
19.364754 3.711233 14.684872 
3.021266 24.122700 2.912048 
-20.321253 14.222127 14.806124 
6.072938 23.082245 14.416580 
-22.340586 15.968254 17.370838 
18.481119 -7.057282 6.148341 
8.145005 25.765467 13.508190 
-26.413305 -3.586031 4.152935 
-18.239706 -0.049755 7.439557 
-15.172761 28.249973 12.045352 
11.940542 23.198378 3.036939 
-8.083528 16.819811 2.487282 
25.602943 6.799456 9.823184 
21.193541 7.458891 0.320066 
17.995598 -2.120572 8.380911 
-26.772692 -0.688514 2.788338 
-29.208452 -7.020530 12.354892 
-0.681393 33.347801 17.805273 
14.635668 11.011114 8.819980 
21.374344 -6.102235 8.582674 
15.167173 4.142420 7.117877 
20.195152 -3.422426 3.757692 
-19.483503 17.946131 0.913463 
-20.564674 7.336470 14.668041 
-24.486040 -5.704891 10.637861 
-9.376273 22.051954 0.636177 
5.246474 29.392628 13.547250 
-22.189816 8.433620 14.298822 
-17.674713 7.701198 7.719098 
20.234961 3.260376 7.940147 
-25.754389 -7.111922 5.027501 
-9.441545 14.959963 18.347536 
2.284286 26.140120 3.580137 
10.753136 28.690554 6.174168 
25.182709 -7.600097 7.177287 
8.008766 26.647816 7.831877 
17.661531 -1.373041 5.672187 
-1.011346 28.128216 14.690525 
-18.487850 10.399060 2.919930 
-16.898611 0.830284 3.637432 
-25.772804 -6.961966 6.792950 
-19.313253 13.437502 1.330954 
-15.946513 0.058423 13.818688 
22.890198 7.966572 6.943823 
-25.374815 -1.461812 4.120818 
18.120630 19.379814 2.541224 
-22.970146 2.590344 15.221244 
26.677410 5.302210 16.976553 
23.780447 -7.799208 16.050699 
17.439182 -3.053196 16.143211 
-22.974556 1.819260 8.581208 
-21.564049 -8.080004 6.529517 
-14.672809 23.256302 14.427893 
2.635268 30.759781 10.500248 
-15.316456 27.640257 13.537493 
-3.217886 26.286255 9.601226 
26.925205 -3.024804 8.520756 
-4.152272 22.792336 12.077956 
24.122629 6.930527 5.800354 
-6.530272 20.596743 10.034045 
23.513922 -2.251860 10.340309 
-10.315872 26.873795 6.061863 
14.156587 28.381842 15.004062 
21.198133 -9.930343 3.446250 
-0.086482 30.742527 14.700125 
-29.276522 -2.681091 14.463056 
6.600772 25.433151 3.652594 
29.445343 -6.761835 11.957638 
-16.271980 24.241627 -1.182562 
-9.101065 22.968754 6.855639 
-26.308058 -0.497703 4.170571 
29.517145 -3.503418 13.057062 
21.680130 8.888085 10.296459 
9.965462 29.698944 13.852597 
7.919686 20.525705 3.285200 
21.008577 1.437888 -0.120209 
-25.026293 1.081008 8.704799 
-21.670349 9.532523 12.532300 
19.222063 -3.230923 7.700779 
3.752621 22.316504 2.290872 
-19.557091 -6.703218 4.668128 
-19.801224 21.028620 18.656887 
3.774498 25.485329 3.645342 
2.965377 29.897812 4.562693 
-23.784834 -1.108576 14.505517 
0.433565 25.183292 11.185318 
21.326830 -9.084867 3.056696 
27.135906 -10.716322 5.345514 
29.593624 -4.070851 12.550033 
24.689566 0.237032 12.491883 
29.602806 -7.340767 16.530237 
16.533596 2.763727 6.555831 
2.602950 23.200958 9.685973 
-9.643275 27.009480 12.518197 
-17.211636 10.223828 3.772818 
18.029606 19.479263 -3.554019 
17.813305 -2.334000 9.141983 
24.697880 4.363278 8.385334 
10.745855 16.683514 14.844979 
-5.847713 24.684834 4.150700 
8.191980 24.396208 8.466113 
24.999205 6.547531 -0.152376 
24.971888 -11.156555 10.750933 
-4.632293 18.501074 5.819387 
16.122406 23.322599 0.182300 
-23.081379 -4.731503 9.471156 
18.481659 22.898718 12.705851 
21.237484 0.515548 8.903296 
17.906523 -5.283762 16.060612 
-19.329525 9.235191 8.576112 
-15.678257 17.630665 6.870055 
21.495993 2.891801 -0.235810 
-24.215366 1.018288 8.673284 
9.978434 20.229609 14.195388 
15.235463 4.738573 17.768639 
16.320057 1.080069 9.477623 
-1.787781 22.976675 8.340381 
-11.245419 27.803967 8.107897 
19.117638 -3.838773 4.843011 
-5.622058 25.955723 11.477457 
14.152411 5.792754 0.518070 
7.381615 24.193340 8.139428 
16.373568 -1.782472 11.922332 
15.352385 7.062208 12.033310 
-17.213940 10.419393 8.233081 
24.949682 9.513654 14.598310 
-1.548504 25.400105 11.886892 
-8.044072 27.669443 7.507129 
4.508791 21.207363 4.758931 
-22.644810 -6.424306 9.462757 
3.207475 30.347383 7.787051 
24.039761 -8.542579 9.619722 
-26.598766 5.560064 12.362547 
1.187491 18.087969 2.341942 
-1.968099 31.028910 5.896404 
17.955015 -4.038144 17.419401 
27.340448 -7.982348 10.697434 
25.399183 -7.784582 3.031892 
-9.205523 25.676729 9.792778 
-12.734197 22.631311 3.514582 
20.566013 13.365975 14.515100 
28.520105 -4.137826 16.116545 
-16.022282 23.346777 9.141926 
3.369548 29.710924 -5.082842 
-13.650859 15.375746 2.033158 
-21.617294 14.404343 7.188783 
-1.234384 25.084465 7.238974 
-9.533680 31.627867 7.366024 
-20.849524 -5.922766 15.356934 
14.527361 6.565411 14.247153 
-11.491044 23.824081 9.648068 
2.869329 24.695007 11.839460 
-16.260588 16.381222 4.026587 
-21.516123 7.832464 14.560157 
17.921881 9.064688 5.617458 
-16.853823 7.288624 13.151448 
23.726324 2.387742 0.616792 
29.050270 -3.967748 10.375315 
27.167469 -5.160558 16.482216 
-16.225735 15.500048 9.975609 
19.084131 10.868784 7.668837 
25.528477 -0.579094 11.867074 
27.258469 -5.868579 9.335985 
23.735973 -1.631721 9.101810 
8.216372 28.319448 15.138402 
11.707034 24.164454 15.228914 
-0.966514 21.404093 18.520136 
23.034679 12.930291 10.948773 
23.682764 5.905080 6.618190 
-6.067385 12.580660 -2.501358 
22.409897 -10.132940 9.317841 
-3.656975 26.694973 10.069015 
-17.374413 8.922200 10.424061 
-20.605330 13.558139 14.901971 
-4.525799 27.183212 10.737722 
-19.574068 -8.632704 6.110439 
21.354662 -9.355838 9.339360 
2.560497 30.571890 8.306289 
26.397417 -3.128774 15.805299 
-17.333857 8.483672 7.892793 
-19.971148 -2.199536 10.289894 
-18.150148 5.292086 7.011880 
-24.223120 -0.810300 7.479598 
23.115448 2.805912 0.297079 
-0.811655 28.099613 8.445153 
14.292739 23.248449 4.578146 
-23.412670 -3.771956 15.976591 
-5.037226 20.984636 11.684821 
-25.873066 2.301347 2.234091 
-21.678610 -7.041532 8.082397 
-21.334606 13.473039 -1.565349 
2.834693 26.692768 14.474684 
-6.013895 32.812321 6.739494 
-10.401420 30.585941 10.023613 
-17.221401 22.433563 -3.074918 
-6.826145 24.476833 9.828057 
-2.414177 29.454130 -0.413597 
-20.618500 1.710379 8.974822 
-17.143799 -0.990318 10.775229 
23.431114 -8.700112 2.846486 
4.437901 26.455469 5.265023 
-19.732212 17.490173 1.980474 
-19.288534 -10.142432 2.993163 
-5.150265 29.061880 9.127595 
14.972385 23.495527 15.603543 
14.010077 23.793388 6.024155 
-5.420870 22.002419 2.390252 
-8.073234 30.304699 5.254592 
25.797581 -10.944491 14.280000 
17.452646 5.552896 -0.315443 
-6.819030 30.224363 15.591165 
