-16.226366 -1.682582 14.329794 
16.558680 22.519175 5.349928 
-18.463858 11.854159 -0.701309 
-21.018436 12.702858 13.657506 
20.292439 20.879601 16.084202 
26.579271 -0.410224 9.539712 
-31.040560 -9.371181 5.980697 
-14.998259 14.327395 9.280445 
30.373312 -8.282722 1.748602 
23.061331 16.317619 9.395510 
18.051510 3.665707 14.410220 
12.689526 14.955801 14.554709 
8.615132 24.704029 2.901956 
-18.626959 20.387615 10.899416 
-15.950748 17.595184 15.778053 
3.264658 23.518196 1.343353 
-3.169265 22.242558 13.734390 
-23.796127 -8.267063 -1.165776 
23.903343 1.653378 5.309427 
-7.015792 23.087381 -5.417474 
22.024042 -7.093428 7.724598 
-25.459162 -7.347287 14.014827 
30.130224 -7.721286 14.707875 
24.744188 -10.864263 11.123423 
18.605988 -1.430207 -0.081710 
-30.641027 -8.668952 -6.268674 
-11.757728 16.086758 13.571129 
1.136606 29.221064 11.319459 
15.317438 20.396328 5.437408 
19.801882 8.097366 4.440548 
-11.519733 20.070807 14.786992 
-31.738993 -12.093669 -5.728471 
15.234830 6.842547 -8.933023 
21.981358 10.962096 13.346198 
27.413124 7.333731 11.033725 
16.913212 22.351738 -5.709022 
-13.033751 4.746065 0.423834 
20.579012 17.975716 -4.724492 
-26.730253 0.249633 14.237480 
19.180021 23.183146 8.580338 
16.860249 23.052027 3.275427 
-18.280033 -3.392592 5.621641 
-2.342605 23.372473 1.007850 
-26.607399 -0.888247 5.667877 
4.540233 28.968037 1.076055 
5.392405 32.260391 8.742256 
-20.630917 -4.342583 14.995878 
12.713446 28.195824 6.495878 
-18.259687 21.504597 10.754303 
26.837517 5.101454 15.307446 
-8.709336 24.561476 2.535677 
25.470751 -4.408227 8.536220 
27.942606 -0.640173 1.786247 
30.521994 -8.608931 9.555502 
13.101060 16.447660 -1.599721 
6.924325 19.954035 18.103624 
-11.384784 24.724449 1.853445 
16.271936 17.203999 0.900540 
-13.431177 21.283201 6.352431 
-1.550155 21.712242 15.223054 
-17.868336 8.834228 -3.564691 
1.237262 30.999573 14.045085 
13.238469 15.200319 12.999991 
21.173378 17.988602 1.994549 
2.174351 27.356556 14.434734 
22.300224 -1.756356 5.093831 
-28.894522 -2.889583 16.868225 
-23.075245 8.908264 -2.870550 
24.034967 5.459383 15.542522 
-25.935404 -7.023137 3.371248 
19.172583 -0.893994 3.002234 
24.452148 2.095321 15.436424 
26.298643 -9.157590 15.378997 
17.321346 -0.087003 15.385397 
5.635606 25.026314 15.153124 
-20.888361 -10.762821 14.010582 
31.454441 -3.349688 10.988480 
-15.945539 11.993139 6.419251 
16.089699 20.087906 5.625827 
3.109240 25.745966 -4.851355 
-12.205923 10.357106 16.886328 
29.679405 -9.041295 2.132354 
21.036774 -6.802291 1.096240 
13.272149 13.314807 -1.218602 
30.657206 -1.820645 15.756490 
-12.602614 24.614553 19.929482 
-26.223988 1.811902 14.054969 
10.047466 15.762873 -5.330368 
17.405783 15.074650 7.870398 
27.008669 -1.606289 1.904126 
-20.643351 7.480649 7.545742 
-26.270494 4.577973 16.579901 
23.825449 -2.287365 14.915486 
3.130939 28.744892 12.920693 
-28.851397 -12.357267 5.147434 
1.034877 25.233240 -1.029034 
-16.416912 6.553752 11.122208 
8.375340 25.359053 -2.831109 
-20.195490 9.024648 -4.123081 
22.151005 16.031870 0.262363 
26.463938 -8.992613 -1.024263 
-20.408854 9.382506 5.795769 
2.199629 28.708300 0.888673 
-19.542322 9.607376 -2.899949 
-1.188468 29.249113 16.331947 
-18.674860 16.659163 7.796970 
25.993580 7.871664 7.990334 
21.069126 19.336464 17.787552 
-22.248943 -6.249348 0.058776 
-17.746361 -1.585290 -0.599409 
29.370665 -0.447414 11.411552 
-13.899558 17.014599 2.917362 
-13.674450 7.230848 -8.839800 
-12.470972 21.578613 12.924517 
1.039376 20.500618 -3.774251 
22.772787 -9.625934 10.063355 
-20.844416 15.743770 10.542384 
23.136818 -2.278821 10.224732 
-28.731302 -6.811372 3.586231 
-13.392566 12.538513 8.097557 
1.388733 30.945690 7.309129 
-15.978806 2.342798 -4.393685 
-6.040003 23.437355 -5.197362 
15.626053 21.961651 15.804787 
17.105257 18.997963 -1.935313 
17.115839 1.569923 13.005895 
20.054220 22.327530 9.105577 
15.622858 26.587133 7.747818 
-16.204699 15.826982 12.328321 
-4.465038 25.663010 15.253520 
-24.046392 7.025389 13.946672 
24.789104 10.169653 -5.859542 
-14.992655 23.487947 -1.690203 
-28.051985 -0.413659 12.318478 
16.941126 3.443346 8.479246 
-11.411805 23.378075 8.397683 
-15.129471 8.936239 13.692502 
-18.179615 18.236694 -1.805688 
19.067289 19.491821 6.129661 
31.801306 -4.586448 -3.072352 
12.474993 21.605042 -3.168051 
16.887125 12.391324 -3.674756 
-22.408787 13.018700 -6.357136 
22.243000 -0.305827 4.483775 
28.827776 0.554093 -0.289871 
-18.548958 7.030077 -5.975189 
31.474051 -5.658549 12.661201 
21.086596 2.654007 7.124692 
-21.224768 -7.467385 15.213927 
20.138680 18.198429 -7.253913 
-21.339277 -14.883342 -0.031804 
23.564167 0.580343 4.013530 
13.442947 14.307614 -0.212964 
-14.399147 4.017619 9.266714 
-24.558823 -7.123187 8.289474 
-19.601109 16.552521 -0.431419 
-16.771286 15.785499 -0.844357 
-20.495787 -11.868296 -0.450738 
5.258351 25.000942 -4.247876 
-29.079809 -3.807446 -7.035524 
-21.670094 13.121212 -9.716337 
-27.770254 -11.399440 9.300992 
10.680490 14.655795 -6.647274 
-3.086438 27.086760 -4.750119 
-15.985895 14.421483 7.791327 
-17.828156 2.296643 4.558355 
-25.220140 6.349800 12.338790 
-15.156413 18.604555 -3.615087 
-13.789120 7.284673 -0.880242 
-6.505412 23.641975 13.251722 
-17.995634 -1.299257 0.828846 
7.505802 31.642199 10.320932 
-32.602623 -10.668374 1.452831 
-0.822700 25.746384 -3.976471 
31.155396 -3.176357 16.218138 
25.679338 -0.152343 12.149941 
-27.240696 -12.273441 2.435425 
-17.076250 -0.485751 7.287606 
10.825312 16.218946 19.611586 
-8.613872 28.480110 9.232824 
11.047015 23.161015 1.695404 
-13.662077 18.741499 -4.747443 
2.051147 28.733057 18.909658 
26.717623 6.677528 8.251301 
2.951586 23.725229 -4.134608 
15.324643 25.849806 11.592614 
-15.147619 4.069211 -7.359242 
18.446733 18.840624 7.263998 
-13.517010 17.389767 -2.395564 
24.729340 -12.242353 12.159678 
-23.184353 -10.364232 10.377769 
2.049169 29.070021 7.157451 
2.909389 29.733915 17.154387 
-14.136538 17.788839 -1.839820 
-3.662080 28.948879 2.535218 
19.768942 23.036278 10.215358 
5.577231 25.119741 -2.296834 
6.173487 28.683207 9.217091 
-13.753553 22.775324 12.587569 
-15.092428 7.564360 2.346993 
23.268393 1.399653 15.315158 
-21.119671 -6.062203 11.461060 
-22.089460 -5.739049 15.976239 
-18.093805 16.259331 10.322614 
-31.245373 -7.671745 0.140916 
-17.153311 -0.111809 3.831573 
2.317220 24.218571 12.332217 
-15.999075 12.016391 4.600512 
-17.563957 18.887901 -8.917278 
20.438513 17.922943 11.312737 
22.994148 -8.704212 8.608498 
20.137930 -1.682362 3.982996 
10.740156 24.090837 2.324225 
11.035895 17.382633 15.317578 
17.332552 23.796576 12.296802 
23.135696 15.681220 16.902466 
7.076197 22.171022 -2.951976 
-22.825521 11.618167 19.539019 
2.006803 27.156456 12.658379 
-16.460005 11.567689 12.497050 
7.724184 25.056919 13.026612 
10.361537 27.903049 10.896978 
15.574183 14.885182 -1.151012 
6.564995 22.510036 0.609471 
11.090975 28.208176 11.170090 
11.663995 12.973513 -9.870644 
31.425827 -7.250766 11.718210 
-20.678638 10.670497 11.848983 
-15.945062 16.031157 13.565031 
-31.981754 -9.308715 4.787446 
-26.918213 -2.731495 7.502768 
25.468990 6.336157 4.706784 
-15.580555 19.402088 -4.362576 
5.894787 24.400116 -11.622852 
-0.893950 31.578466 9.525625 
-3.188154 25.229105 10.624109 
-3.571665 31.329124 9.839514 
-21.091608 -12.954062 -5.650871 
-21.971590 8.812253 -4.179170 
16.909298 14.420523 12.236780 
26.347107 -0.349798 11.257565 
20.303408 -5.401692 13.228580 
-15.079577 10.712933 0.303369 
2.290559 24.720909 -11.653727 
23.180319 0.389557 -0.521288 
29.704916 -8.151154 9.549757 
16.141476 24.001352 -0.042222 
18.230112 6.104055 -3.831579 
23.638683 9.885120 10.468295 
-16.349503 17.313841 8.237611 
-26.525072 3.317387 15.650972 
17.612335 18.884972 13.608186 
-14.802110 8.704372 9.937679 
23.528913 2.669152 6.321814 
-18.436815 8.987082 10.275086 
-13.475768 11.344822 10.913147 
0.646903 28.540594 14.077311 
-25.264578 5.691875 -0.023653 
27.959307 -8.099240 8.882905 
23.954809 -11.640376 15.608955 
-20.188824 15.233135 6.837550 
-30.705191 -10.189148 8.334284 
-31.474903 -11.180024 8.241344 
15.979914 12.721290 13.873871 
-17.491112 11.784571 -3.799419 
24.966539 5.593021 13.954811 
-20.306475 13.051147 -1.324821 
11.207517 25.502148 3.443254 
10.891654 27.538813 13.392836 
-8.124603 27.967436 4.298938 
11.441745 28.634096 9.229553 
15.177524 12.560525 8.958986 
16.910704 13.825520 6.604852 
17.459629 5.036480 3.915420 
-15.881518 -0.426737 9.664804 
19.193598 19.214479 -3.330990 
-30.633881 -11.559596 7.079578 
19.954102 4.450870 -5.071860 
-19.509840 17.404577 3.381697 
-6.226691 21.856426 -4.558860 
20.661633 17.780527 -5.976446 
-0.103970 25.308275 11.667548 
-17.578163 -2.415751 11.167672 
27.080601 -0.190624 5.686641 
24.027624 8.126514 15.086008 
-21.486584 5.709147 15.260266 
-19.313280 -3.232838 9.752424 
12.257088 21.856943 10.416185 
6.044131 24.465530 2.032779 
-8.706966 25.078093 16.270847 
-22.686703 5.512175 15.325363 
-19.831188 10.209694 -1.381693 
25.207935 -0.278639 1.875870 
-25.641912 -7.022893 16.980320 
-16.693264 -1.738950 10.973636 
-25.917137 -2.015065 14.263906 
13.155400 16.915451 -3.220504 
19.341545 22.201796 6.238420 
19.030727 9.145123 11.124701 
19.085299 7.647470 11.119989 
9.164758 20.985609 0.438226 
-14.943755 18.562260 0.361639 
14.884851 4.700668 0.686643 
-13.431713 24.363768 15.887067 
25.645414 -3.012833 7.276786 
-27.426256 -0.832741 14.241924 
12.540524 24.511696 -5.441123 
-21.506260 1.521471 1.037253 
-23.084078 8.383553 12.458108 
17.186155 15.065008 -0.055596 
29.479189 1.033013 16.236340 
21.715345 3.638157 7.870106 
-20.532965 2.313559 5.878753 
-13.733422 15.204864 12.915589 
9.041206 20.291693 -1.271741 
-27.803558 -12.824675 4.129182 
26.928102 0.549478 1.881699 
-21.218964 14.455561 15.733926 
11.624208 26.627565 4.687253 
20.175194 19.193180 6.104263 
25.437981 -10.092163 7.645831 
-23.378016 8.106676 -3.354648 
-28.639538 -11.413216 3.007774 
-22.159996 -2.519323 0.551482 
-24.728760 7.225070 0.202598 
15.567209 24.044436 4.068016 
8.252375 22.021690 -3.981109 
-23.109411 3.138715 15.390389 
-27.114382 0.518473 0.192009 
-5.308813 26.817011 8.469343 
-15.435502 0.666992 11.253801 
16.751707 23.327084 6.127602 
-18.950972 -1.932653 13.626195 
-14.425915 3.592414 15.463312 
-15.471134 15.444189 12.186270 
-18.111149 21.362949 8.195371 
1.968084 25.171930 0.107234 
21.593420 8.056003 6.060864 
5.592190 25.841242 15.772030 
-17.760187 5.824900 -5.881993 
22.371527 -9.205620 1.143358 
-21.595686 10.839123 8.564181 
-7.922621 20.999062 14.099161 
-13.751880 24.467819 1.710817 
-27.887194 -3.851916 10.163195 
25.668821 -2.231839 7.506681 
11.596075 26.098228 4.062814 
-7.760766 25.654806 3.592349 
22.189676 14.056775 2.899983 
17.954901 13.371646 0.029554 
-14.693917 20.403429 7.066271 
-23.225534 -16.773327 -2.871551 
-4.566317 18.683807 -6.197432 
25.521408 0.388035 5.393874 
12.475114 23.004923 -0.050592 
-28.627571 -0.866248 -2.868699 
21.330269 -9.292497 -5.178357 
-14.301535 7.334123 2.225906 
-11.084258 12.812963 -5.014060 
20.607458 0.059237 14.633771 
-23.543064 9.046715 9.181355 
23.028162 14.739008 14.387964 
20.562710 -4.671438 1.272431 
-0.328541 21.423155 17.164063 
-16.434574 1.077376 -4.325470 
10.830941 22.313566 -1.709156 
20.139654 8.264510 -3.685216 
12.799155 25.377893 19.898191 
-29.226028 -2.671172 14.080176 
-0.503481 27.945820 20.008842 
24.282290 -2.884552 8.224730 
25.887936 -1.823878 15.458983 
-17.333797 15.954913 10.326681 
-20.216480 13.177902 -3.049893 
-18.366838 -3.796060 -1.784021 
22.791422 -1.009439 5.356404 
-31.183464 -9.961425 7.667508 
-14.869479 2.367257 12.301465 
22.866623 1.979241 8.045939 
-27.428232 -10.532060 16.256618 
21.709133 14.766773 5.442885 
19.707176 2.237662 6.569995 
-21.001617 3.858794 6.441279 
-13.296893 18.733234 3.411895 
-28.726959 -8.805006 15.592315 
-21.276505 10.683564 9.607779 
10.635013 16.782024 17.983112 
-21.185381 6.545391 -5.054186 
-12.059380 21.571236 10.326154 
-25.016186 4.598399 -1.887531 
-19.881510 -3.687725 11.866690 
-20.026506 16.014704 10.499739 
0.018266 26.406487 -0.340455 
16.060255 5.590757 -1.594974 
16.205410 22.488260 15.001657 
-5.227378 30.365250 12.539168 
-15.615126 13.887508 13.316875 
-20.376482 -4.416975 9.181466 
20.091248 -7.273909 15.123024 
9.928273 29.357159 8.294961 
-10.815676 20.872377 -1.638669 
-12.927808 24.837374 6.275964 
-26.799213 1.253861 -0.347015 
25.582312 2.419528 3.721714 
22.081367 15.431722 -6.658133 
-13.773765 17.795057 1.111699 
-23.150396 10.632122 -9.320086 
-14.217144 7.940056 -1.280179 
17.334929 0.660216 -4.495454 
-22.339830 13.230113 -5.003979 
14.729012 9.598566 14.883012 
-8.726226 25.388277 -7.141478 
14.783587 15.888279 12.257637 
26.131166 5.076870 -2.094302 
25.020641 -1.965171 15.262050 
27.464912 -4.577159 8.798547 
15.543197 22.258181 -4.777188 
-16.901022 6.437913 13.654082 
5.194202 25.899490 2.786542 
-18.835051 -5.278243 -2.843500 
-3.377460 25.187334 -4.376742 
21.849846 16.904312 8.130639 
-5.374025 18.674822 19.725010 
17.513721 17.382797 15.576579 
-13.479916 20.456274 5.554718 
2.045412 28.423342 13.639718 
-21.538904 0.962576 -3.202200 
20.749403 -8.217619 11.267543 
10.946074 27.608812 12.525541 
-11.956203 16.859272 -3.579203 
-2.844463 24.845343 12.335509 
-4.350836 23.490973 12.029229 
-7.376129 21.519140 -1.762041 
20.544094 2.038387 6.773678 
-29.457426 -7.496705 13.248749 
-13.150066 20.424463 -3.193978 
-32.373146 -13.247084 -0.635091 
-19.485481 -7.105157 -5.471740 
-19.032799 -1.932891 1.185194 
-1.044427 27.642820 -2.031127 
16.404818 12.598953 -2.408569 
-27.922440 -0.782654 -7.513642 
-22.637867 8.186921 4.979028 
19.692356 -6.676829 -2.948369 
-11.391373 17.289248 0.479937 
-17.430910 -3.571235 13.236129 
-9.461349 21.514215 0.961283 
-12.912395 16.730230 1.186483 
-19.343639 -6.589379 -2.926254 
14.662836 12.719135 2.258009 
-19.358034 12.570600 13.784455 
-10.058349 22.597328 15.719088 
20.847757 8.273993 13.541190 
-19.688728 12.741438 0.423949 
-7.865546 20.783823 -1.049312 
-3.025807 27.400450 4.794688 
13.683487 19.542387 -1.416125 
-2.177629 29.876749 16.565285 
-26.382381 4.855741 -3.989700 
6.480006 28.411926 2.863838 
22.763960 11.687651 13.068419 
-20.790358 3.008413 6.263330 
31.130863 -8.156487 11.288561 
-19.979326 9.612687 8.477293 
1.312349 30.695313 9.537477 
-20.486238 -1.765513 4.877895 
-19.026407 9.886476 11.165094 
3.547041 29.193359 1.706865 
3.949008 31.898815 10.663697 
-19.390108 -0.514412 6.786737 
-10.213059 25.325640 0.483296 
-20.184475 16.286497 9.330152 
-23.202003 1.135325 4.054921 
7.571901 25.542278 11.863158 
-26.075579 -1.794549 6.790171 
23.581278 15.103515 6.882957 
22.752363 6.635735 6.030549 
-16.475662 10.304987 6.664603 
20.156725 7.027946 11.643331 
-16.070070 11.008541 6.520508 
-21.646923 4.350514 -0.815936 
-8.865911 22.100138 -3.185260 
-17.972069 8.216783 10.021546 
-14.834456 3.464434 7.398143 
19.820135 1.305157 7.383922 
8.573549 21.107201 -3.271465 
-21.496897 -9.224104 14.739713 
14.958397 27.047684 7.394539 
-16.173712 -0.988226 9.013621 
29.698999 -10.150701 14.154619 
-30.415474 -7.840659 -6.399114 
-25.066734 -6.607221 -1.279034 
24.253002 -10.576674 12.141224 
-16.424849 13.755151 -0.938419 
-18.972010 11.982265 -2.161989 
12.734038 13.470110 19.520098 
-20.262970 4.126153 -5.342642 
-5.749597 24.858019 10.859938 
3.007387 25.938375 15.189894 
-6.335159 24.906858 2.825022 
22.331554 17.156532 17.457664 
-11.161636 21.770750 9.591399 
15.542667 23.868551 19.844252 
-18.625370 1.990438 -4.440734 
-16.725803 1.045113 -2.672095 
28.299501 -10.053785 1.742511 
-8.255101 19.847696 -1.062877 
-19.601664 -3.601400 5.796095 
-13.986393 7.011851 -5.854928 
18.912418 17.936636 -0.106007 
-3.242977 24.941172 -0.538999 
-15.577590 6.177410 2.861006 
-21.336565 -2.317829 5.680670 
-24.155558 -11.446805 3.430359 
18.638729 -1.948091 -7.579523 
-25.315428 -2.586898 16.748182 
-25.256399 -0.614085 14.484349 
-10.436038 17.174810 -0.807585 
-22.491858 -4.429805 6.049191 
27.154757 -9.966025 14.251908 
-7.866183 27.714529 16.853651 
18.595921 8.740725 -1.947793 
27.312639 -1.244765 15.512252 
16.223934 5.231353 14.191493 
-24.594973 8.386330 -7.306860 
-23.777374 -10.760942 11.270949 
7.322374 24.564989 -3.417880 
21.589367 16.885979 9.696651 
-13.982767 13.013439 10.147078 
23.858126 -7.417578 6.946074 
17.383478 16.877907 -1.452296 
-6.369000 27.886021 1.553374 
-14.392311 6.627157 -2.946948 
29.848274 -0.304003 -5.862673 
-14.176136 9.158978 9.548976 
1.093204 30.919991 10.337292 
-9.762448 23.730051 3.113239 
-25.527254 5.678597 11.975287 
13.452126 17.479942 -3.736724 
-18.917366 1.566253 -1.444486 
18.241505 9.911128 11.092524 
4.082512 27.628874 16.397633 
-16.453625 21.150696 5.389429 
20.106342 -1.943025 13.099031 
18.790342 12.670490 5.329042 
-23.511923 0.376340 13.489276 
29.324324 2.167516 17.133066 
-24.201151 -4.790497 -1.945500 
-11.743987 23.087307 13.786777 
20.698481 2.180758 -4.438162 
17.848949 21.142431 1.181029 
30.826681 -4.025024 3.880257 
20.887564 -6.329276 5.524995 
-12.759950 8.965910 16.868742 
11.303337 28.494505 10.324072 
5.901106 20.115026 19.746105 
7.198353 28.298166 5.245709 
7.310066 26.891020 -0.463831 
5.940756 25.731663 0.527610 
28.307589 -7.252262 8.538777 
-16.344357 15.103477 8.295386 
26.632254 -8.454601 15.694227 
18.196009 -0.705885 -7.770989 
26.298492 -0.028134 6.295330 
13.199247 26.592915 3.262457 
2.831427 31.278868 12.191441 
12.495499 21.262890 12.261549 
-20.158836 -10.480336 -2.844181 
-10.761118 22.996838 8.952730 
-21.034855 14.403592 14.767894 
-3.163161 27.732819 9.344433 
30.905987 -10.161520 0.461661 
21.965294 -6.286685 -0.689596 
17.003809 1.694428 11.584294 
30.805727 -2.148421 17.515038 
9.939716 22.169044 1.488046 
-2.030147 28.939287 16.485868 
8.977536 31.821278 7.615946 
-14.868927 16.877932 3.160334 
-18.112200 -1.357862 3.731816 
-3.752250 27.146307 13.751213 
-16.681839 17.273769 14.964170 
-24.665062 7.941251 -1.395057 
23.895491 0.387613 4.811748 
17.951250 -0.381424 3.023232 
-15.508650 0.286028 1.341026 
19.675343 -3.361253 11.838203 
-12.979889 23.039038 9.067688 
2.904930 24.500404 1.806144 
-18.362949 -6.272190 12.088729 
-1.338050 27.798191 9.093240 
-0.248902 27.688015 12.097098 
-23.272785 11.409620 -5.819375 
-29.071121 -4.223635 15.867004 
-19.373461 9.137113 -0.419768 
-16.427578 1.822914 14.133623 
-15.919624 9.635808 2.586896 
31.672337 -4.814130 -4.292413 
-23.952942 3.231566 7.173171 
-10.288271 21.958721 -0.752629 
-9.829827 19.959087 -2.915761 
2.561495 27.285965 -2.167876 
16.925817 15.776896 12.049376 
-15.839003 8.567491 8.597505 
18.549681 4.076321 6.126163 
20.461132 21.998508 10.972480 
-1.658633 27.047550 -5.492552 
14.255420 11.255634 14.086553 
16.982168 11.471296 0.888294 
-13.112766 8.168707 15.528303 
-22.608208 -3.715790 16.091537 
-20.916149 14.582086 0.704850 
24.207027 3.564442 6.217592 
23.188892 9.404393 8.495057 
-18.433973 9.220037 11.444523 
-16.826859 14.454683 7.866397 
19.990707 22.240866 8.222297 
13.488746 26.617512 5.472426 
-13.939419 18.813698 3.933497 
18.881433 4.342838 -5.234591 
-22.908432 -10.971981 18.821653 
26.432968 -11.015317 10.653955 
26.639189 0.135725 4.913451 
-18.677948 17.724174 -8.672932 
25.265970 9.871461 9.915544 
6.040290 26.459412 -7.097850 
-11.962671 10.807059 18.010517 
22.416374 13.966811 -1.133936 
-26.937769 -10.958502 14.404850 
14.790984 27.141308 8.662540 
-22.395819 2.361756 -3.679158 
3.724822 29.443010 5.747647 
26.015799 -12.989096 -1.368814 
-14.915186 1.159658 -0.066082 
25.545351 3.203833 -2.253461 
-10.760732 27.915358 9.855394 
15.519943 24.325785 -0.462176 
-28.043365 -9.179699 11.275340 
-27.010424 2.371477 19.254461 
17.018194 17.235609 12.065886 
-4.202089 28.291090 14.399730 
-11.707198 25.015224 2.631054 
-15.519799 7.249549 -2.890057 
16.334784 13.746039 0.324293 
-8.239147 21.332651 -0.139605 
14.488609 18.182632 11.999527 
20.451115 -1.692573 13.972499 
-22.672434 -9.867423 15.058150 
2.991681 27.317568 4.137552 
28.588526 -0.435089 9.392467 
0.070751 24.442120 11.806375 
15.648265 8.370667 -0.705119 
1.794140 26.924969 -5.804584 
15.996804 4.274920 -5.197893 
-23.532053 10.259202 18.197662 
19.214861 7.407740 4.240950 
-16.321779 -0.340476 8.321343 
9.676992 25.373203 -7.326700 
-24.219170 -14.351211 6.281100 
-17.498730 13.637015 5.424160 
17.908901 20.746321 0.422773 
20.245584 -7.194042 16.219978 
23.074230 8.359649 8.509418 
-17.487612 14.682302 5.011997 
-13.631801 25.885830 7.716915 
-15.319503 20.811876 4.767177 
27.369431 -9.392704 15.444981 
-6.150590 18.387836 -4.250179 
14.786633 22.140808 12.064168 
25.628244 -9.315835 -1.151459 
1.947178 29.526272 5.375231 
28.607677 1.444955 -8.161983 
24.469971 9.894417 10.376825 
-29.947519 -6.996671 12.792173 
17.003763 17.180870 4.294014 
25.921120 8.065597 -0.882127 
18.110315 8.012736 11.410034 
-28.246244 -7.104868 5.178082 
18.160116 -0.824066 17.525297 
-11.011660 13.094705 16.411961 
22.436007 -4.096242 6.362306 
-7.755593 27.252781 -1.351260 
21.000561 12.463211 2.548990 
-18.796171 13.660460 -4.083182 
2.567793 31.012032 5.374113 
-18.471458 3.236612 4.783334 
-19.256941 -3.809190 13.713013 
-25.183226 -2.905313 9.432029 
-15.891129 20.959816 16.421106 
0.116620 29.446810 3.020223 
30.478485 -1.070948 18.150623 
31.423300 -3.121879 11.871293 
-8.813450 18.806190 -1.379470 
30.080992 -1.991592 3.640600 
16.894979 22.474796 -4.681302 
-27.829998 -4.886591 10.294769 
-18.984852 12.682089 4.758120 
-13.637738 23.585871 14.035837 
-13.355604 17.420933 -0.862244 
8.801229 24.168894 -2.547111 
22.453768 -9.186585 13.906315 
30.697897 -3.820107 0.622231 
-16.336407 23.381107 9.858935 
-22.423765 -2.176341 6.273678 
21.472672 14.677002 -10.188627 
-21.962439 -2.909418 6.052656 
30.163216 0.047913 18.083780 
-17.420349 7.771038 8.120447 
-28.322336 -18.091125 -4.810862 
7.845055 23.197451 1.761081 
27.698788 -2.862821 -1.142426 
13.954032 17.455761 0.032358 
-15.365792 2.969244 6.770129 
-17.152096 20.277803 16.032028 
25.492126 8.596998 7.695707 
-17.544872 8.148549 -4.136998 
-26.308249 -11.292483 15.967838 
12.650322 27.460613 13.099854 
-28.384785 -2.090665 1.500415 
-23.624121 4.389804 4.474581 
-23.621189 8.032689 7.390549 
-21.871691 -7.116008 -2.029573 
11.397655 19.897949 -0.661633 
9.552110 22.547579 11.022742 
22.354136 13.151625 -0.959465 
13.578631 26.383059 14.599489 
-19.948227 5.336930 7.850278 
-16.452526 18.511772 -0.323351 
18.725529 -3.307653 13.712551 
-25.659397 -9.580645 4.066438 
19.978500 9.789926 13.388119 
-14.728362 2.244152 11.305754 
22.404966 -6.971651 -1.181288 
15.208228 23.973879 -3.816460 
11.595713 16.630508 14.823348 
-13.648629 7.414196 19.385422 
-17.266647 -1.181866 -4.966641 
11.120174 28.807842 8.088128 
-1.955156 18.097080 -10.597617 
-11.052752 19.323318 13.585812 
-19.252169 11.596336 2.791104 
23.011944 0.218428 0.367369 
-32.600494 -10.429221 2.802835 
31.313389 -3.618116 10.139422 
-5.769465 27.028719 13.449536 
27.540108 3.008249 13.277488 
-10.504214 19.542973 11.409541 
-24.903959 -10.118076 15.351628 
12.616472 26.686644 4.659302 
31.625677 -8.883554 -2.175510 
21.621531 8.987135 -3.118728 
-16.631882 17.423878 -0.389273 
-20.459959 -5.740413 -1.087759 
-14.428461 4.348365 16.389807 
-22.197588 -0.144745 14.650167 
-22.266615 3.327244 5.520828 
24.505384 -12.610450 -0.478246 
17.206848 9.756793 8.545686 
-17.249619 -1.955663 11.839067 
-8.681195 27.513525 0.735305 
-30.130932 -10.900438 9.281662 
18.535177 19.961687 -7.845202 
15.009346 14.098521 0.062364 
10.883403 24.066643 -2.835655 
-15.917348 3.348261 13.983563 
-12.969807 10.211390 12.508554 
-24.443466 3.487998 1.488603 
-6.248567 28.095371 4.195253 
-7.883191 26.065172 -4.764559 
14.357510 22.642151 -4.008299 
8.670664 22.171442 1.466578 
-15.707317 6.450020 -3.302352 
9.737842 26.700853 11.960084 
21.723700 -8.918652 7.149666 
-12.670576 18.010752 1.944703 
-14.982681 3.080274 13.506820 
30.019682 -8.481570 4.500122 
28.460207 -2.435220 15.995996 
2.429780 29.314381 11.872547 
-17.473595 0.329062 14.254651 
10.557638 26.310295 14.443317 
14.068490 13.884576 2.410880 
-10.928774 13.736824 15.468128 
23.776888 -10.037639 0.782975 
19.531067 -6.301705 13.167639 
18.026537 0.143860 0.748751 
25.952255 3.883395 7.725820 
0.296696 28.208076 5.398724 
26.309137 -7.545567 8.578861 
22.854174 -8.136056 6.985569 
11.059400 25.254293 -1.980133 
27.935402 5.384748 12.099579 
-17.238764 22.240082 13.485061 
15.454808 9.632506 2.254143 
-22.514513 -15.031830 5.783304 
8.922540 19.173758 15.981735 
-25.113100 6.660103 19.386534 
26.859568 -9.268870 8.131166 
16.072157 10.016632 1.645432 
16.839945 14.593867 7.381603 
16.707878 5.253071 9.357614 
18.168028 14.172866 11.833636 
-16.580999 14.187420 14.046735 
-10.413838 24.642502 1.298588 
15.466454 23.708157 9.790609 
12.868336 14.935057 -0.632106 
-11.254275 24.414047 8.025193 
10.554312 17.467106 16.376219 
-10.553302 25.789431 1.300638 
-16.647367 8.867642 -2.759071 
-18.515200 8.570159 -4.282224 
-28.025719 -9.409765 13.980452 
-16.106194 18.754505 16.187912 
19.185658 17.868246 14.470284 
-13.415173 23.485098 8.444362 
0.867784 28.936695 5.527049 
-6.564910 30.316786 5.968823 
-20.023645 -1.526445 6.905910 
-29.389532 -4.631840 -6.905247 
16.261242 21.409649 -4.737318 
18.372028 -2.392099 13.778261 
-17.483345 18.098722 -0.605187 
-15.080224 13.756008 -3.295449 
7.080946 24.140875 -2.211775 
-21.049202 -7.187913 6.990677 
-6.491943 30.677950 9.144642 
24.747667 -1.464892 -0.194916 
4.097197 25.993258 10.456273 
9.169208 24.824766 -3.364783 
18.148708 7.120310 9.085943 
23.225622 0.204546 1.345538 
0.018793 24.714424 -1.778437 
-20.515772 1.280967 -4.303151 
5.051652 20.835791 18.118023 
15.321233 19.474442 4.231393 
24.250555 1.573474 1.785644 
-24.235922 -11.872504 12.080961 
-13.839843 23.770691 14.891209 
14.507318 14.714137 5.121129 
-13.651133 11.660354 3.413839 
-16.253038 21.032940 -0.675741 
-22.609356 9.166715 4.441612 
24.884283 7.422963 15.229185 
16.588234 23.532839 11.819614 
-2.115268 23.231691 12.861688 
21.669796 16.292366 -6.460553 
-29.442856 -5.196816 10.716981 
14.909101 12.952689 1.215297 
-19.393080 -6.256134 -1.752206 
-14.837634 12.494400 4.304711 
16.357632 14.672569 4.983379 
12.823215 19.364880 13.459600 
20.619257 12.405218 5.199463 
25.870590 -10.450111 0.495868 
26.261866 2.858088 0.191025 
15.295513 8.861478 13.631420 
12.502789 17.846287 1.485642 
-21.200043 12.106920 -0.302546 
-12.364210 22.468140 10.058380 
-5.217880 31.134346 7.344274 
9.969365 15.083236 -8.341535 
23.023333 -11.573448 1.358641 
1.933400 26.098949 0.090094 
-22.081182 13.803224 7.828464 
5.621000 17.556768 -10.553620 
-9.324087 26.068966 7.346354 
-12.817092 9.013542 14.860572 
5.025223 29.849297 15.587242 
26.916338 -3.587165 -1.575634 
-23.760855 9.601793 16.964972 
-18.625872 7.536746 7.347499 
31.479418 -4.656860 16.885992 
-15.009878 20.511528 -3.057323 
15.033839 8.931668 2.599818 
22.061382 16.873240 8.970075 
16.184467 13.650324 12.468729 
-18.702816 16.293684 -2.738122 
-22.286301 13.325723 9.370299 
8.589435 28.327993 2.621698 
-28.668022 -6.498610 4.504807 
19.462742 21.963083 15.200947 
18.084499 14.072968 -4.091720 
-8.153243 20.825583 -2.984375 
-19.016708 18.317617 19.743490 
-3.360039 25.943699 -3.615329 
-27.810671 0.294565 17.364447 
27.412611 5.636443 -1.977991 
-22.467316 -3.479243 6.428576 
-0.080628 31.759289 9.175328 
-26.049509 4.303667 10.745276 
20.568005 -1.454534 4.680850 
-15.248015 9.836444 -0.894733 
25.558153 9.115152 14.781501 
14.407097 23.458996 -2.590980 
4.172789 27.375854 -2.768523 
-4.120552 24.971628 12.052046 
-13.984239 21.548018 7.145057 
17.390007 0.636809 -5.506624 
-18.076872 3.590962 5.970293 
-15.657993 19.328617 0.801108 
-12.189021 24.536913 4.519392 
15.440971 9.627816 -0.620084 
-20.427860 7.270993 5.952234 
19.713705 17.330086 -10.593233 
-22.074276 -6.095952 -2.256596 
-7.649686 23.722572 -11.445071 
15.323305 18.836573 -4.433485 
23.666510 14.464787 12.752124 
27.530212 -5.161034 16.316309 
-2.560864 29.006475 1.391979 
-22.630659 0.488606 2.224775 
4.995060 22.869614 -1.826857 
9.183274 17.859928 19.667297 
-19.944048 14.508506 13.919698 
-19.033997 18.019789 -4.638423 
-18.230482 12.241609 4.844585 
2.484234 30.816290 12.859888 
16.779125 11.769599 -0.313208 
20.971643 -8.940903 3.249492 
7.861012 26.248455 12.202247 
-15.578717 -0.787939 13.906999 
18.284037 9.315907 12.151053 
-28.663277 -3.077920 3.647218 
-20.759953 0.465533 3.622917 
-12.169563 12.690355 -2.724970 
26.103197 -0.283290 10.370764 
11.441564 20.672028 2.596475 
13.003862 11.261616 -7.764044 
-11.367745 26.127893 14.456876 
-21.102406 7.409543 -4.995616 
29.798534 -2.089262 5.092494 
19.952433 -6.957279 -5.342087 
3.936651 26.344769 -4.339762 
-21.568329 3.397354 6.022522 
18.468233 14.735322 5.714466 
-20.939466 15.885981 8.582541 
0.123765 26.989218 9.532827 
20.151497 10.664495 0.835463 
-23.262051 0.833181 7.830688 
2.806599 18.301420 -10.654836 
-12.027420 15.848762 3.136245 
3.038271 26.025076 -8.860248 
13.905025 22.986061 14.466823 
-23.958918 1.849727 -0.241789 
19.128054 9.079522 10.243134 
-8.338815 22.136827 0.610233 
-20.020056 12.878978 -0.362057 
-16.547024 -0.766873 13.187728 
-20.478813 -9.331227 17.504492 
19.034382 -3.213273 -7.384222 
-17.537729 14.701267 7.501039 
20.704763 -0.887523 3.978385 
-30.138792 -5.726050 2.472846 
-5.842626 22.313194 -0.342728 
18.698681 23.811474 8.953485 
18.515526 24.145348 10.811874 
-1.689275 28.180851 16.365671 
28.743069 -1.141164 5.532420 
-23.726383 9.039967 15.132390 
-14.391763 8.796167 -1.064432 
26.198334 -5.297944 -1.887318 
23.243256 -1.735575 8.614937 
-19.442572 -9.009325 6.244134 
25.680342 1.344312 7.843053 
-25.106878 -6.125042 8.115557 
-21.446815 0.615726 3.117658 
22.886406 8.216822 15.018533 
-26.334892 4.868855 -2.906875 
16.004198 19.622011 4.909646 
-27.035347 -18.450142 -4.761692 
8.636772 31.966030 6.382694 
4.405767 19.385302 -5.677318 
-8.975501 21.979673 -1.290680 
9.834653 18.736416 15.405934 
20.277893 -5.948769 18.886789 
-19.074877 9.970154 -2.112587 
-6.154179 22.893040 -1.371475 
25.071291 1.923301 -2.165956 
18.937576 -3.726973 -1.574207 
16.949450 4.094779 19.213085 
-21.227757 -4.332135 -1.739924 
-24.766533 -10.904663 12.911947 
17.524977 5.978556 11.979307 
-1.325246 26.671616 9.717474 
23.400349 3.957829 6.772684 
-19.023016 -5.348246 5.340828 
12.413201 21.769543 3.830854 
28.377520 -10.040620 3.363630 
20.618853 -9.101073 4.949716 
12.203965 21.843964 14.548318 
-24.612810 -2.077338 -1.720699 
23.371317 10.391993 1.847449 
-26.708256 -17.769768 0.571660 
-15.184587 11.703647 -0.586142 
-19.219769 -8.348965 14.472970 
-2.550189 31.341970 10.627031 
-2.332098 20.677969 18.190788 
25.306887 9.258836 -5.968093 
12.151875 14.608199 18.045732 
14.532470 16.753048 -0.437414 
21.933685 5.857087 6.415987 
-15.663249 22.779919 -1.635356 
28.304230 -10.049953 4.665642 
-10.491461 18.199049 11.921896 
5.109257 29.074593 2.014240 
-20.606482 -4.039520 5.713211 
-13.548156 10.388736 10.796659 
-25.949717 -0.123056 5.317571 
21.582693 -2.940908 13.858292 
19.992363 9.388906 11.299338 
-21.636475 13.180334 6.760553 
-15.315984 5.375152 7.747962 
8.940763 28.499033 15.957195 
4.536507 26.544306 16.091740 
13.246991 27.756130 11.680693 
1.296225 28.250376 5.612745 
-26.653507 3.498224 17.314333 
-10.113669 16.752451 13.135916 
27.519344 -12.768004 -1.084497 
-2.353866 26.978155 -4.355175 
2.092135 28.160748 0.121754 
-15.219608 15.988014 9.343079 
-20.982639 15.004071 -1.791341 
15.857231 7.403477 -0.630465 
13.665632 24.575478 0.648849 
-18.973011 -8.541281 4.506516 
-22.770506 3.291057 -3.737724 
19.785069 17.825939 12.993218 
27.602053 6.702759 11.539752 
-18.474777 -6.186004 17.488890 
15.447647 7.242737 3.450858 
-16.534313 6.333498 12.914014 
3.606726 20.457424 -2.747550 
-14.253605 21.178635 6.427423 
-8.794159 25.886841 -4.507957 
-0.201827 19.273167 -6.860749 
13.914658 24.056843 15.567865 
-4.028217 21.712263 14.205215 
29.115341 0.363138 -7.995888 
-3.521749 23.181965 -3.303349 
17.211273 3.032174 -1.693146 
23.236584 10.159138 1.079177 
-24.648153 5.619374 14.609128 
-22.054070 -15.734343 -1.547141 
8.065605 25.809967 13.629980 
20.458521 21.664825 9.354657 
-29.581896 -2.761013 -0.975568 
-13.278779 23.253571 -3.629054 
16.406321 13.231935 -3.828398 
18.706491 10.081758 7.759005 
16.621336 5.777254 12.602612 
10.335133 27.854769 15.916904 
23.421993 12.753227 13.237229 
24.686899 -6.362084 6.533031 
-11.907097 15.869688 11.862755 
-14.472280 2.659191 8.779058 
-13.496954 24.446480 16.841330 
9.692190 25.590483 -6.522914 
-14.757205 23.165880 13.163728 
-32.450153 -12.056030 5.697597 
14.097157 23.469994 8.410275 
-24.340996 8.461244 15.478187 
23.507040 6.007459 8.453565 
7.548160 25.918953 -2.497337 
-14.660192 23.612305 2.661463 
24.059072 -1.329724 13.348145 
30.126583 -4.767724 6.816885 
6.642133 29.274704 17.191669 
-17.277006 8.971482 13.009468 
-1.482831 29.810265 5.577814 
4.072395 22.991453 0.959261 
7.958614 28.462515 3.530162 
24.223091 -9.313272 10.590300 
23.619930 9.841456 0.429153 
-14.866485 19.515886 7.531984 
-12.386454 17.758766 -4.307602 
-7.100550 27.999041 7.780254 
4.644018 29.529783 8.424423 
5.950295 27.882481 -2.071865 
-18.780035 -6.186164 5.414576 
-11.815031 10.728172 -7.850203 
-21.197485 -10.661038 16.091072 
-9.066675 18.705416 13.228212 
-7.421982 28.184692 8.676675 
-24.819721 7.157756 -8.769097 
17.143204 9.883246 14.592690 
5.966324 23.392841 12.158064 
-22.087252 12.920998 16.846535 
-20.013529 -9.561109 -1.287701 
21.692722 -0.326698 1.251900 
-13.575514 4.537841 -0.740408 
19.513119 12.047035 15.811803 
9.952916 23.243130 12.041917 
-26.279118 -9.385224 4.672363 
-0.357942 23.380512 0.792995 
-20.410715 16.461273 2.543177 
20.552530 17.677261 12.591306 
28.322952 2.898407 -6.547949 
-21.851059 12.087679 10.277354 
-14.205985 9.104743 10.483366 
26.179371 7.013104 -7.504591 
-25.355486 0.018988 5.921575 
-23.912298 1.075466 4.509923 
25.044056 9.352547 8.103270 
-12.586840 26.867872 6.536939 
-29.841164 -9.752844 8.656641 
-21.343653 14.468631 18.675142 
16.988560 16.007784 13.275618 
29.824438 -10.097741 18.734131 
-26.571566 -0.142817 4.423373 
-22.278408 12.150636 15.589006 
-10.514676 22.849152 0.084924 
-19.556248 -6.322413 9.948849 
-20.697014 15.045733 -8.672944 
21.710054 15.957436 12.175967 
-17.182915 19.274837 -2.406965 
22.478958 15.107966 13.842819 
23.968922 10.342433 3.017475 
6.522933 25.929110 -8.246568 
23.552696 -1.514349 12.701946 
-17.669415 11.081939 3.821371 
-20.555408 -2.548802 5.545516 
25.241598 8.861117 -7.516160 
-1.137817 30.451515 14.163205 
-18.314301 -0.243949 11.995626 
23.644894 -4.280419 7.305263 
-15.880665 5.903538 7.238272 
-23.813147 -5.932028 7.142573 
-4.646192 25.557468 1.797040 
8.137492 31.836792 5.525857 
-14.657818 13.821210 10.318233 
12.854787 18.776213 14.115900 
-9.933082 25.827091 -0.103675 
8.146856 24.746037 -2.003773 
6.921272 25.115582 1.097222 
-12.928637 26.365582 10.580867 
-7.078148 20.884134 -0.689103 
7.522907 27.201239 13.386441 
11.814762 26.788744 6.328836 
-17.546461 14.851777 13.074543 
17.319244 9.512446 12.149547 
28.516666 -7.217835 16.170795 
23.457808 3.162033 13.031043 
-0.368032 22.886316 13.498951 
22.296492 -9.213895 18.778664 
-24.140543 5.877959 15.202678 
-9.160657 24.115929 16.288162 
-13.754504 6.627331 17.677961 
-20.595877 -9.048813 2.544211 
7.468689 29.612377 15.102229 
25.930658 -9.706435 9.208411 
16.350065 4.830291 17.722725 
-14.691212 10.372578 14.252386 
16.132860 22.730371 -6.788345 
22.320179 15.943309 1.055701 
2.835927 32.138752 9.994559 
-12.863466 11.919922 12.434414 
3.307359 29.578253 15.049830 
-25.002672 -12.903420 2.225060 
7.695861 22.159218 -0.363669 
24.096670 11.819219 9.502049 
-14.016288 22.090025 -5.323097 
-21.840115 1.801227 15.274036 
29.531664 -10.431645 17.125210 
5.928123 26.732622 16.221031 
21.154213 -8.069733 17.531864 
27.719124 -12.448674 -5.989423 
-18.898012 18.358986 10.555758 
31.005220 -2.375857 12.492524 
-23.588333 1.028805 5.385526 
-7.864562 22.397690 -1.931067 
-19.800661 -5.562507 14.405546 
-18.777012 -4.915204 -6.917496 
12.927165 26.990377 2.465000 
5.938101 26.299660 12.964728 
-2.217963 30.339645 14.253838 
18.379271 23.624636 13.138365 
-8.701981 28.006828 11.053213 
25.541265 1.294644 15.225942 
-18.167601 -3.550961 12.270418 
19.414650 -4.485488 -7.187740 
20.625145 12.184902 7.784807 
18.575632 21.225712 16.400051 
-21.516464 -4.789335 -0.195294 
19.650892 -2.598559 3.088868 
20.205072 21.940254 13.051188 
10.609957 25.742289 12.986148 
-32.531895 -10.233392 3.974268 
-22.905216 6.737803 -3.979548 
20.613132 20.051943 18.031693 
21.217476 17.285732 -5.031116 
3.617657 30.878078 5.641535 
0.379569 29.465033 3.824780 
8.797152 18.831816 -2.188213 
-22.188984 -14.995789 -5.326461 
0.539512 26.663689 10.263927 
20.986637 -2.425806 12.164278 
-13.627926 9.771618 1.275052 
15.714847 15.784448 12.609927 
-24.404234 7.286577 13.008126 
-30.046408 -3.776840 -1.219950 
12.955926 17.041634 13.439593 
-14.590005 8.159021 2.696376 
16.026421 11.387506 3.929080 
-6.644779 24.355999 10.140224 
-19.256723 17.487328 -7.194137 
-16.619823 22.093319 17.745079 
16.396128 10.629710 1.049651 
-24.329287 8.103826 2.280855 
-31.578075 -8.436569 0.091509 
-27.019962 1.220508 15.526736 
14.231508 27.457077 6.215811 
13.226688 26.528942 4.094459 
1.379040 21.409515 17.994665 
17.288389 5.988981 3.832190 
-7.748135 26.758312 -2.853187 
14.178842 24.301338 -0.328684 
24.560904 -0.918041 0.759828 
14.035999 24.075476 6.579143 
-21.283819 7.520124 5.707094 
25.034670 -12.227745 14.106699 
20.453287 18.523552 3.880547 
-10.280529 14.843570 15.163894 
-29.798788 -4.411977 13.396326 
-18.545439 8.927785 9.013703 
-14.544819 9.918583 -0.333892 
11.898482 20.097328 -4.197348 
-17.227491 16.898983 13.044352 
22.806513 14.006626 -2.526129 
28.183266 2.968344 8.426928 
-11.145728 27.734024 6.522102 
21.908522 0.737467 12.015593 
6.973820 22.481422 13.424977 
24.962156 -1.626399 7.185250 
-14.023005 6.671281 -7.209785 
-18.305927 7.588851 4.405383 
-24.889286 -10.848125 9.614335 
-20.239639 7.620229 14.327559 
-20.914755 2.571841 15.316672 
21.612476 16.235943 11.360487 
8.315230 27.474281 -0.375549 
29.851818 -2.620245 8.787341 
-9.806011 14.436506 18.282486 
-12.115022 18.713139 2.026899 
24.314730 -9.078553 8.624552 
30.203201 -7.094345 15.250769 
5.615141 27.769011 9.913497 
-14.096164 16.334257 3.325096 
-18.603603 -3.116488 8.425767 
-11.156711 22.333670 -2.564846 
-4.491750 28.704403 4.177107 
-15.540505 16.578585 3.826724 
-3.081186 30.962439 12.393126 
29.013466 -5.403298 14.794327 
-14.667269 20.208359 5.961086 
-10.752812 12.799621 19.550152 
-15.223341 1.576967 12.962492 
27.764975 5.511897 9.240260 
8.465837 20.186708 -1.921823 
9.815350 22.312513 -0.867468 
-10.089263 14.705248 16.071400 
5.439213 28.818012 14.975528 
-25.567270 -9.647305 3.002428 
22.470978 0.778179 -3.212900 
-25.553499 -8.793498 7.414264 
10.960497 27.122276 17.957172 
-14.303876 4.281735 12.161530 
-20.757505 2.450346 -4.682633 
19.171253 8.629019 -2.519459 
23.112801 -2.100348 11.088223 
-18.927303 17.639166 -1.542269 
11.370907 26.012888 19.921482 
-8.066447 23.913176 13.114302 
24.893766 2.937983 0.747064 
28.136612 5.403964 15.622389 
20.833992 9.806133 4.917360 
0.233541 27.615353 8.454554 
4.071487 29.448364 4.705988 
-11.418008 21.444674 -5.100061 
-17.386312 1.475219 4.578195 
21.165188 9.245745 5.669502 
-14.680482 16.204304 3.905867 
-8.799534 27.769358 2.543063 
-26.640850 3.588145 -6.371504 
10.660088 21.701721 -1.065686 
20.021231 3.917967 15.084451 
22.619459 -7.244431 14.632023 
7.036794 25.171352 2.942985 
24.286432 -10.995823 3.176131 
-16.782364 -0.215930 3.100021 
-30.436659 -15.849024 0.637919 
25.903755 6.274342 4.009377 
-15.495689 22.501574 -5.417489 
2.215188 26.886822 11.485289 
30.126944 -5.542771 7.093786 
-29.480913 -17.007521 -1.826182 
10.177108 17.436203 -1.858069 
4.700321 26.771465 3.722660 
-29.195036 -5.563236 3.276592 
-23.905699 2.055994 -2.234354 
2.251550 19.278765 -6.790427 
19.412725 7.940187 8.505606 
-13.756989 6.964623 1.676280 
1.068550 24.391100 -0.771324 
-25.175604 1.462175 7.832469 
19.574411 -5.892916 3.806775 
29.339226 2.218899 19.126415 
24.335796 2.358671 5.529432 
-20.388767 -11.355698 -3.973520 
22.425848 7.600143 8.541449 
2.673261 26.191301 11.296800 
16.265823 10.381707 14.534374 
-5.491178 29.268427 5.962304 
-24.828512 -10.940636 3.245107 
29.867664 0.030635 -4.140663 
-14.931674 22.763309 4.077485 
27.181345 -12.553616 4.410506 
-20.767271 -9.120608 18.875778 
21.389982 13.398623 1.114498 
-10.950324 21.949121 3.523406 
16.826099 10.976306 14.974877 
-23.333668 -1.540156 6.973865 
-22.285465 12.008862 -1.994358 
11.826381 23.478617 4.865283 
-15.018743 4.831634 -2.377263 
21.437086 -8.169833 10.024423 
19.155127 7.405959 7.943127 
29.103580 -9.566216 12.788777 
15.806783 4.919044 -5.934653 
-16.002514 16.492340 4.786856 
-21.822632 14.184153 -3.455867 
21.426477 16.080988 -1.696768 
18.396931 7.326483 9.920238 
-21.424786 11.322078 10.333171 
24.744057 -10.148396 10.305555 
-21.659822 5.882866 7.596267 
15.868217 5.493807 -0.668383 
-26.167299 -2.107763 1.683288 
17.323498 1.353466 9.717398 
14.410677 17.240374 -3.543678 
-20.590979 14.222855 -3.098997 
7.935970 24.042059 -11.577842 
-21.541643 9.284240 -3.191546 
-4.661418 29.777119 5.109038 
17.252756 11.987325 -2.951406 
6.504354 31.891357 10.042630 
4.690542 17.889299 -10.600557 
-16.371393 19.891800 -9.391719 
-2.402509 26.504938 16.004980 
27.643173 5.234072 13.595310 
-13.909284 17.364279 15.390288 
-30.026211 -7.343942 11.984041 
17.374849 11.793015 -1.893321 
20.523849 3.986064 6.868799 
12.871560 19.634001 14.291548 
-0.866840 24.649681 -4.623321 
-18.552912 18.345995 3.059313 
3.119468 26.443687 -3.912086 
15.497544 24.423235 0.424972 
23.793358 1.784576 8.210622 
7.468874 21.220461 14.496171 
-17.672955 12.540482 -4.147420 
26.092823 -10.711025 12.546092 
28.813946 -8.606229 15.358173 
-7.395226 19.620575 -1.560067 
-19.496649 13.339429 4.694613 
9.776281 20.594828 -1.020061 
15.841494 9.030912 0.650485 
-20.146633 -7.356677 -0.806039 
14.269363 24.837893 3.868610 
20.514132 -3.204453 1.500381 
-5.489889 29.797012 13.198531 
23.860981 -10.250648 6.827161 
11.670521 20.991890 -0.972602 
-14.800364 19.410326 14.316689 
-20.398573 -7.334988 14.662873 
-28.538883 -5.967989 0.880842 
-15.070116 15.516106 10.104813 
-2.561040 22.995338 0.083599 
-17.306917 18.766314 -1.546504 
21.046614 5.097638 5.504008 
21.546404 -9.313690 -6.445735 
-9.104555 25.447388 -2.884912 
-14.085351 6.397088 -8.707521 
23.002956 15.723309 15.485195 
14.303452 24.913048 1.052592 
-26.162163 -13.492412 7.565862 
28.770079 -10.787169 18.714537 
8.548830 18.333841 -3.236129 
-12.497308 19.946850 8.032097 
-3.788605 27.607960 20.005293 
-27.270838 -10.973828 6.461298 
-26.992945 -8.945280 2.176356 
-21.912802 -11.446815 12.398769 
-11.008718 27.903776 9.081193 
18.252689 14.255396 15.484515 
15.224732 17.998770 15.338460 
15.062881 23.784536 11.339676 
-21.562056 13.531527 15.943216 
9.910431 21.931767 13.976394 
-0.651189 24.696108 14.514017 
-23.264334 5.870762 -3.744860 
25.027548 -10.976467 2.733254 
9.834310 27.749105 10.113181 
20.072546 6.896724 7.957976 
25.670759 -1.082563 7.535287 
14.222329 21.373230 14.283144 
18.917515 -4.168005 15.827916 
26.112183 -3.066257 12.885774 
-0.057895 31.178225 5.211623 
28.875278 -0.609315 12.330061 
27.361723 4.035807 -0.064486 
-6.556863 25.240181 9.941515 
-14.330201 6.097347 -6.084043 
-17.235796 19.323458 15.770752 
-24.292036 5.394115 3.233676 
18.129759 9.653504 8.186098 
7.644285 27.572948 -3.102375 
30.538403 -1.569738 9.275902 
7.516156 25.729750 10.755881 
-0.538062 24.089388 1.408788 
19.734652 -5.050428 11.891315 
16.683281 5.265277 10.493168 
-18.999311 10.774390 -0.170102 
15.148347 9.744701 12.774755 
-2.770580 22.600803 -3.522851 
19.644941 12.708535 7.735385 
-31.889975 -13.105591 -5.569777 
15.478408 21.341316 7.622497 
16.193924 20.594959 -11.083923 
-10.691946 20.477592 10.953016 
-17.675262 21.376614 14.267854 
-22.856110 5.761624 7.728486 
-12.174665 21.123409 -5.306886 
20.738943 -0.869694 14.360846 
-4.107371 27.788229 16.192986 
-11.026607 17.463905 -3.959482 
-5.567944 30.944754 9.290177 
19.210749 -5.261182 13.819407 
-19.820173 -3.481022 -0.291468 
0.179074 22.730652 -0.842191 
-12.347165 9.914916 -7.656911 
24.708321 9.189569 13.556424 
-2.583939 27.175871 9.707734 
-31.040562 -8.186954 -3.771019 
-20.302395 9.430882 -3.268404 
-20.649303 -10.168447 1.451797 
20.773294 16.807697 10.126249 
-18.643351 19.064428 11.559583 
-2.232942 20.382774 19.772392 
-20.055567 12.025084 0.776703 
16.564802 13.572141 13.789740 
22.957260 0.453310 -1.371566 
30.887581 -6.194574 5.535990 
-12.222960 25.331335 18.206942 
-23.167761 4.275289 -3.672581 
6.687753 21.932055 14.243821 
-16.877598 0.011429 -3.522973 
-7.830581 27.539583 17.852224 
17.109152 24.061499 11.094420 
-18.431662 16.627960 12.329260 
18.968088 6.758234 7.344185 
-31.258959 -15.038257 0.481634 
-18.702879 -1.704659 4.175134 
-13.917149 19.649122 -2.533140 
22.313354 12.447758 15.546792 
-8.101981 16.730103 18.002464 
-5.977008 24.258305 -5.317875 
-20.752060 14.465437 1.988657 
-20.215416 -9.362877 6.627869 
-9.657351 23.053091 0.672318 
19.611616 10.504019 15.299908 
18.704784 9.391703 8.939802 
-23.418777 1.582580 7.506037 
-28.941969 -14.871887 7.015659 
5.965994 25.193512 -9.999221 
-16.645967 22.282518 16.672094 
-19.205584 -5.801037 11.371999 
11.674079 13.708641 -5.667228 
-8.731554 16.719267 -3.207148 
-13.932220 1.379816 1.999555 
16.088833 5.620689 17.634781 
26.431372 -9.045471 3.705683 
-27.942930 -1.596306 4.098313 
-26.594467 -9.180724 1.502185 
-16.347820 13.722481 11.871917 
-25.393381 5.863583 9.287416 
15.627994 13.610415 10.547066 
10.863284 28.414007 3.864839 
18.919247 -3.998015 -2.728155 
17.482594 23.445044 15.457523 
12.377357 24.125624 5.624411 
-8.705390 21.854986 -3.994089 
19.344963 23.301203 12.851892 
-23.332251 -10.011927 3.014259 
-19.897205 -9.613289 13.412001 
-20.485794 -9.092701 10.684032 
-19.411663 4.103534 6.139288 
-20.136713 -9.794848 -4.704378 
-20.361881 15.956981 -0.356921 
13.722066 22.392723 9.525314 
-18.978773 14.009126 7.261659 
17.585983 19.872669 3.401284 
-17.272438 -0.980877 -2.766125 
0.242143 29.222612 6.277807 
6.411139 27.895588 1.654636 
21.210566 3.785412 15.346903 
-19.476479 6.134997 5.629598 
-18.755461 19.142838 17.792322 
-15.990345 22.683701 17.461790 
16.558861 3.088457 11.700970 
-16.240330 6.001542 -3.997127 
-26.835447 2.014631 -1.485709 
8.142446 24.613607 11.733056 
-27.478670 -4.884912 2.833966 
-23.661667 5.058450 15.332359 
-15.997272 20.329277 15.136814 
28.124514 4.886009 11.250306 
15.865227 11.623110 4.742016 
21.170414 -9.246829 -4.025490 
15.310129 10.934464 11.949059 
22.494707 -9.712873 1.823007 
14.843078 16.320055 1.291216 
18.256802 6.480245 7.697565 
19.047935 12.200769 1.050817 
16.526564 10.358201 2.431438 
19.162117 16.441139 9.335591 
-17.661165 3.926896 -5.452177 
-12.976285 24.553497 2.666453 
20.810745 -2.357686 1.640315 
31.172482 -7.819739 14.627642 
21.566004 -9.406236 2.759310 
20.254128 12.203466 -3.022056 
-27.274397 -5.025441 8.014597 
10.914355 28.501251 4.956964 
16.022060 15.072938 -2.108349 
-25.578199 -11.105097 18.823263 
-14.773385 4.914986 -7.325235 
19.788258 -0.429257 5.007052 
-17.924757 -2.629912 -7.278605 
-25.457218 -4.408308 1.415383 
-4.131099 26.406282 -7.274258 
-17.589531 3.063585 5.579660 
-14.530238 7.218721 11.973630 
15.551867 6.073384 -8.814697 
23.706408 -6.498074 -2.240747 
-22.025616 -5.158921 7.265061 
23.743757 -11.726079 14.366194 
-3.410292 30.346714 13.967916 
18.908566 16.875971 5.650689 
-15.598942 9.936347 14.380425 
20.409605 11.641337 12.777612 
22.412245 -10.840711 13.636935 
18.706966 -0.721185 3.655483 
-2.416328 28.379511 8.748432 
1.758252 32.151539 7.213653 
7.517550 19.890173 -1.789136 
-17.492283 3.056347 4.068785 
-22.604246 -16.365837 2.232785 
25.624222 -8.004199 7.432280 
