13.794169 24.727991 4.902887 
24.734991 4.970228 9.405060 
-19.794277 -6.819536 6.592708 
0.448592 26.012499 0.420999 
-15.960117 22.460253 -3.736779 
23.704260 -3.020638 -1.068667 
-12.483818 15.389327 -4.227212 
-29.166584 -15.650872 12.127758 
28.934601 -11.008087 4.970183 
19.971750 -7.465836 9.633078 
1.955065 30.262762 11.534580 
13.806096 13.112885 5.168831 
23.493765 9.070281 -6.128666 
24.155088 10.491025 5.856017 
18.773613 9.716586 -4.676782 
-25.815500 -15.642870 0.994497 
6.109546 26.415455 1.154640 
-17.600496 24.087402 10.542051 
-20.624086 18.063663 5.018527 
1.291146 20.426390 -7.115855 
-14.383030 15.641848 8.268774 
21.247883 7.297258 1.714756 
20.605989 11.721014 7.124140 
17.321611 -2.190046 2.312997 
28.012171 -13.620024 -0.612349 
8.181262 23.159737 -1.674152 
-20.184355 20.866772 9.285655 
-17.220064 14.046968 3.848906 
-29.164982 -3.381950 -1.232674 
2.912284 24.972206 1.461914 
-28.872793 -1.162589 14.650608 
18.578363 17.370943 2.724072 
-30.092031 -9.906949 6.665344 
23.480431 -6.644705 3.312318 
-18.051298 20.973549 1.143531 
23.877163 8.956381 2.320837 
-11.946533 26.554838 10.069174 
-16.013186 19.378563 -0.586271 
25.736902 3.163589 1.873554 
-28.511356 -12.404392 -0.402377 
-25.071531 -5.669469 10.669925 
-5.378740 32.089180 2.688569 
-9.498751 24.502184 1.639042 
10.846562 14.716043 -2.961063 
-25.135414 12.654552 11.601331 
-28.704414 -4.724145 6.241716 
12.382921 26.430624 7.172876 
12.984061 26.408485 -2.398238 
-2.066254 20.670073 -3.961656 
11.904124 24.829641 -5.329648 
22.859169 -12.450163 12.895364 
15.139657 12.516367 1.590128 
24.607798 8.604744 3.969892 
5.328666 27.866774 -3.434945 
3.928678 22.125561 9.791587 
7.702329 18.541708 11.599768 
19.136068 -2.962320 -3.823896 
2.328284 27.028053 12.901118 
19.099447 5.679104 -2.541491 
-25.105799 -2.698898 -3.267945 
22.789797 0.750981 10.548568 
16.463333 4.398532 2.363868 
26.793137 1.342838 -0.297684 
-1.755230 29.181999 6.742124 
-23.881172 14.774837 13.807971 
-21.841324 -4.743277 -0.474065 
25.945688 4.294418 -0.369458 
-10.132549 20.450310 0.675766 
-12.761081 14.842967 1.966072 
23.176916 9.150520 9.176474 
3.678945 23.385143 -0.865965 
-1.173218 31.230942 3.128172 
-0.785282 28.859133 8.592160 
22.928101 15.559690 6.534543 
27.556376 -1.917127 4.211474 
18.227016 20.390602 7.215044 
-16.139196 2.261350 -1.317363 
22.518972 -12.534958 11.038261 
21.523968 17.681063 11.298520 
-23.359043 10.559093 3.504498 
-18.031385 10.032473 7.924100 
8.026659 16.391260 -8.194805 
-13.023742 27.738367 5.199625 
-32.610573 -12.081957 11.784271 
-20.376564 18.440363 4.081920 
21.341797 11.103800 6.894182 
-19.770649 21.766472 7.703655 
12.408457 20.208277 -2.310134 
-27.872416 -2.234255 9.091616 
20.262688 -3.724585 9.019422 
20.978712 11.280724 6.095983 
-4.660278 29.319141 12.230211 
18.264956 1.466406 5.208981 
-21.271790 14.052002 10.523735 
3.508357 26.840609 12.700319 
-30.140585 -3.524221 11.407083 
21.290541 12.176311 6.996822 
-27.547632 -7.124083 8.513271 
5.856084 18.509485 -7.063901 
2.487118 28.706062 11.894770 
-25.081387 5.191938 -2.659072 
-19.480530 17.301716 -1.335367 
-13.107262 22.008776 4.581355 
23.494183 -7.308010 -2.080720 
-12.244168 20.980173 9.363817 
20.408314 1.417901 -1.506165 
-28.311338 -8.775249 12.904595 
-32.878082 -10.593895 8.050631 
-23.697399 7.909305 8.668561 
17.778240 1.999032 2.556824 
-27.233868 1.967387 4.286747 
12.779195 14.335823 8.348455 
-1.098996 23.973719 1.711816 
-21.829662 4.947537 -3.091799 
-11.478982 26.975798 14.850901 
-11.630277 23.232698 8.171169 
27.157511 -3.842851 0.469834 
-0.941771 29.069069 10.601907 
22.421019 -0.168363 -4.514013 
21.424656 10.097664 0.107394 
18.668608 16.666826 -3.065396 
24.238708 -0.187179 -3.905301 
-5.372638 24.394642 10.561138 
-17.890039 2.531942 -5.107358 
-2.002303 27.886496 -0.741151 
3.127016 27.354553 -7.759838 
17.361744 10.245933 2.972911 
10.776248 15.435789 10.826385 
-14.386923 22.806730 -7.871367 
-24.299885 -6.320894 -2.450413 
-7.799663 28.441242 5.409544 
-17.636526 -0.357607 6.222392 
-16.398283 12.347513 0.748833 
4.507062 20.576569 11.947171 
15.377493 8.069563 -4.023893 
26.034081 4.408164 -5.770106 
-18.980106 11.238809 3.054107 
-25.502523 13.104020 3.807750 
17.781046 10.807048 7.493091 
16.353514 23.450397 10.221394 
-27.017784 -15.530926 14.440714 
4.715733 26.372841 -2.582541 
-23.718956 16.867693 10.711562 
-24.460388 -10.467749 7.256053 
18.195364 -3.638179 -0.436869 
-15.670970 17.587793 4.703732 
24.948866 -12.959823 10.068603 
-30.538757 -11.653666 2.683534 
-14.841015 9.649608 13.143940 
19.243294 -3.400434 -1.026224 
17.310890 5.976150 8.565018 
-20.746643 -9.422936 11.562504 
0.013661 28.076271 -5.013143 
13.231348 11.672502 -1.528442 
-25.026295 10.657041 11.903708 
-17.814667 18.474043 -8.432893 
-24.040949 -14.097608 12.047313 
23.411415 -5.304512 4.650684 
-26.113567 -1.814036 -2.237423 
-29.761580 -12.008130 3.100236 
-23.596077 -7.447557 6.373105 
-16.408241 0.082454 -5.947492 
17.807100 -1.690724 11.227764 
-18.836008 -0.623278 1.979792 
22.663486 -12.511999 11.915243 
10.116295 23.183828 1.167606 
18.194036 2.010266 5.824638 
12.811172 24.560940 -9.307976 
-17.673086 22.179060 2.127782 
18.893049 -7.837758 -2.878275 
-17.942974 7.383889 -4.911688 
3.942347 25.241446 6.153053 
26.226652 7.896817 9.579573 
-25.570915 5.373351 7.471973 
-13.647778 21.632214 8.402012 
-18.109055 15.709064 7.200793 
-27.915615 -4.399212 10.091569 
-12.166833 18.560259 -1.467708 
18.561180 13.028118 3.134315 
-27.110531 -12.371100 4.100789 
30.813969 -2.806862 11.337329 
21.890207 17.160627 5.319222 
-18.148613 22.140066 2.809704 
-18.263823 0.056537 1.471672 
-13.775225 15.730711 -4.513233 
-16.176617 4.537271 5.002371 
14.440556 15.316907 4.729503 
-23.341774 9.169886 6.284292 
25.213696 3.105683 3.506021 
14.356325 16.398766 -5.732045 
6.478680 26.445070 -3.100842 
14.174328 23.388494 9.170272 
-23.038626 4.016605 8.374601 
19.913229 16.444849 1.647991 
-23.594675 8.826305 7.121901 
-7.582261 31.126795 3.309048 
22.441843 -9.747712 1.082199 
18.995596 5.425401 3.059573 
-22.278605 12.469424 3.593249 
-29.364096 -6.411523 12.092163 
-23.040634 9.972381 7.583154 
-4.067630 27.040680 5.185194 
-7.849118 24.868563 -3.970881 
19.571920 0.535360 2.106360 
15.403153 14.126665 6.858737 
19.445026 -8.070971 -0.114591 
-23.066629 15.591629 2.782059 
-26.657810 -5.895489 11.467196 
-20.357376 -8.488563 11.579567 
2.965554 23.584953 2.304422 
-24.951138 7.818943 7.102031 
-20.045454 3.486286 2.376319 
-14.967107 3.675586 -5.296171 
13.465487 15.063289 -5.403395 
-26.131920 3.345405 4.168466 
13.589263 20.870367 0.551478 
23.390116 -9.163312 -1.930060 
-18.468006 -2.617807 13.343551 
-14.127303 20.975231 9.505817 
21.597618 12.105371 5.780967 
-27.344305 2.212251 -4.285949 
-24.088978 3.798213 4.129321 
22.387634 -3.396406 -2.433416 
4.879924 27.687372 5.419555 
-24.190742 -4.054329 1.969797 
-17.654997 10.275603 6.444779 
6.620948 29.099405 6.917679 
-7.889501 23.784775 7.440868 
12.922977 11.680043 10.190183 
-1.428262 23.994001 -3.708894 
22.407549 -1.017645 10.428882 
24.498499 5.625869 3.762471 
-20.636374 -1.069758 2.669031 
-21.824055 7.127505 2.209738 
21.878214 -4.355512 0.401187 
19.218111 13.796921 10.183753 
22.381264 5.200278 -4.248213 
27.922579 -1.232689 -5.844464 
-0.431594 23.146442 -2.585586 
-3.660726 25.544380 -1.638051 
23.221544 5.612790 7.347334 
0.057782 21.399096 13.333967 
-19.082769 2.241773 5.677695 
14.427046 12.038253 1.216399 
-11.718829 24.768600 4.019813 
-25.153090 -6.564065 6.285399 
7.126754 21.646759 1.496220 
-20.395363 8.429064 -4.569711 
-31.597548 -6.643988 -5.011972 
-23.563326 0.159384 4.265766 
6.472715 21.480181 1.003437 
25.544224 -5.805141 5.047339 
7.768770 23.024370 7.837938 
14.321148 13.500769 8.282829 
30.229355 -9.144684 6.433091 
-25.720415 -5.219409 9.430367 
-8.979046 29.733549 10.020391 
15.151837 11.451384 -2.011240 
-7.999069 27.869423 0.460749 
18.056881 4.304200 -3.694559 
8.668416 26.687025 11.362460 
19.367134 13.365757 3.627070 
28.031260 -1.954453 6.759722 
-26.026405 -12.519603 4.509025 
-22.638378 1.849788 -4.872531 
-15.503615 23.084888 -4.940540 
-21.840055 -1.871704 7.795441 
20.276115 17.747839 14.409745 
24.969822 -4.404614 7.737110 
-22.071648 -12.161139 10.020361 
-23.965128 -10.928604 4.946183 
-29.715487 -2.773001 10.430679 
-13.913546 6.414833 -4.951713 
12.493710 20.746775 10.712440 
17.688042 20.052498 3.642226 
-25.109938 -10.570211 12.321504 
16.856157 10.972017 8.674136 
-19.525232 8.947694 7.292808 
-22.172855 11.533529 -6.439159 
-30.165237 -3.666758 13.457428 
-10.000000 27.530090 14.843455 
-18.861752 -2.656877 -4.912957 
21.740057 0.517916 2.480663 
-19.310196 1.454035 6.128883 
-9.677048 25.500408 9.075480 
-21.748386 -13.100233 -4.155288 
-14.834364 20.892309 -0.607366 
-16.295300 19.111624 3.233594 
-12.044241 25.384657 1.497394 
-19.827642 4.955838 7.257286 
26.174904 -5.114485 8.071135 
16.959793 -1.751469 -4.923082 
-22.353104 11.133760 3.884424 
0.374458 22.039701 -1.368282 
-25.338236 11.735745 9.433782 
11.081440 14.322081 12.828822 
-8.372110 29.078697 12.408525 
5.870603 30.779734 3.966331 
29.131788 -8.006693 5.062421 
21.635687 -6.021557 7.565628 
16.210552 4.654039 14.276164 
-24.280096 -6.362775 10.701956 
27.601946 -6.808171 12.281139 
23.798645 4.991167 9.376952 
20.574909 -10.756169 3.997312 
14.517730 13.927936 -1.396788 
-15.359649 17.045250 -4.397986 
31.544403 -6.224751 8.344902 
-16.207811 6.687788 -4.598616 
16.840664 12.244688 9.792568 
4.882957 24.920689 -1.016703 
-32.416756 -10.526660 0.772445 
-25.166250 -12.591545 -2.081400 
-8.490655 27.997295 14.834549 
29.246223 -9.074337 5.285682 
16.019955 23.701628 4.625994 
20.843346 5.321500 3.321493 
25.351284 -8.333026 -1.931685 
-20.709831 21.134331 10.478879 
-13.659649 21.890644 5.224802 
-19.941767 -4.281987 2.716584 
-26.137491 -15.699998 10.201736 
-9.894757 15.986255 -3.374849 
-19.733252 14.778194 3.956226 
2.952437 23.268061 -1.797768 
-13.243988 24.879995 11.563578 
-26.332970 3.230532 5.388760 
-14.575132 23.201086 -6.898968 
21.470984 -1.498219 -0.492861 
-7.979412 20.899305 -2.502611 
-25.226879 -10.285653 -2.867985 
22.891459 6.816325 -1.322014 
2.094814 28.551182 13.278147 
19.494684 16.022495 -2.257583 
20.943905 -8.611600 9.440125 
29.065262 -11.870848 2.917791 
-10.365095 28.257156 12.026886 
27.534998 5.259375 9.795935 
29.854395 -0.001964 13.031524 
-17.242828 4.684761 1.198841 
16.350225 7.399587 5.006384 
9.745522 25.937008 -2.045206 
-9.953483 18.329477 -1.714948 
15.615428 1.955214 -5.190711 
26.890978 -13.065150 3.854009 
17.771887 -3.697171 -1.391146 
-16.411526 -0.056707 -2.831666 
26.228922 -3.762875 7.209589 
19.078608 4.327224 -0.971559 
-20.888271 5.412308 3.006503 
-12.893623 19.230709 2.946014 
16.634939 14.467484 3.059388 
10.154219 27.605597 9.262519 
-14.881941 21.765001 -8.883005 
-25.028112 -10.649877 1.496704 
18.286804 11.639195 -1.585544 
-6.077553 21.395742 -1.442908 
29.088984 -4.560694 -3.993353 
-20.999826 -12.051827 -4.298367 
13.473910 13.768928 0.584267 
-24.977566 11.144500 3.414070 
17.144093 10.450987 -4.803137 
-24.320957 -4.887349 -0.147875 
20.069635 18.180401 5.099123 
6.194316 25.923695 4.734026 
-14.498672 21.699467 7.945658 
-12.823943 14.111290 11.685399 
28.106529 1.859173 5.331686 
-31.237570 -12.382092 11.856386 
12.481830 21.628275 7.730096 
8.725676 22.484274 6.421056 
16.259338 3.786320 10.387358 
-28.918514 -4.524889 7.290992 
-15.839236 24.408907 5.778976 
25.260208 -10.171834 4.939151 
-32.247047 -8.122697 7.378564 
-13.417847 20.646992 3.929145 
6.379501 23.696926 6.697341 
5.747543 26.408253 7.844288 
13.592366 18.680014 -1.845705 
-21.779295 5.480779 3.225694 
-7.734579 32.479649 3.840678 
-6.120881 29.747810 11.944153 
-17.740950 19.023691 10.596891 
-27.539755 -4.335289 5.814834 
20.374897 12.591895 -3.050233 
-16.010929 10.773963 7.327362 
-32.356358 -13.062592 12.618915 
-20.714502 11.926216 10.355183 
23.511515 -7.306850 11.196826 
18.226288 0.383530 -4.761135 
20.785501 11.217593 2.021199 
20.723444 0.417004 10.037661 
-27.643843 -4.012142 6.922076 
-8.720984 22.983587 8.148964 
-17.108545 5.418098 -1.317854 
-31.548515 -11.022965 6.136041 
-8.109766 21.661545 -1.915326 
22.152393 17.148783 7.383431 
-24.993155 -7.179350 -2.861643 
-17.384781 8.341054 2.273039 
-0.471046 20.816477 -3.863744 
-14.304731 7.979083 0.352660 
6.498118 28.863344 5.990813 
-27.820011 1.223040 -3.890890 
24.849115 -14.574757 3.472777 
-15.674654 21.357830 -1.478629 
12.373564 15.283902 -3.824792 
-31.343981 -9.980605 1.775502 
-18.768101 -1.868680 9.440217 
26.573629 2.920329 3.451892 
-32.091740 -13.846418 14.513999 
14.098505 9.345651 2.415133 
-5.203505 25.389946 1.899722 
24.666639 -2.219677 -2.092133 
6.661720 28.390257 4.709869 
6.809238 25.527275 11.140798 
19.711288 13.193849 9.960579 
-22.559958 9.682682 6.616575 
-23.771893 2.908425 -1.685511 
-25.323774 -1.524673 -3.517576 
-31.909283 -6.682268 6.688959 
20.705614 5.046645 -1.152861 
-7.365068 29.135981 13.223896 
-12.215823 16.762718 2.070303 
-24.777086 2.659017 1.914002 
-23.331820 5.420633 -0.396053 
10.525839 22.492151 1.153018 
-18.142157 5.644245 7.354281 
9.127909 24.485413 -4.940567 
-10.283997 20.867201 -4.698973 
15.618836 11.086854 7.747026 
-25.254293 -0.006794 3.811831 
30.638859 -8.919975 2.346721 
-21.931381 -11.181249 13.046533 
11.965058 10.861774 -7.453498 
-31.166647 -9.191305 1.267158 
13.727481 10.496011 9.578800 
6.316672 24.196634 10.468126 
15.810866 23.160494 -5.512836 
-2.130553 27.778873 0.565416 
23.190973 -11.293688 10.912278 
25.721245 3.251394 -3.351670 
-16.287991 4.088945 12.229370 
-1.453238 24.573561 7.712240 
6.749998 27.262144 8.517821 
3.618237 28.185352 -3.751964 
13.528225 23.229067 1.569351 
13.494557 24.663315 5.614103 
8.928433 22.779322 -4.917108 
-25.775398 12.706794 7.749061 
25.452425 -10.950540 5.265384 
-28.097103 1.579495 12.362657 
21.911989 12.691238 6.760504 
-7.057849 24.593416 10.620420 
-21.518654 -11.125781 8.491063 
5.984668 19.843697 11.493771 
-19.952538 0.257533 3.155223 
-23.584547 -12.970541 7.131535 
-9.220999 26.003052 -1.127760 
-0.153014 23.218304 -1.703802 
29.700905 -11.774269 1.387728 
-20.261057 12.607763 10.418213 
-16.947096 19.340834 10.582317 
-27.412235 -4.363039 2.219083 
-19.555132 21.817547 14.863173 
-13.217776 18.357838 5.907971 
-25.713823 -5.508704 -1.821373 
-6.175422 27.110739 5.809790 
-14.566703 13.039353 2.110767 
-13.169745 18.264811 8.776684 
27.657047 -9.877323 7.318766 
-11.825100 25.734356 4.280700 
11.674249 25.205198 -9.393202 
-18.747271 6.824509 9.705984 
22.746103 5.928439 -3.909549 
-27.021538 -13.182177 1.152876 
-18.063337 -0.372159 4.608516 
-28.052282 -15.914021 13.102214 
-13.176724 19.191525 5.707398 
-8.345925 27.417078 1.082832 
-0.501109 22.106195 -0.888223 
-24.376055 4.973752 5.455565 
21.347878 2.162021 10.015882 
26.783440 -3.442295 1.499679 
-12.823070 23.535999 3.998839 
-3.512454 29.073309 11.598698 
21.243818 -7.609626 8.421060 
-20.966663 8.185032 9.546019 
9.679783 27.626459 10.457694 
-18.290422 11.161439 2.410303 
23.063580 -4.974136 1.061772 
-20.295771 4.539005 9.783991 
-12.226357 14.171781 1.897964 
-17.955904 -5.211499 -2.698404 
28.188663 3.831763 9.011613 
-23.109486 9.258969 -7.177455 
-18.309210 22.998568 7.059077 
-3.294232 29.626474 3.480235 
-27.609613 1.036855 5.441430 
-0.813154 21.520212 13.100865 
-15.424088 22.054098 9.322560 
15.499789 3.120214 -1.449342 
-15.088284 11.123075 9.306148 
-23.118315 4.801143 -3.091343 
-7.726944 28.197050 14.829552 
15.727086 5.319940 9.108329 
26.088816 4.174902 -2.591996 
23.434315 -5.796250 -1.898628 
19.906670 6.102949 -2.332288 
-5.999783 25.424810 6.897420 
14.560953 13.653422 1.421264 
-10.222575 28.019142 4.473713 
-10.009941 30.119940 4.402517 
-13.139043 23.590750 8.609105 
-23.816553 12.643175 8.322226 
-23.613779 -3.861518 -2.057768 
5.982907 28.327583 9.650411 
-20.212599 -5.386964 3.313598 
-32.022480 -7.548457 -2.659671 
8.684238 23.159740 -0.350697 
-11.024714 21.156105 -4.886278 
29.777901 -0.177802 10.490216 
-21.068720 6.956180 2.087658 
18.596607 18.321411 -0.137192 
21.974016 15.811170 13.370063 
-18.384617 15.128247 2.242448 
-17.345879 6.476299 2.121814 
-28.567461 -13.080312 0.160667 
-16.140656 4.054045 11.243617 
8.149034 24.556475 -0.208032 
-16.074425 5.897450 1.165662 
29.464024 -12.590549 9.898497 
-11.544646 18.682550 -3.071624 
14.707174 20.364473 3.616543 
14.914962 24.649839 6.612280 
-3.661803 22.183693 10.617929 
-15.658191 11.625978 -0.524033 
23.343922 -3.907741 9.707669 
-10.984851 21.840776 3.077034 
-9.100026 26.610615 7.551267 
-2.570378 28.932720 14.787661 
-27.778685 -16.000242 11.963495 
21.687685 5.465516 8.786704 
-13.263766 25.470083 -2.249065 
17.054354 20.657322 -8.787108 
19.767826 -2.166946 -0.524628 
-7.589137 24.191414 -0.856422 
25.300905 6.934517 6.374925 
-23.478273 -7.423239 7.561864 
23.354464 8.533131 -3.168214 
-19.569115 11.708406 -1.038412 
29.699091 -10.614078 10.720304 
19.338886 4.341787 8.212487 
-14.110818 20.851265 -1.315835 
-19.760595 15.275521 9.881258 
-21.190866 13.812357 -4.282160 
16.932381 -1.016767 -1.946391 
15.482615 5.603605 -0.561993 
22.958738 -2.439315 3.505275 
-12.521886 21.622232 -2.371459 
21.941156 12.325106 -5.790620 
21.422716 18.041075 8.284736 
-11.752023 27.612295 12.176708 
19.583298 7.113841 -1.025112 
-9.538309 24.582148 10.474627 
16.371468 20.668697 -0.509547 
-18.527941 16.678373 9.360101 
-24.554338 11.442922 2.673678 
17.358936 2.275819 -4.701777 
-26.425955 -14.301165 9.152680 
-16.856846 1.513494 10.462859 
15.512088 6.745498 0.417409 
-21.315420 -4.573558 -1.866682 
30.517872 -6.117966 0.549148 
-12.416295 20.437557 -4.706938 
-16.342953 -2.168740 1.876047 
-25.101477 13.407567 2.855579 
17.118763 0.573795 8.032310 
25.689445 -0.824041 10.482999 
-16.878569 8.555785 -5.055071 
17.006420 -1.967618 1.433880 
27.930489 -13.706113 9.334287 
-22.437668 11.437212 -3.118800 
-26.417793 2.069340 9.628670 
-21.744280 14.892567 10.381864 
-18.781740 -3.475574 13.448024 
-11.393522 17.395933 9.595336 
-13.788616 22.838253 10.800621 
-11.533972 25.363468 2.078957 
22.932739 -5.585252 5.944721 
-13.626886 25.991169 14.859321 
18.284542 20.201536 -3.202370 
-25.525234 14.758181 7.396255 
-20.062523 17.161198 7.350910 
-30.236349 -11.618383 3.583655 
-17.746670 -1.942469 4.771451 
-22.846588 9.105352 7.270803 
7.899583 26.476072 11.238793 
24.380251 -2.599630 -1.002575 
29.344595 -13.858917 12.847006 
-18.391916 10.087016 -4.888763 
-22.587608 -4.829090 1.537081 
11.819140 26.564003 8.814381 
32.007343 -8.456691 11.219100 
-25.405239 4.207226 -0.696400 
1.618516 30.540226 10.739350 
-19.103905 10.419995 -4.721245 
12.839463 21.486038 2.617890 
-32.937027 -11.863638 12.900702 
-32.358353 -8.202294 14.043654 
22.642811 -8.205681 3.154123 
-27.539959 -15.833011 -0.062409 
-20.365997 12.780452 3.739847 
-17.828247 6.525737 -4.571223 
9.838084 21.893618 -0.239813 
5.635088 31.129757 8.215297 
-29.475925 -15.731033 -1.623677 
-15.477223 4.430472 -1.606229 
20.436388 -9.389581 9.285808 
7.970621 26.418398 -9.551054 
-22.542618 17.310732 5.079004 
-4.505922 23.184698 -2.717167 
-27.370958 -3.461128 9.462706 
17.810936 20.552591 4.400407 
23.484255 -9.035131 3.703064 
-29.837379 -2.711175 11.301229 
25.210102 10.004222 11.087359 
16.450380 -0.689910 -4.465276 
27.102777 -12.173351 7.155035 
24.290880 -10.156408 -1.672913 
-21.004196 -3.648359 -4.397874 
17.917763 20.639561 -5.567660 
13.880592 17.793478 -2.089307 
-17.557219 13.731050 9.393880 
7.356996 27.302652 -4.769193 
-8.095833 22.040630 8.016773 
21.625898 -10.848602 9.347581 
8.863613 26.651772 14.642685 
23.205006 13.790882 7.591510 
-25.436415 8.715069 9.207110 
2.755760 24.901031 7.683453 
-27.726170 -14.177760 3.713372 
16.079409 4.714042 0.260541 
20.524502 -2.029270 7.503542 
22.244303 13.106260 2.673532 
-8.376721 29.908604 10.630006 
16.087294 10.613729 -4.342216 
4.629741 22.917505 2.097717 
17.063618 -0.557983 -3.604493 
16.811169 -1.154403 -0.656836 
-14.401085 21.940342 3.364579 
-12.916103 19.674578 -3.920329 
-13.996308 19.191105 0.382925 
13.386162 25.125698 0.158122 
19.189497 13.697062 1.140075 
-13.940608 23.136631 2.009888 
-22.449272 14.048517 2.768174 
-18.582958 21.678711 2.311537 
-28.427891 0.200527 -4.998204 
-6.796184 25.799026 11.792555 
-21.638138 10.185328 -3.931879 
1.050169 29.413685 5.477401 
-10.131550 21.977989 6.906952 
-14.808366 20.362440 7.546659 
25.985764 3.866628 0.282543 
18.362125 19.650927 -1.331721 
5.384208 28.856829 12.835649 
19.184124 -1.537685 3.945944 
20.413902 18.950695 11.939590 
-19.797606 -5.037079 1.359157 
21.787258 -13.382743 -0.957595 
-24.544531 6.794066 -6.841611 
26.607557 0.601556 -0.616981 
12.476684 25.188061 4.402735 
31.386711 -8.694805 12.001356 
-28.474609 -14.921731 1.602888 
-2.132463 29.002918 9.025222 
0.083733 20.599035 -5.820930 
-8.691024 24.660704 -2.862549 
19.186007 -4.557764 12.765268 
-3.728764 19.815643 -7.018463 
1.201512 29.194395 12.917098 
-22.426394 7.474974 1.808474 
0.962100 28.741169 5.902426 
20.879801 -4.285175 2.279320 
28.548122 -10.525604 6.748061 
9.404630 22.603004 5.946663 
20.323374 -10.237433 3.299138 
-18.244438 8.213843 3.564903 
26.892979 -13.167005 9.845609 
31.113071 -4.892362 7.759049 
-20.102962 -7.785492 8.789209 
-22.861000 -12.908204 7.685714 
-19.436935 1.249616 4.031717 
-24.483128 -14.008717 -1.369966 
11.972549 25.685900 2.555245 
-19.876099 10.834628 9.827491 
22.252132 17.149754 10.070004 
-29.789759 -5.020546 11.201240 
-12.686088 18.162102 0.434251 
14.308331 19.688894 -4.948745 
15.292332 15.889773 7.201375 
16.300920 11.124171 9.226038 
15.842363 14.998499 -5.099122 
-30.704033 -13.268912 7.475030 
3.746116 31.714798 3.204165 
30.896126 -7.783937 -0.576619 
18.094072 18.947508 4.769967 
-18.952242 22.306431 9.382756 
-1.715852 28.052599 -4.509931 
11.237043 19.841669 -3.909518 
6.852497 17.822464 -7.179581 
18.088268 14.711161 -0.381979 
22.759491 7.010776 -0.301469 
29.648094 -5.525364 -2.726899 
-23.943066 10.684210 8.279953 
-1.952463 28.462580 4.178285 
5.586491 23.558277 5.881657 
-10.812580 21.470987 6.660578 
17.212591 7.399448 2.663352 
17.263535 20.170347 -0.195199 
-30.134642 -15.068128 11.461105 
-18.433611 19.071144 -2.172650 
-32.114349 -7.800333 -4.854684 
-15.457536 2.244898 -3.367297 
1.095635 25.935253 3.197599 
7.597561 25.337402 11.496329 
-17.811134 -0.047588 7.035511 
22.356308 8.498310 2.234976 
-19.289904 21.106726 2.535800 
9.481903 14.688241 -7.966899 
-21.491180 1.377219 3.266446 
-18.226887 9.242013 5.896157 
-19.988018 -0.560123 1.701469 
14.001224 11.297581 0.695392 
26.495161 -4.154552 -0.852931 
-9.563587 27.188900 5.821002 
-18.099192 4.777485 -1.231499 
-3.871733 26.069681 7.486009 
13.090142 11.080003 11.879689 
-20.726234 13.399254 10.520947 
11.405766 23.268627 3.516563 
-4.609018 19.701759 -6.243984 
-27.570534 -16.009638 11.017840 
-16.479328 1.512658 2.114581 
-14.030254 13.063053 -3.258040 
-20.196346 19.191860 9.221399 
10.796747 19.964767 -0.644643 
-32.443836 -9.024386 -1.006793 
10.031029 21.760279 8.426137 
-24.494370 7.096378 -4.781608 
13.783710 25.576426 -3.445055 
24.295780 2.968771 -4.097981 
-25.041811 -16.001982 -2.168809 
-23.893847 10.402278 7.483718 
-26.161161 0.714366 -3.272643 
-14.800647 25.897381 10.266000 
12.786970 24.330801 6.492625 
-13.074210 22.312408 7.641503 
-28.633163 -12.845287 0.978426 
29.113239 -7.181470 5.360045 
31.323030 -6.041461 6.765992 
14.352470 5.663612 -3.622353 
-19.834881 17.088024 6.453485 
-3.572123 24.970390 -3.290799 
-19.850662 8.428034 3.155732 
-19.723856 -1.559158 2.100131 
20.183146 18.748039 13.126884 
4.500341 26.022469 4.289730 
-1.436244 26.933222 -3.782007 
17.024868 -1.469175 2.592854 
18.476604 7.453720 -4.056499 
-8.262711 22.269390 -1.291155 
21.314798 -12.174862 0.739547 
22.860889 -3.129940 9.973428 
8.420562 25.361216 0.536102 
15.727965 2.369354 -0.387369 
-23.987503 -3.703536 4.234466 
18.449549 0.621887 -1.390650 
-27.574425 1.964680 14.679231 
11.964489 25.956379 -4.445986 
-22.085484 11.239114 7.279924 
28.291069 -6.380669 5.370946 
-24.438383 14.582658 2.092856 
18.691492 18.867870 -1.114459 
-22.137354 10.746029 0.155875 
-17.723835 14.417489 8.208018 
21.649523 -9.253906 6.599056 
24.807594 -12.738835 3.626771 
-21.281719 -6.747941 3.486552 
-12.012487 27.328150 8.552757 
14.745378 24.348549 -6.220652 
17.975060 5.383178 2.263366 
28.814615 -3.007789 -1.909300 
10.926505 22.526661 1.967926 
26.923191 5.987724 8.516900 
-20.813211 -11.963542 1.859304 
-2.511710 30.606007 10.134634 
-10.999188 27.806635 12.889080 
-16.178080 11.638791 6.780317 
-25.451603 -6.141853 5.554431 
-22.037230 12.093491 -3.263165 
-27.689604 -0.134041 -1.844524 
2.223217 26.783392 -9.590719 
-15.244776 22.883472 4.196706 
26.700935 4.860377 7.042554 
-14.077088 24.310179 -3.575612 
21.211123 11.262597 1.100492 
-6.082516 27.682478 -5.045254 
20.578968 6.114342 3.382227 
20.485666 -9.515982 10.773541 
-9.435315 24.678429 0.823590 
14.980493 4.088133 -3.239192 
-29.007799 -9.795317 -1.098331 
17.679758 -0.829974 7.783789 
-18.872206 3.647072 2.935684 
10.936189 14.888138 11.650130 
-9.766331 17.676413 13.044401 
-26.899630 -12.302949 5.903452 
-16.092058 5.579467 13.327728 
-14.917801 17.319101 5.132308 
-17.146749 5.562189 1.443271 
-14.030425 20.229839 2.782495 
-1.602361 28.510109 4.934206 
22.916708 4.147583 6.740752 
16.253122 1.224038 -1.713794 
-20.302185 19.893673 6.136616 
-23.253820 -12.403125 -2.497306 
-20.714531 2.125307 3.536490 
-24.899323 -1.635185 -0.658119 
-21.721760 -1.354551 10.606298 
24.052248 -7.664303 1.121384 
-16.804445 10.290798 -4.095434 
16.730387 -1.130934 1.914971 
26.838720 6.389931 12.734086 
28.323000 -8.527350 12.555717 
-20.233810 18.274796 8.476887 
18.416786 14.135126 0.433911 
-17.033569 16.325974 4.014850 
4.203568 25.312872 11.472841 
17.594019 18.381508 4.568736 
-25.976160 -5.983206 7.342565 
-21.664261 19.763235 12.630003 
-18.387085 10.562732 2.991501 
-15.902490 16.887714 -1.635644 
-22.982622 -0.860804 -1.334894 
29.718369 -0.043397 14.078227 
29.884714 -11.697059 -4.432291 
21.637060 0.126159 10.332327 
15.976488 1.646424 2.319115 
-14.391085 5.343646 -6.662565 
-19.441261 15.230033 0.055356 
-13.662902 24.097488 11.351213 
-19.522295 19.810738 10.554590 
9.440114 17.264948 -3.710073 
4.748776 21.452051 10.020723 
3.963549 25.665562 -2.556704 
-13.333677 18.845640 0.744601 
10.674497 23.486141 -5.479376 
6.488254 22.726641 4.300228 
25.142811 -3.041532 1.299316 
-3.567601 27.384859 4.423220 
22.678715 14.635269 7.999673 
20.087217 -7.590107 1.307790 
6.984627 23.163206 6.688264 
-21.674753 11.423147 0.132831 
28.211342 -11.079552 9.819860 
-13.720025 15.094007 7.710493 
14.998119 14.592301 9.006733 
17.179329 18.008644 7.144112 
-14.638681 18.109539 -2.886206 
23.440613 14.192204 9.706754 
-21.280539 6.032473 0.414726 
17.284834 15.123488 -2.742868 
-23.149475 2.234142 3.663927 
24.094940 6.399335 0.259028 
-18.686949 18.405598 -6.130136 
-32.116405 -10.428350 1.684704 
14.028706 15.256661 6.777062 
19.698784 2.930922 -1.384330 
18.936953 -3.543044 0.952400 
-15.135736 24.722855 3.221328 
4.672997 25.618458 7.975261 
-17.130362 10.876082 -0.935131 
18.645405 20.787762 13.340236 
-22.476042 10.661158 -1.345493 
-18.152794 -3.663003 11.577237 
22.585558 13.923882 3.057616 
13.980535 9.517957 14.363274 
-4.149434 28.664738 5.369505 
-7.537418 23.038649 0.866153 
-30.062908 -11.410241 4.574583 
22.852917 6.263153 -3.032267 
-11.388294 19.117376 1.362672 
-16.714003 9.499510 2.309988 
22.187311 -11.124519 14.006179 
28.435276 0.176742 9.784511 
-29.201702 -11.054946 9.870915 
-22.190870 18.998402 12.415756 
23.240717 -2.024475 0.477408 
-4.486973 31.394173 2.568333 
4.155471 32.354843 5.473201 
-22.624866 16.343727 3.231567 
21.787504 -10.886052 4.825891 
-20.791481 -6.455832 9.144442 
-29.506676 -5.681754 11.668268 
-5.255167 30.294582 4.124844 
-24.183306 -15.210130 1.506373 
21.650591 1.007682 10.293349 
-22.571445 -4.507906 -0.779461 
5.528624 25.638319 6.275159 
-24.917850 -0.129482 -1.324139 
-24.826838 12.655762 12.546846 
-18.009626 13.139416 6.671548 
14.221087 13.616783 0.433766 
21.471621 -3.887796 2.933339 
19.933733 16.114616 -3.702090 
-17.361628 15.816597 4.576824 
14.248839 11.154767 1.461426 
-16.937874 1.514565 11.645033 
16.982698 20.018560 2.630465 
-9.949055 17.409527 -2.024385 
20.369013 18.480591 7.334530 
-18.462524 -4.519986 1.112456 
24.512741 -4.805572 -1.589108 
-19.834976 4.148118 3.222615 
29.123106 -8.424747 6.387420 
-18.511274 22.128124 3.617801 
-21.046684 3.507161 -1.342858 
-25.360727 7.975454 8.179015 
10.468043 27.252075 9.916650 
-28.670273 -8.523534 2.321519 
-10.145207 25.721861 0.398026 
-15.722132 19.736437 10.338807 
-4.829808 25.665932 -3.459022 
19.289467 17.272015 -7.163957 
-14.822970 22.208673 -2.863311 
6.860900 26.498291 4.438584 
-26.240189 5.476632 9.629496 
-33.159924 -11.777459 14.552253 
-11.223573 11.836556 -7.546192 
-24.365759 -6.406755 4.136568 
11.375234 16.302109 -2.057043 
-15.851859 24.890495 8.989820 
-17.979311 23.314787 14.867313 
26.217625 -12.664075 5.546245 
2.574605 25.570009 12.089903 
-25.081240 10.457133 8.743349 
9.606326 26.716484 11.366926 
-11.453335 20.933893 6.905236 
12.331753 15.197735 8.397552 
15.302230 15.808473 -5.535812 
-20.507700 11.973340 -1.788767 
-0.774726 24.536219 -3.650042 
4.350565 26.520208 0.803035 
24.304510 1.453070 4.770178 
-24.357639 -9.175420 0.868326 
5.966236 29.716156 9.394593 
-24.415157 -7.081322 6.313866 
16.824579 2.375449 10.211281 
21.354927 10.433418 8.904791 
-8.284099 23.699326 -2.411277 
13.332854 23.666147 -3.064169 
22.124813 -5.793122 9.484176 
-13.965780 12.957644 10.158252 
18.558977 16.184805 -0.320768 
3.029071 31.964142 6.741949 
19.767859 9.703475 -4.324602 
18.953346 11.446692 3.960920 
-32.110302 -12.031965 10.676068 
-16.869347 11.112575 6.542640 
26.482296 7.087799 12.721447 
11.514098 22.192919 2.670759 
-14.694901 13.011695 -3.668427 
14.366095 21.170147 -1.373222 
-26.371342 0.231755 0.928572 
-29.073811 -5.132733 5.421228 
-29.065687 -13.631570 3.592723 
-15.436006 12.969101 -3.179609 
-7.842063 23.685232 3.313252 
-20.424295 13.856400 -1.845596 
15.438322 3.387133 0.565802 
22.024050 -1.360143 3.227651 
-2.200137 26.288151 -9.516259 
-5.814943 27.087000 12.531765 
12.685895 26.342884 -3.484806 
-20.048716 15.675668 9.184800 
-14.289914 23.004824 9.741901 
-20.760542 -5.733740 2.290987 
-11.763061 16.507921 -0.234827 
-4.627356 24.346872 -0.449700 
12.472094 18.918903 -2.359405 
-5.574200 28.723101 3.954055 
24.408592 -5.463682 10.873697 
32.066040 -6.941327 13.962855 
-21.369984 6.640306 9.953866 
18.064823 22.124990 9.338007 
20.963783 17.025778 9.604868 
6.020321 29.577715 4.422282 
-26.500761 3.741066 -5.548697 
24.214483 -11.407126 11.384174 
12.578348 18.029593 -1.925629 
25.813318 -8.186470 4.896228 
15.718337 24.369461 10.539534 
5.488431 29.498356 10.505051 
1.252256 25.358173 4.880136 
-14.967855 7.337003 -1.965063 
-16.478119 13.578316 3.614885 
19.065306 12.436036 3.630280 
28.313622 -14.307444 13.902395 
27.982695 -6.413914 1.969689 
16.707031 -1.436408 0.842534 
-21.357618 8.765203 8.759454 
14.883913 20.881264 8.750193 
-27.882805 -8.163432 5.950901 
23.313509 3.149653 10.136561 
-22.233932 -5.916863 9.778161 
-23.247208 11.722396 10.155169 
21.900007 12.162027 -6.657886 
20.586397 -11.429290 2.355685 
12.365051 12.766415 10.634719 
16.756371 2.334191 2.875983 
-10.973766 25.350000 1.013226 
-19.873259 6.906681 6.942694 
-26.828033 -1.672204 -0.371580 
10.095753 16.492645 10.465775 
14.038854 19.226980 2.536048 
-25.522060 8.065899 11.189573 
24.180256 -6.655069 -2.028500 
24.471058 7.057019 -3.877050 
-19.614912 21.602287 9.638455 
5.760875 24.882940 8.517721 
-22.969551 -4.868393 0.860397 
26.892138 -5.943594 8.550657 
14.139846 22.782854 -4.674339 
-8.921265 23.433966 6.692172 
-12.466519 13.942003 -3.003340 
12.448384 25.421843 13.645766 
-24.947210 4.511644 -1.254210 
-18.745586 0.943789 8.253117 
16.282188 20.382795 2.596569 
20.098904 13.950694 10.048924 
-17.020494 12.880715 2.256741 
21.790302 -7.869442 6.651834 
-27.247030 -4.099881 8.407964 
15.100423 11.388718 4.915588 
28.460951 -1.976600 -2.160633 
4.613227 26.057692 6.847759 
24.917397 -9.648746 -1.770123 
-4.237731 25.142859 -0.911642 
25.838518 -11.426108 5.775438 
23.677885 12.932446 8.226749 
23.065317 -14.149411 -1.382275 
8.303332 17.516687 12.941567 
-26.806137 -4.404710 9.000675 
-19.924541 21.387398 6.869544 
-5.947351 30.558292 3.718301 
-10.799268 28.307703 3.856236 
-5.205577 26.565550 8.899055 
-21.282188 20.336748 10.559671 
-27.405975 -7.305690 -2.077562 
22.584110 -5.535595 5.093211 
-19.175980 15.397502 -2.798427 
2.937414 26.353226 7.171355 
-16.809195 17.208723 9.987139 
-24.905123 -8.315696 5.160419 
7.811404 21.543949 -3.050171 
15.369868 20.810328 0.947544 
-5.394263 28.997625 14.277709 
-23.366930 -6.768238 9.361567 
-17.242928 22.658731 9.032619 
-17.747910 15.914772 3.270776 
-17.511263 14.954929 5.441534 
-24.539162 15.990926 4.590858 
4.265127 26.854156 12.484351 
-0.063271 31.455095 7.646963 
-19.683046 0.816768 -5.391798 
26.981058 4.238966 8.605841 
16.987928 17.669796 4.343267 
-17.498083 -2.795069 -5.556417 
-26.302721 -0.619640 0.949001 
27.389275 -0.057324 10.148771 
0.476414 25.503847 7.123169 
-14.302870 5.421159 -5.635917 
-20.645119 2.695256 4.670674 
-21.649450 -4.708145 2.489796 
-26.514093 -1.175048 -0.905569 
-9.084938 21.015072 -4.317811 
-19.229195 -8.561037 -2.713844 
27.978832 4.533442 10.254247 
32.504482 -9.633832 13.922613 
-11.562572 22.198486 -5.025278 
-33.377068 -12.835404 -4.171471 
15.323727 19.581354 -5.017266 
-24.855885 -2.009756 2.786596 
25.240255 -1.481662 10.444870 
-17.513639 15.574323 7.721622 
24.133198 10.073965 3.851395 
-15.575258 1.338080 -0.299673 
19.087202 18.315584 -2.217157 
3.496332 25.993898 4.082800 
-12.615282 25.525644 -1.328513 
-18.687994 -1.333066 2.347301 
21.160397 -9.976892 7.578073 
22.889595 4.603897 3.605845 
-23.629948 -12.106501 11.380630 
-18.422762 7.302103 3.349416 
-24.243122 -7.834604 -3.089645 
17.053988 -0.953345 -2.815339 
29.225727 -5.668341 11.802930 
5.618562 26.492117 -3.369583 
26.265427 7.894324 10.506427 
5.914326 27.786633 14.687357 
-28.234335 -4.512074 7.741366 
-27.157518 -8.517562 -2.345878 
15.645443 9.502617 -1.354901 
6.502434 28.496922 7.405638 
-5.302193 25.684879 11.792496 
-18.758736 23.128716 12.139265 
-23.869396 -4.016175 -0.309672 
16.720659 3.144321 9.270015 
-25.292913 -13.972293 8.126187 
-21.963543 18.947500 13.584136 
20.532183 12.061978 -3.881647 
-28.138567 1.689136 11.393761 
-24.410669 -15.502568 0.443086 
17.888210 6.317540 1.058904 
-23.024300 -11.777493 6.168882 
-22.653252 -4.032749 4.062987 
15.463561 17.527529 3.971840 
-19.898966 10.524882 4.112079 
17.700531 17.097565 8.654623 
-17.920702 16.565384 2.841397 
27.018684 -5.041795 1.433207 
-27.651995 -12.074419 -1.246426 
-21.571913 16.251905 4.672750 
-22.256104 -8.406171 8.970679 
-24.464655 10.410120 5.874194 
-18.218559 -1.317754 -5.196016 
-9.115485 30.120579 4.018780 
-1.569192 25.210369 4.578131 
-9.623042 22.944386 6.414392 
-20.922304 -0.670129 10.326430 
10.113923 23.400158 7.921388 
-17.724154 13.906253 2.825699 
-25.065468 -7.944526 -2.971209 
7.388766 27.222977 -5.767359 
25.251936 -6.270068 -1.849144 
-23.154730 -9.376502 5.991446 
-20.267046 15.727649 -2.268440 
-0.783592 21.049109 14.664788 
28.982594 -9.017834 -0.045571 
-10.783731 23.828415 -4.665645 
13.671885 8.932678 0.701156 
-17.912106 -0.954851 13.124605 
-8.791623 17.190289 -3.550386 
-13.898767 23.997520 0.676961 
22.658087 -2.107807 10.259691 
-28.247162 -6.081357 11.880431 
-32.862339 -9.462976 -4.628520 
-14.635983 4.748828 -3.695606 
-22.848621 -12.201482 10.848483 
21.610907 17.991304 9.185888 
0.109659 20.488039 -7.176436 
22.376015 -3.276669 -3.330582 
-20.981417 -6.945683 8.528800 
9.423588 28.203562 3.410735 
-26.809071 0.047322 10.138542 
7.081092 25.755922 -3.714654 
-14.174130 9.707053 -1.119997 
4.854103 26.450169 12.013328 
24.159718 10.910339 14.279783 
28.650446 -4.819280 11.398848 
-21.606237 -13.060498 1.148004 
30.937952 -9.106871 1.006864 
19.332371 -5.642033 11.431421 
10.243279 24.372414 11.464043 
-12.874037 17.606510 8.320251 
26.258528 6.957312 14.206115 
-29.668547 -9.661769 5.075137 
24.351717 9.112446 3.362534 
12.724294 22.974243 7.849603 
-8.605409 20.330564 -0.696576 
12.140488 20.263393 -4.174493 
8.827149 22.211445 10.181314 
26.239100 3.080345 0.651500 
-27.964769 -13.939954 11.852212 
18.384794 19.872175 -5.714694 
-28.305017 -11.629516 5.807381 
2.370261 22.095089 10.506642 
-19.896687 18.381174 9.243827 
27.822380 -3.889799 3.287795 
-19.426155 4.649263 9.786857 
11.439445 15.288328 0.284032 
-5.565183 25.392357 -3.890712 
-15.904716 14.875333 6.381573 
-8.686064 21.958115 7.482735 
-16.211531 4.329319 -0.804437 
-5.839221 28.570721 2.339216 
15.017226 8.033854 -2.900497 
-10.492090 27.274862 7.570829 
15.483478 10.555735 -1.267658 
-16.347666 3.128460 11.009336 
-22.817732 17.242628 5.895434 
-25.875414 -8.333956 12.345615 
-25.136753 -4.574556 7.425467 
-25.907177 -2.885630 0.607476 
-12.544679 25.801600 3.432869 
-15.316761 9.832453 9.664105 
21.459124 -5.620619 -0.642168 
-13.133224 26.052296 2.922419 
24.642885 -0.315694 3.842179 
21.967546 11.841789 -2.654406 
16.260878 0.177108 -5.168774 
19.124514 16.979128 2.319121 
-14.041733 21.143265 6.204611 
-19.709387 16.084415 -1.255347 
31.291548 -10.707931 6.783492 
-12.532143 25.162893 4.291205 
-24.799597 15.804013 6.865118 
14.500188 22.499063 -1.353751 
-30.799593 -5.215464 -1.906800 
-24.676796 -1.192374 4.060715 
8.184859 25.865582 11.699392 
12.627085 16.057093 2.000505 
9.584088 23.349491 11.115844 
-21.874895 6.270777 2.553443 
-17.097488 0.743091 10.456015 
5.668103 19.040413 14.573377 
17.200226 5.613318 3.258203 
-19.931934 4.353213 -4.188158 
20.199385 7.561880 -3.127742 
-20.175285 5.334463 9.977319 
-13.228478 12.786685 0.894674 
-3.988906 26.280788 4.678875 
-16.659979 23.556654 7.303677 
25.347580 -3.302331 9.920403 
-27.947475 -3.612178 5.259058 
29.031782 -12.757768 -0.752127 
-3.145725 26.712564 7.043666 
18.144436 -2.811829 -0.918043 
23.956692 5.111845 2.403592 
-23.510311 -8.025614 11.050981 
21.249844 9.320095 0.531278 
-24.083454 11.525629 9.860565 
-20.604746 3.017559 -5.035429 
14.223631 23.314186 -0.716734 
-7.587687 30.318710 10.422437 
-7.172294 27.387047 -5.721374 
-14.437520 14.790864 7.366791 
6.037847 24.317026 6.341580 
16.954367 7.025905 -0.097770 
-16.285370 2.996711 8.744253 
9.192130 18.200188 9.656847 
14.066525 13.863725 3.325992 
-17.691116 18.104464 1.709380 
-17.105455 14.327763 -0.946891 
30.485424 -6.462831 1.461320 
17.355762 -0.770356 10.154509 
-20.023817 -6.863564 1.737591 
-13.093862 21.231888 8.993056 
21.650074 16.660107 2.685182 
23.945072 -8.221156 11.615491 
12.029750 19.123844 -0.680837 
-4.456628 30.726740 3.137840 
20.650440 1.764677 2.866154 
12.609788 13.858952 -1.255056 
26.627619 -12.944526 4.643373 
8.609132 22.679396 7.658173 
23.096411 7.678287 9.224936 
16.619053 4.272882 -1.324075 
-19.954500 -7.555554 11.599276 
20.872669 -3.095036 2.943057 
-0.071414 24.802044 10.044059 
-17.271772 -0.634560 8.994345 
-17.190550 22.884979 2.844802 
11.375690 17.643053 7.561821 
28.102236 2.652696 5.856819 
3.934771 32.452816 4.539142 
25.151382 -0.175935 3.065004 
29.258802 -12.550348 -4.315812 
28.338341 -3.297117 9.352180 
11.501987 21.587265 10.146337 
-25.710236 3.594864 5.866292 
21.910547 -5.398466 4.725609 
19.662937 5.985490 3.234415 
18.052603 -0.024344 4.904429 
-13.102868 25.164001 -0.343516 
-28.791241 -11.567189 7.171382 
22.880617 -14.209661 -0.336592 
-1.147967 28.652622 4.052185 
-16.452227 14.477493 3.992505 
-16.426197 21.078362 -7.338233 
10.376766 28.040903 6.421459 
-21.265511 1.208357 9.971717 
20.353153 -3.477259 2.347028 
-30.668745 -11.062811 6.253634 
-24.316051 6.495465 -3.021867 
19.028780 11.637841 6.089801 
-21.101030 20.520391 12.853470 
19.495470 20.214825 9.174774 
15.363836 8.726292 8.005639 
-11.666079 18.631899 0.643792 
22.156727 5.033921 8.282091 
-26.312874 1.980501 -3.084966 
-11.798705 10.792351 -7.403975 
-22.404266 -11.556491 8.385008 
-3.978961 28.170628 -2.856436 
-20.403591 -8.454085 3.237876 
8.075456 28.722351 3.897710 
-1.801599 26.901205 5.151265 
-14.459960 17.425579 -4.232228 
18.317034 18.527462 -8.501141 
-23.523857 16.977636 9.269535 
11.704807 19.926994 5.012986 
-6.698801 25.997606 4.608719 
-25.891893 -0.988401 10.535835 
-17.439119 -4.132896 -3.176899 
-17.442451 -1.970927 6.427405 
-8.772602 27.451029 10.988770 
-4.370554 30.200623 4.044197 
-9.994753 19.684231 0.123497 
11.282739 26.259457 2.866882 
-30.451000 -14.461040 10.146243 
-20.502777 17.225241 4.914997 
-14.731877 21.465937 9.745083 
15.850315 24.150690 11.494353 
-8.597488 28.219027 11.271444 
15.651621 3.180288 -0.201867 
19.300999 13.902827 0.002789 
16.390060 11.585638 -3.517957 
-0.476703 20.403563 -8.723177 
-17.491449 7.285992 3.552941 
-15.463565 23.137478 -3.216730 
18.259775 19.847672 -2.154831 
-15.828475 13.373993 3.166779 
12.515993 25.831156 0.971355 
25.842901 -14.417123 -2.248600 
-16.843920 -0.067290 -4.369127 
24.344490 4.711920 6.691302 
-15.735405 6.879033 -3.471742 
26.861401 -14.519048 13.914133 
-21.797604 -6.802386 0.843967 
13.842399 21.608469 0.516973 
13.413561 15.268774 -1.717824 
-14.266764 5.505633 -4.730870 
17.799574 5.519095 -1.216012 
22.097809 7.621946 3.151261 
-13.446909 13.840585 10.202305 
-23.719053 16.361080 8.522786 
-21.084002 -2.855425 10.395710 
-23.578024 13.856851 8.764339 
-9.489450 25.857632 1.883224 
-17.356668 19.169600 -0.628625 
11.752738 27.190884 5.942548 
-15.069962 25.997066 5.985149 
-18.805729 17.690107 0.185017 
24.670424 10.685385 7.612970 
-29.473782 -7.789330 -0.749535 
24.534763 5.227584 1.364634 
20.959167 -12.078983 3.050673 
7.286208 22.077648 -0.028710 
5.504920 22.116999 8.479547 
26.100899 0.535409 -3.046342 
-24.496971 15.783703 3.531774 
27.690689 2.600317 9.775132 
14.484200 10.565717 7.505705 
9.124960 25.027374 9.362014 
-22.182863 5.255245 9.722504 
25.861622 5.444866 3.913693 
-19.851221 1.162758 6.612939 
-7.711261 24.485104 4.132682 
22.872913 13.623356 3.955051 
-10.732454 19.061630 0.420024 
-23.026382 -4.050381 -2.539354 
21.080311 -9.377748 8.851181 
-0.775605 26.673767 6.798950 
19.188044 -1.159659 3.152096 
-25.201982 15.318112 4.898808 
-18.082178 -5.164186 -1.454742 
23.362799 -8.942621 7.686578 
-22.377468 -4.848348 10.227005 
-0.995326 30.892181 8.561844 
-23.763554 2.414711 9.828480 
-32.619987 -9.373516 9.838749 
-21.974722 -2.969492 10.598404 
24.449884 -9.157985 1.588716 
-21.563196 0.323150 10.315837 
-25.263983 -4.702514 10.248840 
-24.852652 -5.423517 4.286906 
-2.889756 24.936937 7.016768 
27.938742 -9.624393 12.524858 
-17.862560 12.688203 1.786093 
25.429350 5.909472 6.125760 
-13.097796 21.354584 9.758863 
-24.409752 -11.453421 4.552323 
-11.529810 25.788120 -4.991297 
-24.074070 -9.282479 7.290352 
12.467954 10.888406 -3.843079 
-1.194399 26.906151 -0.185396 
-22.679468 -4.342505 -1.563339 
19.900858 -3.405054 -2.485102 
20.962807 -7.497067 -1.155297 
16.670076 5.471112 5.188699 
-20.645193 -1.995141 2.384514 
17.577831 17.351246 2.282667 
24.769730 -12.770257 10.808535 
-25.867500 6.740698 11.146089 
-18.831078 -3.730758 9.269951 
-18.479738 -0.847863 -1.665402 
11.683916 25.590246 -5.109026 
27.200937 2.296003 3.530789 
15.450602 1.943226 -1.905461 
-22.178879 -12.872499 -0.390819 
-23.837475 -2.611293 -3.955598 
-17.910656 8.053390 -1.477052 
-25.235466 15.016423 3.997587 
6.232945 26.694645 -2.409929 
30.677900 -9.389718 -2.039787 
8.786630 24.494030 -3.955924 
-21.309555 9.691023 9.205211 
30.974304 -7.654584 0.228258 
-24.314026 0.344167 3.919100 
15.520127 24.449335 7.653654 
5.832154 27.043961 -8.130501 
-0.012225 29.227814 10.775168 
-16.442118 4.172644 4.330304 
-27.783308 -5.908034 4.726990 
20.430504 14.753828 10.052837 
16.922470 14.411327 0.439566 
-27.356804 2.806752 8.267430 
20.442577 12.062340 3.360391 
-11.558876 25.178288 11.472422 
19.513699 -4.437300 14.122011 
-23.387842 -15.213500 -1.313273 
23.900759 10.409845 7.419338 
26.502327 3.179098 -2.191213 
16.564590 21.314770 -8.875213 
-25.350882 11.571223 6.875135 
-30.353855 -12.265054 1.615588 
18.329805 20.540953 14.466441 
6.604095 26.611856 -1.541195 
-19.845037 2.902437 8.905526 
22.678770 5.616982 8.503711 
14.862248 12.913481 0.979446 
-21.324881 -0.521056 7.534989 
-23.249409 3.522875 6.779933 
17.162008 17.215370 3.012636 
7.007796 21.870180 7.590333 
18.455029 16.970867 0.793464 
-21.030365 -1.600754 -1.365106 
-3.120257 26.777962 3.930046 
0.598003 20.814978 -4.461174 
11.856661 14.874993 -2.203846 
8.270488 23.655018 4.179864 
-10.190306 26.684393 -1.200441 
-18.211906 12.102026 2.172306 
-20.590746 9.871862 5.928560 
26.578667 0.944904 10.347840 
-17.285229 12.622231 -0.413790 
16.509911 -0.853729 0.336159 
-11.355956 19.988449 1.779848 
8.357246 19.021364 -3.254014 
-14.664159 10.116690 -0.639613 
-14.087836 23.365841 1.221882 
-23.206951 -11.706564 1.132226 
-22.296366 3.028434 4.081405 
12.543490 25.608368 -7.376565 
5.808683 19.693308 -4.061519 
29.743223 -3.526899 7.428292 
-29.302538 -8.601389 12.869790 
16.862455 11.179214 -4.652221 
-7.444359 31.008224 8.582271 
-21.395683 5.308150 -1.904132 
-18.839527 -7.287237 -2.020438 
-19.309921 5.755260 1.834083 
-4.904872 28.206129 5.122849 
-4.780117 25.160408 -0.248236 
-6.379515 29.079659 13.862541 
-20.720219 -3.627830 2.821447 
-14.585918 9.283304 1.566532 
-17.406137 -1.487773 -5.073414 
-29.201563 -6.072279 4.998158 
-20.986479 -0.004434 3.359662 
9.503550 25.851511 2.489239 
13.727469 7.132689 -6.952052 
-0.566604 24.700418 7.574475 
18.050301 -2.597329 -1.681159 
4.009129 28.630058 13.075553 
21.017309 12.886600 -1.609952 
28.408285 -12.709813 1.647218 
-8.709409 25.006969 -9.331964 
-31.149355 -9.104083 2.204956 
-19.266506 -4.634792 1.911772 
-23.894085 4.144798 5.148447 
-3.468312 25.961950 -2.982187 
-22.416056 18.148348 13.565292 
-3.140179 23.138826 -2.310967 
30.287926 -8.607513 1.248565 
-18.362646 18.045261 0.716391 
-0.192862 28.337751 -3.892631 
0.320258 25.854963 -0.457888 
31.637899 -4.731662 12.580826 
-20.405653 6.663152 9.978439 
27.196465 2.591141 -2.895758 
-14.176018 8.646487 -0.150228 
18.069761 3.430601 2.926241 
-10.025127 26.164968 8.632654 
4.446120 28.562887 14.177113 
20.512840 18.050337 5.941375 
19.667854 9.665958 9.034380 
20.516809 4.134154 4.900386 
-15.312423 22.648735 -6.656024 
-24.986586 -8.484750 3.873664 
22.510962 -11.286095 6.486410 
-20.513176 -4.397678 -2.690679 
-11.944210 14.744825 14.692719 
-28.732258 -12.308365 2.893807 
10.337302 13.911064 -6.010077 
19.474398 12.616129 -3.499268 
-24.896271 3.846705 5.765396 
-10.239353 25.664431 7.971196 
-0.000201 27.589804 8.374969 
0.665852 28.629770 13.064985 
11.822167 26.837463 -0.831843 
14.968699 11.366537 7.292594 
32.371616 -8.268546 13.942122 
-25.701313 -14.910822 14.435774 
16.597229 6.686128 1.737167 
23.235600 5.076592 8.519612 
-13.937613 26.402317 12.603415 
-20.151905 2.443160 6.551666 
17.072975 20.229002 10.836867 
8.947203 26.502413 9.907257 
-6.200912 28.647165 11.223963 
-2.201469 29.718519 8.329967 
-3.153178 23.286106 0.210105 
-21.861832 8.023695 9.570962 
-22.210218 18.768721 9.491874 
-20.801947 0.201056 1.880532 
-19.541233 -6.598606 11.824945 
-29.519476 -1.833461 12.350318 
-31.519733 -14.104987 12.455009 
-27.312857 -9.884083 6.234358 
19.975931 6.909965 6.902415 
10.315089 15.729105 -3.589070 
20.395882 -8.521892 12.720887 
30.925573 -10.532771 11.214420 
-0.402038 27.228464 12.267371 
17.415619 18.499155 7.840816 
-5.209354 30.050171 11.544464 
16.415171 7.429432 2.253917 
-22.141550 -13.996113 3.660248 
-13.482122 19.746336 4.474771 
-17.568245 0.269185 1.808596 
-8.481572 24.355770 4.934241 
-8.461434 20.301661 9.585867 
25.364536 0.112109 -3.412303 
-26.940111 4.195926 11.642284 
18.484322 -3.768864 10.809539 
-20.601059 15.207821 7.623695 
-20.617544 -4.307126 3.201613 
