17.084116 5.958307 3.159203 
22.070459 6.861423 3.038846 
9.929215 19.091160 11.929688 
22.766222 9.672423 13.791301 
-1.831497 30.032543 2.211426 
27.307669 -10.361723 -2.598440 
-10.438643 10.241097 -5.659678 
19.904795 -3.190764 -3.436891 
-28.789206 -7.133728 -4.167064 
21.348553 -2.140023 4.422879 
-16.953077 7.083947 6.674481 
13.846653 6.001668 -4.007760 
15.417810 20.374590 -3.373686 
31.124779 -8.884003 -3.748991 
-12.776696 24.715000 -8.572841 
20.719133 13.835033 -7.965777 
-15.025672 -0.445471 0.916311 
25.718040 4.436448 -3.977031 
27.870026 1.375849 -1.249455 
-17.430717 -6.421565 9.487266 
10.210583 26.617060 3.172738 
24.284676 -3.844513 11.024972 
-4.824080 15.810106 8.283963 
-8.132290 21.599867 1.580992 
-11.738631 6.577199 -6.985077 
12.804222 11.025076 -3.634681 
-1.677224 26.453434 1.780949 
21.510546 -0.144953 2.946814 
-28.552414 -13.190923 -6.309013 
18.310509 -8.015282 -5.509780 
15.792549 2.702410 6.877644 
16.226351 11.489598 7.110450 
-23.782135 -7.388802 -2.196746 
16.391481 -5.460815 12.462510 
-13.388016 4.859457 -2.440438 
20.549545 13.214127 -3.424615 
-14.326253 15.922898 3.188638 
-24.031796 -8.789203 1.171057 
14.268958 12.140451 2.637144 
19.969387 -9.931095 6.839748 
-18.400343 14.484072 3.967148 
4.228575 21.499001 4.796451 
-9.331135 10.064389 14.695571 
-15.665937 8.867143 9.351129 
-5.690865 25.043085 2.852960 
-13.300613 13.681279 3.010561 
14.639485 22.665958 -9.090015 
-24.262499 -17.113451 -0.013936 
-27.264059 -7.542355 3.702718 
-8.155670 26.455727 4.880589 
4.923713 25.475056 6.474406 
-6.084714 28.873331 1.858332 
-19.953768 9.306437 5.065905 
26.639017 -6.718463 -1.513715 
13.710905 20.645674 5.624890 
-10.170723 9.568628 11.711358 
-7.130305 29.012518 -3.275651 
-23.881750 -5.694346 1.209266 
-25.387737 -1.201785 -1.110320 
3.669695 28.733271 -1.677536 
19.988180 6.303316 -4.991646 
22.094212 -4.562679 3.682622 
9.194645 20.730137 -1.157251 
-25.824356 -10.224078 6.806594 
21.253334 12.453936 12.674043 
16.690619 18.893681 10.581124 
-20.538965 -9.499692 4.322861 
17.328833 0.457317 -3.485613 
-19.368891 -1.189895 10.884109 
-26.641855 -4.419598 -0.231131 
17.402281 -0.732339 3.813689 
24.005566 5.236097 4.293465 
9.609549 14.355123 -6.824654 
22.826605 -16.414564 -3.553286 
22.254801 -3.391203 4.031787 
-19.414783 11.558339 3.377939 
14.034754 23.327728 -4.369599 
-13.546472 18.109777 13.935940 
11.003530 12.925224 -3.656570 
28.935423 -10.354197 4.798177 
29.605816 -12.012535 4.643596 
7.520576 28.136555 -7.391103 
28.060152 -17.418842 -0.598802 
25.631836 -6.520637 5.120260 
-1.204224 23.688749 -1.318260 
-13.835004 20.050257 -0.123102 
-20.164480 -8.914261 10.346345 
29.535654 -3.416377 -3.874285 
-11.717061 20.208532 9.685712 
4.224395 22.590647 14.540195 
-18.747084 13.431993 9.914809 
4.849660 29.184912 4.837857 
-17.722372 -8.188392 3.907274 
-24.586351 -6.929752 6.083880 
-12.382307 15.169124 2.609597 
-27.827141 -9.164907 -0.524119 
-15.894700 -4.250265 -2.009742 
-14.542532 -1.458112 -3.353978 
-12.586791 15.190432 -6.760070 
8.165343 18.788774 7.350802 
27.585367 -7.767421 11.065347 
27.572308 -4.618194 4.821609 
-16.110592 15.346188 0.171511 
23.654701 -11.926530 7.491698 
-24.265619 -3.466628 0.772414 
8.768122 25.014589 -2.434856 
30.190529 -5.722002 -5.124668 
-7.120048 28.678335 -6.269627 
14.580753 8.245075 0.874473 
-18.881336 -14.280404 0.523296 
26.418154 0.424434 3.114623 
-1.185891 30.128963 -0.107450 
-13.026641 19.048889 -3.071581 
4.502429 22.460712 4.403727 
-22.612476 -16.112955 4.103778 
22.210340 5.902491 -1.669924 
-0.012913 24.676203 7.787090 
-25.200504 0.826643 7.728926 
8.301250 16.425411 -6.656872 
-10.936258 26.759018 -2.246078 
-18.730833 2.295474 8.356393 
21.074217 -4.712408 10.151845 
0.508589 25.623043 6.345705 
-13.805947 15.271302 8.380963 
-20.959618 7.102895 9.581787 
15.378171 16.587070 -1.148008 
7.083473 18.045424 -7.130082 
9.847848 20.956440 15.456305 
26.608658 -12.074835 5.525955 
16.959866 9.724460 -2.486311 
-17.336021 6.346108 -2.015899 
2.198959 30.331448 -0.254782 
-11.781640 20.018345 7.353619 
23.948732 -3.061356 -2.986870 
4.304423 23.099930 13.703434 
-27.090868 -7.277330 -0.691282 
25.954050 -4.578680 4.609529 
-12.862175 3.221408 -5.026756 
-14.899938 13.576364 -5.630900 
4.682304 19.915276 -8.843170 
-9.019541 22.185354 2.085182 
28.564745 -1.286819 -0.873212 
27.861740 -11.399656 12.298617 
-3.323407 28.607597 -0.215597 
15.174206 3.015739 -2.770902 
25.090382 4.226027 1.259540 
4.727536 25.336567 -2.606732 
-13.653722 1.943705 1.305597 
-19.271717 12.558866 -5.079476 
-3.282745 24.358438 1.134045 
20.882927 11.164540 2.129956 
-21.036592 6.321761 7.953634 
-23.347393 6.668752 5.366449 
19.285219 3.888997 -0.281398 
10.716107 21.615221 -5.330701 
-18.704731 3.969309 2.375175 
-5.857002 20.902178 15.331223 
0.804870 26.562622 1.326734 
2.828782 30.497217 -3.100288 
-23.834991 -12.354965 4.783047 
13.356405 15.108958 0.842052 
-20.546820 -1.745484 11.176538 
17.515659 16.604786 -0.948966 
-14.235467 17.903736 7.867096 
12.308608 11.588187 -3.796664 
-18.501011 -9.239813 -0.475071 
11.869166 25.280840 1.237460 
21.291704 3.133605 -3.617331 
11.816996 18.167133 7.074125 
20.379675 6.425227 9.257899 
-23.877209 -5.557114 5.681843 
4.222046 27.280132 -4.286086 
25.377108 -13.409578 0.521781 
19.923151 10.149896 -1.666093 
-28.938745 -10.819775 2.606019 
23.826828 -0.918170 -3.562411 
4.748076 24.473473 9.777999 
28.988657 -13.890087 4.470520 
-16.191696 -1.457074 1.528023 
25.876490 4.193275 -5.107130 
7.381389 18.671280 6.716074 
-10.310967 8.830856 14.618681 
-16.409538 7.678440 8.781981 
-14.781879 22.890284 -4.643476 
23.576159 -3.641740 4.761040 
-24.529791 -8.115594 10.324939 
-3.303046 25.610077 1.419173 
-15.338721 16.432123 1.208232 
18.425901 16.681168 7.397789 
5.659344 24.764029 -3.479186 
-0.044923 21.447561 9.521080 
22.123697 -2.641592 -3.563477 
27.698271 -0.050666 10.754013 
8.551935 22.960712 9.431094 
21.695297 -5.634048 -2.129117 
2.849313 18.429716 8.636802 
-13.917509 -0.589561 -5.872484 
13.104202 12.928638 -3.339143 
1.540876 27.032528 -2.220067 
-15.978325 0.196285 -2.496638 
14.547142 20.142134 2.995952 
0.560427 24.066082 1.940933 
-14.903714 -3.224218 -0.950127 
31.620201 -11.409172 -2.325587 
21.641613 6.376179 1.295572 
-2.225615 26.799782 -4.141818 
-6.463891 28.013702 -4.440974 
5.843117 20.175434 5.710900 
-23.494501 -4.897177 5.044383 
-9.747434 19.056099 -2.205301 
25.782784 -3.686208 4.634797 
12.279065 18.090303 8.031336 
12.323318 23.329521 3.797024 
-13.911144 -0.504019 0.216793 
-16.533102 7.602684 -6.272612 
25.571983 -11.310202 6.196418 
-15.795976 0.540088 7.687990 
-4.917265 13.928886 13.038446 
-0.712088 25.106119 4.106044 
21.141100 6.725395 8.300930 
-16.897564 9.972000 10.040469 
-4.314064 19.337139 -10.174494 
17.479536 -4.899117 -7.118400 
-23.782568 -6.497419 -1.952883 
-17.181807 16.114943 -3.898654 
2.630439 24.112400 12.156767 
-5.763931 28.062510 -9.474062 
-15.569547 15.427616 -5.691473 
0.836665 28.296835 5.678396 
19.558531 -0.472472 -3.953345 
-10.796533 20.843117 2.236636 
-22.382074 -8.735171 4.608655 
8.445430 17.713255 -3.991872 
25.457115 -0.726183 9.556582 
-18.940741 -14.117340 1.274562 
31.123701 -8.146821 -0.005863 
5.358787 20.418325 -5.430749 
-18.387070 8.118049 -5.721070 
-14.150138 6.428518 5.397030 
-22.330185 -15.508713 5.015502 
-7.167634 18.931128 9.645375 
-20.981155 -2.311662 2.954181 
-11.510427 11.689340 -0.641906 
26.891336 -0.834003 4.766103 
-0.432182 21.840334 4.137019 
-9.970538 16.101494 -0.478204 
-18.011730 14.433110 13.960858 
-18.538710 12.260730 10.211828 
11.916265 8.284781 13.010920 
21.293955 12.707539 10.694463 
6.072940 19.680813 -5.876214 
10.646361 21.453653 2.438519 
-18.820690 -5.168906 -3.527582 
-23.141792 -1.834763 3.931133 
15.368154 21.035769 -4.261134 
13.636753 8.208375 -0.879081 
-26.277971 -11.293939 -1.479353 
-24.418486 -1.661932 9.926086 
-2.494232 29.410223 5.520694 
-20.923389 -7.884284 3.726143 
23.927490 7.546154 -3.282145 
-23.529434 -11.329558 5.388350 
-18.652147 -6.304415 8.623416 
-5.046434 17.339830 6.890847 
-0.108916 28.464468 -3.453003 
29.663979 -6.621311 12.985877 
29.259558 -11.078945 4.853456 
-17.076399 -2.398604 4.321983 
-16.871117 0.433039 1.357222 
1.432853 23.384573 9.508841 
16.076376 17.477051 1.151774 
22.420681 6.828844 3.701287 
11.193063 22.957781 -4.376609 
16.383032 20.554113 -3.395016 
-11.773511 15.493621 -6.744484 
20.725868 -3.290059 -3.435822 
13.950690 13.808475 5.118609 
-24.762236 2.533987 -6.135315 
1.565055 27.518887 -1.375720 
30.649715 -8.616976 1.398154 
21.883600 11.591654 6.412212 
10.106415 13.105449 -8.081025 
-19.868223 10.751717 -3.630452 
-17.409374 -3.186095 4.123616 
6.373506 25.805033 2.933957 
-1.842318 25.173965 -3.578416 
-12.008794 7.302465 -0.520035 
11.191278 20.287132 10.399455 
-11.682251 19.980906 11.449740 
31.603146 -12.794816 1.138491 
-25.676411 -13.779415 5.986263 
12.104930 19.835773 11.164454 
27.101748 1.353003 -2.048838 
-22.547438 4.150370 -3.740672 
21.244776 11.971174 6.196895 
26.458261 -1.533427 -2.250614 
-20.992014 -8.641466 -2.658637 
4.752551 29.932024 -4.737978 
5.257429 26.234604 -1.741112 
25.788744 3.913584 0.172568 
21.165606 0.871123 2.377078 
-7.224922 28.496418 -1.031090 
-6.195343 27.783506 -5.213172 
15.048506 0.795242 8.976922 
-17.869377 0.335182 7.191143 
-12.565466 19.226910 -2.292542 
21.503086 -15.742380 1.094312 
-13.695642 18.372076 12.888690 
17.605927 18.850109 -10.018228 
30.185526 -11.860291 3.830866 
29.175245 -11.805383 1.992992 
-19.779861 7.441498 -0.919156 
-18.637514 1.468506 3.525175 
-16.501007 10.112386 -2.979073 
2.969995 26.175903 2.995576 
18.859043 16.923851 -9.777450 
19.000059 0.346071 2.002822 
-26.917664 -9.595197 6.083025 
7.321894 23.026318 -2.400345 
14.256794 20.013680 3.801933 
-15.825212 15.822120 0.709426 
24.891441 4.942739 7.200624 
-22.361042 8.803589 9.163555 
-12.944036 18.765917 13.065242 
-13.886972 6.822372 0.704922 
20.284996 -2.245535 7.771072 
-6.813866 24.418139 0.802961 
-12.972923 13.486648 5.955384 
-3.138171 29.489361 0.337070 
-7.599205 22.647573 -0.650159 
28.982229 -2.319968 -1.935718 
18.363943 15.633080 5.481497 
25.067911 -2.018457 10.512473 
-24.492826 1.630973 5.658977 
-19.416183 -3.972208 3.283995 
-22.735008 5.650325 -8.584323 
-13.792608 19.939405 0.625867 
-7.102304 12.405118 13.481527 
-4.607149 17.560642 6.268404 
-12.337790 13.449487 6.966314 
7.639729 17.403536 -6.644555 
-14.517306 9.826550 0.319225 
4.552526 29.918970 -0.491639 
-11.107381 26.866566 -3.075826 
22.594046 0.682507 3.103894 
-14.059140 0.004892 0.884461 
-8.810543 19.436832 7.850694 
-20.111202 -5.839571 0.548380 
-21.164400 -4.760295 2.780396 
-22.802938 5.355923 1.840620 
26.901356 -16.181438 -0.686180 
-20.145090 0.608460 10.591937 
22.138908 -5.035598 3.087231 
10.355003 26.393612 -8.183592 
-11.625848 9.962187 -1.448843 
-0.933228 18.959324 5.989583 
-18.078259 -0.387053 3.843933 
16.021072 -2.134661 -1.308254 
13.307915 19.069120 -5.542001 
-15.040919 -2.163310 10.965270 
29.817265 -7.069258 0.484569 
-16.446901 2.156660 7.969215 
17.484682 10.737813 -1.291448 
4.268795 21.174282 -5.377879 
-8.036089 23.890694 1.794003 
-22.176849 -4.558257 5.493780 
-19.234137 -4.395012 3.917737 
19.500973 12.953017 5.582232 
-21.676952 -7.238317 -2.444288 
-24.799133 2.566750 9.806896 
26.896059 0.191945 8.322963 
-13.910877 13.022853 1.578574 
-16.986540 -1.459321 1.746185 
-29.426029 -11.001207 -3.693691 
-17.847099 14.176568 14.860339 
9.796293 27.849049 -4.038346 
19.060890 9.922416 -2.785974 
-0.258255 29.258720 6.026448 
1.459472 20.484270 5.059397 
7.044756 28.965137 -1.414709 
0.269049 25.329088 7.065436 
-23.719627 1.418924 1.527874 
15.091480 9.942729 8.984032 
-22.702547 -3.602704 9.545385 
24.772018 -8.383085 -2.827119 
23.951803 -5.251609 11.194167 
-8.847480 19.423948 -3.246478 
-11.821858 20.818024 1.845089 
21.545540 5.555326 5.377544 
-22.857830 -4.129708 0.424049 
7.740669 19.433752 7.076461 
0.705508 25.211325 7.759739 
-24.040333 -2.216051 0.722239 
-22.107584 2.888927 -4.341995 
-24.167242 0.109828 1.603045 
-16.133957 18.827904 -3.126091 
-11.598034 9.256787 -1.854402 
18.354866 8.868436 3.767388 
-1.288106 20.384413 8.036798 
18.260218 14.252624 0.682878 
-26.981533 -4.554765 9.961828 
9.893848 21.239456 5.547648 
-6.957342 23.143641 8.807018 
1.611790 27.779436 1.334435 
16.701065 2.435824 4.836508 
27.540897 -1.121817 6.275756 
20.488911 -12.616799 -0.158178 
13.644590 14.026346 2.006308 
25.614006 -6.909738 -1.982354 
19.941898 -11.231445 -0.051858 
-3.053406 26.989046 -2.824196 
-18.956514 -8.328284 4.835277 
-5.900525 15.658613 7.949823 
21.395828 -11.873760 1.886403 
16.686638 -2.321448 7.726858 
-0.729798 24.309261 5.433431 
19.055199 -5.706305 3.105557 
17.009228 -3.463373 2.650413 
13.659504 16.810186 0.632404 
18.939816 3.880388 0.554026 
-16.328714 16.499140 12.549604 
-8.410088 17.778589 -3.252700 
-11.752616 19.070120 -1.947453 
5.715080 26.695616 0.605251 
15.727663 3.333090 -2.279362 
-1.258778 21.383854 7.906598 
-28.427788 -5.953275 -4.163774 
3.745319 23.064314 -1.816065 
11.314175 16.219105 -1.750627 
8.149661 27.801453 3.527368 
19.113176 13.500650 -3.429027 
-18.158140 -0.193285 10.119496 
-4.469444 21.133762 8.857986 
-18.369947 15.096608 6.244672 
17.614752 -3.419048 7.342902 
27.974266 1.225712 -2.559614 
-13.384475 9.052251 6.643038 
9.479472 23.270662 9.232628 
16.828577 3.128269 -2.272503 
22.477396 9.193336 -1.714141 
25.479227 -17.349125 -4.101211 
25.450539 -3.063784 3.682864 
-21.787008 -11.665625 13.378411 
22.293236 11.315048 11.275381 
-14.583560 17.520498 -5.777102 
23.086142 7.357431 -1.336604 
25.647007 -10.965452 8.243410 
13.520191 19.495415 6.329067 
-0.532342 29.607117 -1.853065 
-19.127293 6.126444 2.956620 
-27.042795 -5.106420 10.634094 
-20.189775 10.753178 -2.136533 
-24.366201 -10.029212 -2.336174 
14.843177 1.412118 9.462901 
15.684333 19.517538 7.766398 
29.383026 -4.795912 8.970459 
18.507298 16.088869 10.445520 
24.026302 -8.886026 7.913496 
-16.648243 18.613861 -5.879742 
13.634251 5.334801 -7.488192 
0.149141 21.754591 10.211373 
-23.504150 -13.905321 2.383278 
-16.335455 9.034990 2.355959 
3.513624 27.488169 -4.470561 
25.288998 -10.240143 10.468060 
-29.453579 -9.213078 -0.347596 
7.098477 24.125908 2.099208 
17.867422 11.024675 -0.183460 
3.827219 25.406651 -3.773565 
20.591417 6.838942 -4.724754 
-14.474145 3.334481 8.270822 
14.817364 -0.350419 13.086015 
30.566980 -6.853589 0.032751 
9.959667 24.440125 5.016627 
-0.620099 30.486603 -3.590806 
-25.784901 -0.903792 -1.790337 
-23.797466 5.643318 11.091125 
3.008609 29.131306 5.275455 
-10.613057 19.319916 -4.168280 
12.088973 17.531754 -4.123729 
-9.726422 23.182041 0.950129 
22.741617 -0.768801 4.235398 
8.799792 12.293179 14.961627 
13.118608 5.560023 10.038266 
24.165152 -16.574015 -0.316164 
-18.880875 10.447694 2.879344 
-19.435135 -9.593065 -1.860221 
-14.968186 16.846127 -5.873695 
21.797224 1.755008 6.867576 
22.293776 -13.576039 2.657930 
-18.524498 -8.408138 -0.216457 
-18.610285 -12.364074 3.009361 
19.029543 9.690174 -3.517253 
15.581149 21.261488 -2.924636 
-13.402696 1.311462 -5.745687 
-14.354491 20.839722 -2.907771 
31.047514 -14.217235 -1.709795 
12.471270 7.169517 14.702409 
0.369022 25.898727 1.975567 
21.359680 -11.598004 6.895494 
-16.095900 15.972603 8.917658 
18.670494 3.439078 2.876637 
24.462782 -2.191844 -3.087557 
-12.125774 18.068531 10.326923 
-13.873922 12.462273 0.936612 
-19.910454 8.116113 7.349760 
-29.396370 -12.288651 0.198074 
-23.022036 1.531916 2.303736 
20.068150 4.338904 -4.121344 
20.996559 4.681756 0.556863 
20.591221 1.979554 9.716606 
12.949926 6.141053 14.648369 
17.628765 14.610069 10.689842 
-21.375799 -3.796334 10.709792 
-10.642483 27.262354 -3.890025 
11.683293 20.439800 11.502914 
15.504222 10.991182 3.720216 
-15.648078 4.715988 1.187987 
-23.556856 -3.335175 -1.946497 
-15.141107 -0.864571 9.524837 
18.122793 -7.907461 -3.411144 
11.304076 10.767786 9.776987 
-12.857677 18.120291 1.599297 
22.979370 7.896232 4.342865 
26.431095 2.581134 13.199491 
11.912746 16.777721 -1.640804 
13.043697 9.501588 7.418227 
-0.417931 17.757446 7.532306 
18.774467 -3.332132 3.581140 
-22.737385 5.598126 -4.112818 
-24.600742 3.122212 11.575613 
-10.103312 17.275810 -3.119953 
9.664868 26.729816 -8.385454 
-23.041391 -12.472708 4.918443 
16.269157 12.212667 8.815464 
23.905502 -1.649029 -3.415704 
26.386213 -9.193077 5.764064 
-19.581846 10.470574 0.445810 
5.983661 22.205435 -3.700908 
-3.384496 14.301900 14.979759 
20.379387 8.713704 -4.469462 
6.944230 17.425440 7.401234 
5.853971 21.123417 -3.410808 
10.981878 12.046549 -0.902071 
28.810606 -2.079820 9.991580 
-20.738564 -2.269333 3.666747 
20.384869 2.465376 2.084908 
29.158569 -8.392967 7.616910 
-23.928349 -13.962111 -1.636011 
-13.983840 13.040403 -2.266579 
20.128584 0.967800 6.807147 
14.658510 18.156525 -1.845112 
-7.706803 16.886337 6.215274 
17.259878 12.979101 9.438625 
0.969836 17.203249 8.525039 
-23.701796 5.619662 12.049148 
-24.278242 2.383360 -1.214260 
23.114601 1.851126 2.353878 
-0.844318 22.592825 3.963436 
7.403129 27.538420 -9.110238 
28.082914 -14.063483 5.021882 
23.041174 -2.879796 -3.314230 
24.471527 -10.720286 4.104453 
12.036777 25.741865 -1.905676 
2.825038 27.871910 -1.064077 
-15.982939 11.773653 3.298197 
-9.413900 27.276960 1.473449 
2.116149 25.871044 4.474888 
18.723688 -4.675460 5.802236 
26.546242 -17.322607 1.287821 
-21.732445 2.625395 2.061052 
22.375765 4.056811 1.950137 
19.965673 -12.945698 -2.824516 
20.790401 9.598887 -3.158081 
18.181543 -1.080345 -1.846291 
-11.729010 25.780972 -3.888113 
-16.132111 16.424837 0.185119 
28.819777 -2.877067 -7.315271 
-18.730883 14.040048 4.684025 
22.148613 -1.715408 -3.794536 
28.446310 -2.989419 6.454820 
-15.718581 -4.590717 -7.302650 
27.463629 -3.047441 4.467618 
-24.696070 -7.280225 -1.901613 
-21.692814 2.466383 5.582103 
15.809730 16.581442 -3.520424 
28.900150 -5.113432 0.418262 
27.158394 -4.722351 11.202117 
-6.446764 26.715080 -5.310157 
25.881189 -2.650831 4.179068 
21.875830 3.755902 -3.390196 
-5.477881 29.306929 -1.253169 
-18.393536 -0.212757 6.816055 
10.882709 20.790548 11.834666 
13.190443 19.464163 4.402593 
-12.419785 6.611699 -3.116866 
20.656857 12.907784 13.767197 
-13.714087 18.207121 0.682217 
-4.001508 28.514500 -9.168630 
-19.145788 11.895856 8.875860 
-21.234877 -5.574078 0.165884 
18.785831 -10.012734 -4.137288 
-7.704912 21.285265 9.353307 
-3.931595 23.740171 -1.589087 
18.437111 5.977924 9.259732 
-1.130786 29.083855 6.116854 
21.611954 -1.267677 3.329107 
-26.990591 -15.514622 -2.558516 
17.827766 16.171040 10.955905 
13.166391 9.291756 -2.993281 
24.793785 -13.652922 3.460759 
18.331017 16.251936 6.124774 
21.040373 -8.671411 9.889478 
-13.210633 5.695072 0.443776 
23.789722 -7.791509 3.583709 
14.471106 8.947972 2.400700 
-24.378252 -16.950806 -1.104994 
-12.093635 16.770988 3.543565 
-12.748638 4.490376 10.579646 
-20.371578 12.023711 11.493824 
-18.836424 13.673544 3.729574 
-13.030447 15.628390 8.545025 
-14.370328 2.830899 -2.491754 
26.489222 -5.143900 4.557808 
13.862272 6.472661 6.012294 
-19.481981 -9.130486 4.555301 
-16.899157 4.662559 -2.750032 
-15.529609 9.209676 4.885425 
16.353662 8.318551 1.200599 
-27.841730 -7.521878 -0.207129 
19.831844 12.700675 3.755193 
-13.147121 8.686807 8.353118 
-2.835343 29.129684 -1.255995 
14.737487 23.042473 -7.886207 
-18.930109 5.392996 9.913980 
16.880917 16.503056 -3.700984 
14.225170 15.512189 10.963885 
18.850386 -5.432691 5.094399 
26.479532 2.769106 10.944333 
-13.252529 25.516251 -3.149330 
-3.450847 24.917610 0.247175 
25.132624 -8.715359 5.688911 
-16.518229 9.814356 2.906457 
13.145032 6.596764 -8.541480 
22.485773 8.779610 -1.017021 
17.874897 -5.703327 -0.518794 
-18.188805 -2.309829 2.703742 
11.835703 26.327085 -4.430871 
30.372044 -8.405195 2.159149 
-16.873163 -0.747873 -5.570004 
10.203307 11.299481 12.420269 
-5.947791 26.132725 -5.260237 
23.588793 1.680289 6.749589 
6.581719 22.172112 -1.602128 
-25.308064 -3.196652 6.412862 
21.894531 -10.500215 9.585192 
-14.937827 1.440498 8.114658 
8.795245 23.310175 0.217385 
16.863979 -5.962381 10.204707 
-20.870777 -15.095800 -6.042461 
0.481629 28.898664 -9.281011 
-14.996994 12.477668 -1.078247 
-7.632695 28.033281 4.091093 
1.005710 20.154211 9.911282 
-26.039110 -15.911222 -4.086843 
6.072890 19.894325 7.145464 
9.794337 17.510334 5.963881 
-11.213692 26.198874 2.179667 
23.199369 4.573796 -1.500856 
-5.843724 19.261139 10.336416 
14.253149 14.572561 10.794253 
16.721811 -4.857897 -2.864460 
-16.654804 -4.900360 -1.928996 
-11.564161 21.595911 1.868416 
-16.308857 9.408681 9.745028 
14.688737 19.998457 11.449116 
18.722965 -10.324167 13.768532 
-4.673900 28.440561 -0.774338 
-12.098639 12.666741 7.057523 
-22.516489 -14.512508 -1.633858 
19.130136 4.810999 6.236009 
-24.595377 3.146390 10.493100 
-14.055428 23.676329 1.225638 
-15.605897 11.693543 1.398459 
25.086843 3.170658 -2.782564 
-17.881289 -2.868104 1.997401 
20.355200 -6.923046 1.503675 
28.489368 -8.747397 -1.521905 
-14.118123 -1.250454 -1.023539 
-18.186810 2.690414 9.414802 
-27.539036 -6.597431 0.368767 
-23.132244 -8.965492 5.234158 
-17.903036 4.608171 2.874047 
1.401592 27.302732 0.749356 
11.212584 26.611721 -5.763093 
9.616765 15.560170 7.421213 
-15.583797 -3.720787 -2.494366 
28.411736 -0.122428 -3.884939 
1.742368 25.645779 -3.030893 
21.103956 -1.316680 4.211901 
-8.622344 10.847410 14.745053 
-10.435604 18.569166 -0.693703 
-12.371579 20.036631 4.698551 
-25.534002 -3.552939 8.080363 
-20.007761 -5.045062 -3.775652 
9.662811 21.619017 -4.618063 
-12.257756 25.663893 2.355607 
-0.725654 25.050720 4.926340 
25.850298 -13.256499 -3.062792 
-25.177406 1.888793 -3.396814 
17.108219 -3.894253 -7.242761 
28.587328 -1.535527 11.432384 
-15.674515 2.516962 3.643717 
14.031945 20.260628 12.417366 
-29.584669 -10.874740 -1.375880 
-22.408293 6.775235 -7.368190 
2.206136 24.936161 -1.362083 
-5.390545 24.727530 0.463773 
-19.263342 -5.068007 2.297779 
22.007900 -6.908154 0.075533 
-28.763762 -8.855333 -6.839432 
-13.640173 22.051744 -5.188588 
22.982813 9.056680 5.666267 
8.696997 25.194078 -5.523716 
7.080130 29.015648 -4.458954 
-16.099314 18.821072 -8.812154 
6.497556 28.028673 1.273624 
12.154648 14.791123 -3.073363 
6.388070 28.590057 -7.383072 
-7.759116 21.428759 -4.122571 
-13.161517 19.489098 0.029158 
-4.481488 23.523518 -0.939260 
-11.458210 19.630726 -4.432980 
-13.820547 12.011459 -0.993246 
22.130632 6.488130 4.310693 
-14.128041 -0.064023 -3.094998 
13.594224 18.027020 2.709579 
17.708536 11.300416 -2.620007 
17.614759 4.974851 7.252302 
-10.243727 15.068261 9.764337 
15.983173 9.449437 2.171320 
-6.296256 19.959728 3.905231 
29.645329 -4.789444 11.701673 
11.855254 25.268251 2.001635 
-12.790352 10.339709 5.553931 
22.237329 9.282024 1.987620 
-24.932096 -2.367604 8.484378 
12.411753 10.858678 -2.859067 
-18.865671 8.860250 5.967118 
-23.781326 -1.646654 1.787974 
-7.993224 15.003826 8.731455 
16.426300 18.859179 -2.175646 
15.569093 22.147903 -3.394509 
8.237990 19.279348 -3.106921 
9.500312 23.362183 -1.708983 
-9.236279 12.955767 -5.460721 
21.199772 7.133988 2.036115 
6.099697 29.591686 -2.027364 
-25.409840 -1.663552 8.387253 
24.567585 1.614810 7.699236 
10.795974 23.523445 2.774791 
-14.648290 -1.292214 14.016459 
-20.838291 -4.820270 8.162112 
21.495455 -15.344127 -1.907696 
12.195809 18.559273 1.001948 
-6.033312 28.623886 -2.478113 
25.585270 -17.090418 -5.593740 
1.577957 24.554487 10.906874 
5.102376 20.061533 5.425694 
-16.621576 15.843179 -3.199309 
15.943455 -0.979084 1.423964 
16.862329 12.099041 5.544653 
-10.106253 18.111963 7.723305 
-17.757011 -11.912084 -3.944704 
-8.823200 20.829878 3.318836 
-17.032583 -9.903657 -5.213827 
4.714207 20.788319 7.826229 
-8.419801 17.222422 6.162611 
-2.860758 19.716599 6.474333 
-18.356333 1.082701 -5.604223 
6.398233 26.536671 -0.808837 
-23.339689 4.375916 7.467994 
23.145201 -10.529658 9.999441 
5.164843 15.549332 11.694505 
12.743379 23.194553 5.013763 
10.679346 18.627502 -5.250904 
-2.828735 23.769657 11.452913 
25.346062 -17.672905 -1.830924 
11.815840 15.829844 5.653983 
-7.999909 28.662462 -3.704012 
13.417120 15.551364 10.736889 
18.789568 15.359867 8.320364 
-23.505095 -16.124748 4.321163 
-15.962749 -4.954784 1.188912 
16.420544 21.323212 -6.938697 
29.299391 -6.662360 4.909404 
-23.925859 -1.680191 8.364020 
18.149071 18.175541 -4.460806 
20.139885 6.476535 6.044123 
14.798137 2.101330 -6.928112 
12.889604 6.359204 8.871339 
-11.431108 7.428679 -6.181210 
29.315899 -12.545002 -1.461919 
-17.619724 6.370310 1.735498 
25.338701 1.132005 6.924141 
-12.193786 15.326457 6.437046 
12.886771 12.013510 0.331303 
-9.486727 13.492719 -3.070778 
-14.138767 6.041224 0.888414 
-1.506562 19.442471 7.566462 
-11.578966 8.832614 -3.596973 
24.900284 4.270275 6.429110 
15.047404 15.736619 -1.873679 
-1.483400 19.203598 8.316216 
14.022248 4.409264 9.276318 
7.020741 21.727682 -3.499746 
-7.528595 19.636097 9.271454 
-22.926771 2.022212 7.263847 
15.137647 21.751053 -1.327266 
27.248856 -14.169045 5.358327 
-5.899969 28.814411 3.234308 
19.771982 5.330577 5.209729 
10.892361 17.653484 -4.904346 
17.911650 3.834657 4.067402 
15.488512 7.786101 -2.704076 
11.327218 13.171928 8.782966 
28.967558 -8.236366 5.397385 
16.759937 -0.675224 5.486000 
18.180124 3.520584 -3.009822 
19.126038 15.638402 12.400024 
-16.050629 15.872097 14.969521 
2.352460 19.713606 5.576461 
-18.953222 -8.642706 -0.876355 
-15.701466 7.176672 -6.338373 
6.991114 19.494768 -4.498223 
27.283482 -12.596064 1.328835 
-2.037056 23.371567 7.414851 
-23.500778 -2.701161 10.166446 
-10.593106 18.420462 -2.055514 
22.343912 -12.525781 2.281346 
-23.666620 2.350747 -3.566447 
-13.793380 0.854095 -2.261294 
15.914563 18.770140 2.878167 
-23.505785 3.783306 -1.532476 
-12.732383 22.385399 -5.460471 
-28.261450 -12.488062 0.124851 
15.558685 0.315186 -7.763681 
-8.885848 21.737816 5.850897 
-21.606052 8.705288 4.942801 
16.265003 -0.708595 7.093029 
-24.513657 1.340907 -3.080860 
17.603987 3.752662 4.775314 
-16.251736 16.830545 10.522770 
-4.389456 25.374603 1.475811 
-16.618134 16.029016 4.502146 
5.839990 29.518900 3.049307 
-13.981341 6.394349 -5.536140 
-11.134245 17.524681 -4.479465 
-11.920158 9.804601 -2.341618 
6.299417 28.497705 0.666478 
15.502144 3.732263 7.149804 
13.061954 5.543174 10.982508 
-19.338079 -10.744139 3.850369 
11.526035 18.426462 -5.344957 
-11.346148 8.568120 -4.292486 
-14.779734 18.059376 0.043756 
21.573195 5.398933 0.230651 
17.480965 2.669421 -2.061723 
4.189022 24.236732 2.441681 
21.692064 -11.133205 9.173304 
-13.861130 11.401939 -2.999480 
22.173841 -9.774894 7.493791 
-6.180992 26.934898 5.102050 
7.524569 17.428265 7.954059 
-1.164658 20.804337 -10.339771 
22.713629 5.087902 1.397692 
-17.597815 15.628457 8.559241 
-9.717525 17.719063 -0.511429 
17.572258 0.226986 8.646721 
16.171869 18.417637 2.243066 
9.666657 20.541933 5.956100 
14.484177 19.277935 -2.035313 
1.408057 30.585886 -0.700562 
-22.894293 7.997613 9.477437 
19.440289 14.917835 12.970046 
12.308525 12.506493 0.647082 
12.026605 18.906740 -2.997356 
-25.568094 0.586400 12.186125 
-18.559584 13.782202 14.022570 
22.598803 -9.916073 10.105021 
-11.215466 18.682739 0.808926 
-15.774150 7.515079 -3.093312 
-14.220231 15.717670 7.791355 
9.586475 24.033884 -5.009727 
-16.248638 -7.637104 -3.005916 
-11.082755 10.141553 -2.905187 
23.941519 -16.869913 0.338272 
-23.271624 -1.359670 2.669232 
-13.809629 5.142131 -0.214516 
-19.130108 11.259105 8.416250 
3.505028 25.687801 6.475378 
26.492212 -3.846530 -1.330844 
14.109012 16.577053 3.927340 
29.779739 -8.454365 3.044788 
-14.502664 5.811990 -4.883204 
-12.421724 6.078394 -0.880931 
21.777233 -9.758283 -0.248763 
-16.171494 -4.256258 -2.717750 
-2.853576 23.952784 9.119617 
21.213905 3.423984 6.600519 
29.394321 -5.125405 -0.293907 
19.224115 9.907549 2.946138 
-0.042209 24.598396 -1.950378 
-20.024551 1.569911 5.349226 
7.983409 17.680315 10.214711 
27.307993 2.756051 -1.229746 
13.631548 18.651199 9.061374 
5.503367 29.262405 4.340136 
22.172857 6.724391 5.415903 
-16.264259 13.366148 1.066303 
-12.345638 22.300304 3.826103 
-28.883125 -9.650066 0.359401 
-8.195618 12.088407 10.603341 
29.099018 -4.845328 6.212602 
-11.825856 8.634767 8.330328 
3.899730 28.407682 -9.710705 
20.725304 -5.409365 10.051496 
-13.656155 21.990025 -10.539730 
-7.950468 15.494127 -8.209565 
-19.259541 7.195113 0.422322 
14.489352 9.762546 -2.417756 
-15.937487 1.075541 7.182477 
-18.112980 -12.867205 -0.482982 
-14.120739 10.205556 5.007119 
-8.559886 19.412981 -2.298546 
-26.428572 -6.861498 10.359480 
21.107046 9.984325 -0.647924 
-9.877308 12.286491 -1.487751 
-10.201268 10.723782 -7.873068 
15.301297 10.364911 1.970003 
24.346933 -15.199731 -2.838102 
-16.118725 10.094066 6.960003 
22.241312 -7.275568 -1.365434 
-16.714470 -9.586185 -1.925376 
-4.904045 22.221518 9.795876 
12.573804 7.065858 9.229848 
16.293810 9.991481 -0.088156 
-4.270753 19.554846 10.572936 
-14.069169 -1.455508 -5.186243 
-17.082125 -2.868187 -1.635177 
13.072943 19.159332 7.165592 
3.043177 25.416735 -1.297270 
19.781017 -6.439477 2.675856 
-5.420043 19.582439 4.378131 
7.107707 25.305405 3.479047 
-1.082920 14.961991 15.034715 
3.101366 28.226297 -4.452398 
-7.314195 28.181231 -3.085380 
-13.098190 13.145608 -6.276976 
-7.704478 27.777359 4.835097 
-15.478142 12.384636 3.108523 
-25.584099 -2.464072 6.653743 
11.233732 26.766491 -4.891720 
20.304596 -11.848992 -0.657065 
-9.611016 18.691977 3.401688 
-13.778992 15.177996 2.977535 
12.571674 21.623608 9.267554 
21.233330 9.820498 -1.395611 
-4.292361 28.472097 1.688710 
-19.017736 -5.413568 1.551267 
-28.809847 -6.908306 -3.034835 
-20.049625 -9.696194 11.174530 
14.226386 17.226114 8.556329 
10.926703 25.550739 -9.289197 
-14.894381 -3.355363 0.852835 
23.550482 -2.174371 10.325574 
-15.478822 20.549536 -7.610851 
-19.934181 11.496071 -3.533826 
-11.863992 26.403967 -5.704805 
10.868638 22.426916 9.717377 
21.529829 11.307124 3.038698 
18.940746 11.376420 3.381938 
-17.150494 -1.678892 -5.428314 
13.063469 19.345051 8.537481 
-8.144082 23.479103 5.481421 
-15.308882 15.338878 -3.228313 
19.618362 -12.108421 -4.234922 
-10.899546 9.253661 -8.972123 
-18.451366 -11.600713 2.938859 
12.667146 15.039697 -3.849302 
-8.892985 27.531565 3.040621 
19.695618 12.965855 4.833488 
-24.015530 3.518124 14.213822 
-10.590749 18.082561 3.371651 
-17.105042 1.824896 7.267314 
22.880589 -11.345287 4.204464 
21.103100 0.633929 -4.035423 
-25.103209 0.600122 -2.609288 
6.724966 27.895844 0.417862 
16.838434 2.232543 7.003650 
-13.829832 0.234248 -6.772978 
-20.624397 8.958930 -3.874509 
26.665430 -9.036932 -2.556226 
-11.640691 24.788450 -3.433753 
-16.961987 15.085768 -3.095890 
0.634696 26.197775 0.161679 
20.492638 3.419473 -3.535718 
5.024380 22.930822 9.535424 
-16.864418 4.217339 -3.736064 
11.147770 22.579166 2.939611 
-15.475003 19.222675 -10.209796 
-23.498085 6.179891 8.435246 
-6.866440 28.459379 3.177231 
-13.056499 14.766419 2.684232 
-13.795833 3.072642 0.035965 
24.181990 -17.006588 -4.304511 
2.491954 24.476662 -1.958325 
30.572937 -14.425694 2.176290 
8.371357 22.058575 10.193783 
0.931906 25.495872 1.028432 
6.357183 21.609716 9.395126 
-23.506067 -0.283908 2.664650 
-9.375077 14.221690 -3.874095 
-13.228637 25.408512 -0.026490 
-25.994690 -14.199979 -0.773005 
-23.692154 3.992453 8.071277 
16.333658 18.958330 9.759192 
22.820057 4.091833 6.662978 
24.281187 -15.451017 0.055864 
-1.108480 27.060911 2.426502 
0.709861 22.463655 3.512556 
-21.466528 -1.579853 11.273667 
26.401154 -4.069563 -0.381702 
22.852053 -12.720561 -0.226216 
23.416365 -7.725138 4.238899 
5.195829 24.696692 0.432637 
-14.987343 -2.788004 -2.675569 
16.726891 18.014830 10.798958 
-22.130995 4.332016 1.003169 
-17.635445 15.023221 -9.706477 
-22.311544 -3.678777 -3.556266 
-20.202833 -15.586733 -2.004195 
11.306705 22.716824 -1.727924 
7.749891 27.143003 -4.561849 
24.142796 -11.452332 6.786941 
-14.879562 0.085840 -5.385513 
18.910746 -3.828169 6.929791 
-13.313278 10.273387 -4.096568 
15.132020 -1.051624 10.746678 
4.513712 23.827492 12.297620 
19.243017 -1.656451 4.520008 
-25.685587 -15.052870 4.779542 
-20.186642 0.105534 3.873509 
-14.582090 10.281164 -2.824898 
17.356195 -5.232181 -0.126672 
-10.999754 25.955561 -9.293722 
-1.173219 21.286684 6.547967 
-20.199661 1.091845 3.211892 
-13.228642 24.222878 3.208337 
-4.475432 23.510159 11.686925 
18.355812 -5.439156 5.986418 
14.403849 9.668305 3.202830 
21.567242 6.056373 4.807709 
21.816128 12.058358 10.992685 
1.362811 21.056602 4.538610 
-2.781308 25.925449 -0.197121 
30.722870 -14.048183 -5.942590 
-14.109056 16.210032 5.627606 
3.939279 22.617779 -2.453753 
-4.654033 22.212120 3.389624 
-13.009405 22.926126 -3.873104 
11.352344 17.480623 -4.331696 
21.363672 -7.988998 3.381807 
-0.255364 21.095257 -8.844484 
14.516386 2.940128 -7.121519 
6.761790 22.796991 13.367150 
-8.349542 21.667841 11.747209 
-19.204935 -0.196555 10.604664 
9.040130 20.590187 -3.418849 
26.160425 3.407669 12.161540 
11.072583 15.522478 8.070105 
-16.463831 -0.328147 7.097527 
-14.833820 2.609179 5.536642 
7.786499 26.507469 -10.996744 
22.801535 1.086376 -3.836717 
20.638807 13.650249 -9.369801 
-20.340826 7.486120 -2.320775 
-25.409309 1.538265 10.402769 
15.301033 21.969326 -4.519456 
2.305438 29.746309 2.087091 
10.597248 22.954939 0.031928 
-21.996704 2.108305 4.329433 
-18.120893 -4.786576 7.184552 
1.928948 18.433907 7.081916 
-14.918205 13.349187 -4.685023 
-16.774799 -9.373763 -1.148954 
-6.023840 19.023853 -6.237514 
15.545011 6.633746 9.080780 
22.722944 2.028754 9.594672 
25.685368 -14.863351 -2.707249 
-16.971201 17.628912 -6.933349 
-22.085918 1.184031 -4.610337 
30.232580 -11.045259 3.678579 
22.340305 10.435244 -4.281377 
-11.133602 26.146936 -0.958457 
-9.112062 21.008688 5.453677 
-12.968600 17.242115 7.897773 
14.433960 18.811100 3.010376 
2.096900 16.354395 10.232683 
17.088896 18.579798 9.414079 
24.440519 4.852413 6.136506 
-0.846831 30.107115 0.732138 
22.206507 -11.239580 -0.319363 
9.241996 24.607550 3.909070 
-16.687460 16.242760 5.676811 
-13.792319 -0.481245 -0.624256 
16.403059 -1.779861 -2.976517 
2.435181 25.721640 5.345689 
-18.614540 -1.414189 10.630243 
20.416960 14.564907 -6.990567 
5.508601 17.642735 7.729663 
2.399646 28.946135 -0.356491 
11.920780 19.765099 2.844665 
23.724213 -7.455626 11.079925 
30.305176 -8.157061 0.325717 
1.492885 27.641363 3.734144 
-4.465961 21.868702 14.472758 
12.642542 22.615467 7.242085 
14.091163 13.136448 10.141920 
18.980776 13.042309 4.548110 
-7.935047 20.129961 8.359457 
-21.259739 9.923445 8.259242 
-25.500956 -8.055900 -1.756861 
-22.128946 -9.575605 11.174990 
28.495077 -15.816523 2.998821 
13.705162 17.287910 -0.883896 
-7.795275 23.248585 -2.197123 
-22.683279 -3.330722 2.875673 
-10.741543 14.856318 5.238348 
14.379001 4.359397 -3.958160 
-2.000427 21.744196 -5.038353 
17.565954 13.031473 8.441547 
-19.385303 -7.433626 3.843486 
12.874574 14.779262 -4.944430 
-4.591024 28.701536 0.887020 
-22.488369 8.170542 6.916496 
-13.735067 24.796383 -0.609419 
7.678562 25.649826 -5.432329 
24.474442 -10.714128 10.180334 
-17.529661 -0.854194 9.978839 
6.926829 18.078451 9.654449 
15.083344 19.759117 9.986258 
-21.505526 -3.918738 3.715256 
-4.567401 21.070072 -4.050892 
26.092960 -3.323900 11.002636 
-17.368393 -1.991767 3.712739 
24.896639 1.814884 -3.148003 
-16.022783 10.032558 10.071664 
-28.671642 -7.372045 -5.481049 
-14.404072 23.927807 -5.644740 
-5.771703 17.418232 7.534376 
-14.272027 7.506556 6.090395 
2.085100 29.065905 -1.362141 
-22.312595 2.676654 4.890205 
23.879011 -5.569107 4.540460 
14.359232 12.800951 3.409688 
14.028044 18.504589 9.843404 
-27.785500 -12.138950 -0.353646 
-17.133907 -4.622216 -3.772335 
-20.775793 -6.933599 -1.457524 
-17.727880 6.436764 -5.428505 
-18.993959 -5.049254 7.262555 
20.516676 5.000087 -4.229570 
20.544748 -2.963600 6.384501 
-17.337240 -3.720089 5.148830 
-25.203749 1.502079 8.249121 
21.152569 -4.824039 2.976609 
-17.246443 16.781452 -7.091245 
-14.081429 20.910873 -2.151272 
-7.565059 25.505859 -1.685871 
2.614161 19.943598 10.338479 
25.719069 -3.864329 -1.811319 
-26.116386 -8.141445 5.293996 
19.550934 2.635499 2.632848 
25.786518 -4.750870 0.660950 
-2.477202 21.541677 6.756136 
15.548007 4.290566 0.356280 
13.108056 17.666464 4.587163 
-14.575869 10.788321 10.130634 
-1.768597 21.371202 10.248478 
-21.086773 6.908250 1.354629 
14.274309 18.083494 -2.553919 
1.840860 25.971750 1.484244 
15.256611 10.911608 6.678926 
-17.744761 4.776205 -3.208230 
22.720049 -14.430641 -2.588957 
23.992895 7.962525 11.905350 
-21.321451 8.304037 -8.902168 
23.418871 1.481478 9.319106 
-25.967091 -0.473198 6.364964 
17.891611 15.377003 0.414041 
-8.707240 14.892641 9.162353 
24.392836 -12.961961 3.118949 
-19.518856 10.652495 6.631207 
15.564621 2.470666 -2.273954 
1.437364 30.599440 -2.767261 
13.496140 21.807798 7.340885 
-12.286028 18.644480 -3.570944 
13.523823 9.684389 -1.093453 
18.095325 7.730005 -5.479532 
0.267520 21.857046 -5.499591 
16.689569 -6.359989 12.543941 
10.197887 16.861050 9.932367 
-12.801960 18.508064 14.043391 
15.913758 16.240557 1.617834 
-15.414351 5.496509 6.887735 
-17.130991 15.606538 4.140932 
-13.015911 7.932602 0.276939 
11.265518 16.220673 9.566385 
1.525356 20.798018 10.555960 
-23.269939 5.817477 3.391742 
5.273582 27.107944 2.778819 
-17.757776 -10.870948 -6.544679 
11.558203 13.869623 -0.597533 
-2.664037 29.749283 3.783675 
-19.413671 -12.806153 -0.343970 
-19.482237 11.895199 7.018933 
-17.557241 10.841767 -5.726652 
-2.610267 25.781578 4.645199 
-12.973207 2.942193 -7.002881 
-16.406651 -7.776460 -5.449356 
7.937629 26.313271 4.855725 
26.964025 -1.440758 4.070892 
21.264576 4.756233 2.468648 
-12.086583 20.339743 -2.481755 
-8.771678 22.793686 5.619333 
-4.853187 23.512688 1.449855 
-17.491306 7.072594 -2.640316 
-8.860513 23.167290 2.024463 
19.065409 -3.570421 8.507828 
-13.920197 5.523549 5.101703 
14.944772 11.786453 8.468462 
29.138380 -3.220375 10.040309 
-10.903202 8.760978 11.047123 
24.885113 0.809328 -3.253205 
-27.484550 -14.021305 1.302812 
-21.742355 -15.683059 1.050850 
-20.274870 1.178316 4.403770 
7.187516 14.013937 13.631061 
28.482294 -1.976340 8.970724 
20.605595 7.691440 -4.665601 
1.301705 22.599195 -3.303617 
-3.498862 24.130510 10.628615 
20.361120 5.982750 5.390309 
-2.951321 26.219477 -3.332264 
20.512957 -6.839831 -0.273752 
-7.497088 16.709299 -6.867103 
6.175570 25.606195 5.007556 
-19.496077 -14.784493 3.425724 
-16.097975 2.927551 0.943537 
-6.443461 13.611624 10.568829 
19.137743 -1.792478 5.252911 
-6.690921 25.830421 2.384546 
12.759587 6.156739 12.289366 
15.867040 -0.527327 -7.659426 
-13.859946 -1.251941 -4.036079 
0.947706 30.118378 -5.589668 
-15.156651 -3.039739 12.028294 
-20.377611 0.703957 -5.262759 
14.636056 23.061775 -1.478307 
25.154207 2.230403 4.857749 
21.395166 6.502523 -4.152980 
-5.096394 22.954206 -1.068092 
-9.586635 22.712765 -5.227751 
-20.110975 8.237344 -0.422049 
27.431398 -0.492660 1.408309 
-0.493435 24.623709 0.091613 
27.488981 -6.647658 4.266455 
-9.390880 14.359514 -3.112372 
12.772274 14.729652 -2.330022 
-26.878124 -10.380221 -1.217129 
-22.452862 4.714031 8.032625 
14.179543 3.106182 11.284151 
19.710482 12.723948 -1.684921 
14.679189 14.349673 -5.907915 
24.432074 -7.647399 5.115560 
-9.447537 12.895331 -1.124619 
7.087849 23.846518 9.241199 
16.788940 2.172226 3.854012 
-3.582145 29.654556 -5.736539 
14.852247 22.875954 -4.292253 
-19.328930 -14.256965 -3.534619 
-24.504206 2.155844 -2.987759 
-22.442972 -12.959681 -2.218106 
12.999614 18.621840 2.737950 
26.689024 -12.433629 9.762041 
3.082819 29.263607 -3.577586 
-2.286270 24.572561 -2.852750 
18.753424 -9.608823 -2.302107 
25.781248 -8.082230 5.786743 
1.553413 24.256580 2.222223 
17.279066 -1.206345 5.912788 
-17.349941 -9.853913 -6.667083 
-23.420164 -2.560432 -3.345081 
17.581640 -1.650076 -3.404138 
-16.969076 9.065175 5.662027 
13.730585 4.942271 8.800609 
-20.023048 -2.574588 2.995441 
21.625307 -1.359182 4.802622 
-22.799807 2.351112 5.384996 
8.255492 27.973412 1.387889 
-20.233999 -10.796826 -2.587804 
28.184055 -16.827452 -4.026337 
18.342777 -4.858584 7.361784 
30.602503 -13.517432 2.437607 
17.911350 2.095597 8.982895 
-0.691796 23.194706 2.777569 
2.294850 19.873745 6.886878 
-13.712758 -0.123614 -1.292804 
23.363474 5.158998 6.974336 
26.311422 -0.460018 3.531641 
-15.989045 7.040662 8.909778 
1.677548 26.125841 -1.054558 
30.277798 -9.125641 2.666111 
-26.939127 -6.298279 12.441461 
-13.055791 18.957987 12.189174 
-19.900253 11.145712 -1.543603 
-22.377844 5.216655 8.656416 
10.342976 11.495588 11.354352 
23.615799 -8.937122 0.300961 
27.811008 -0.160986 11.826188 
21.317110 -13.116609 -1.840475 
-24.420071 -4.590141 2.299962 
8.655955 28.228508 -5.483358 
-3.082500 26.389708 1.636808 
-24.332520 -9.835454 12.192410 
22.906338 -0.418958 7.426888 
24.712923 4.531708 4.563010 
-13.205676 5.822290 7.627718 
-18.265797 -1.762808 7.801259 
10.972420 23.648464 6.735935 
24.691511 -11.879357 7.092122 
-15.159790 2.506645 -4.211244 
-10.312840 24.999878 3.104313 
7.914167 25.054447 1.913051 
-19.069479 11.280197 -3.453057 
-10.157243 20.898802 7.926154 
5.017266 23.646395 3.114362 
-15.281623 10.112470 1.629265 
-21.667345 -6.791631 4.085387 
-13.976976 4.432147 -1.952325 
0.644375 15.924338 11.659565 
-18.328878 12.060265 -0.218656 
-12.509466 9.124435 8.248718 
25.474226 -1.196450 0.326522 
18.055487 0.966670 9.022992 
15.969619 12.820408 6.515398 
7.576840 27.737587 -1.661022 
-11.168913 11.796167 -3.109453 
-17.745440 -5.214733 2.108675 
17.588783 8.826427 -4.796812 
14.725575 2.478398 -4.523636 
-22.631304 -5.641550 -0.567242 
21.709528 4.248620 -2.169142 
7.092367 23.530453 2.645507 
29.417767 -3.345595 -2.558785 
-2.451820 21.092594 -6.884575 
8.801302 25.345060 4.052432 
15.603384 -0.719101 -4.041060 
-24.394346 -0.285867 -3.157171 
-11.391207 20.427317 6.813517 
-10.099794 19.967083 13.977337 
-9.528471 26.740278 4.190913 
26.840385 -0.502321 5.983165 
-1.485990 23.066589 2.576088 
-7.768625 27.923214 -8.310290 
-11.780129 18.765673 10.331943 
27.200827 -2.451395 0.469005 
-12.733518 13.945302 4.101626 
-18.697784 0.233174 4.252427 
25.729824 -9.604014 5.482720 
-17.842836 -0.252760 4.551895 
23.914307 5.989774 -1.955478 
11.869597 17.504534 8.569157 
-17.569212 16.104958 -6.816730 
-2.490323 30.018200 -5.196972 
-5.514120 18.022097 9.373503 
20.305355 -7.989252 0.320111 
28.040340 -6.097542 4.159095 
-0.695895 15.846743 11.396470 
-8.522730 17.888720 4.939689 
8.775146 27.955154 -0.496551 
22.705561 -11.211060 9.523808 
-11.184887 13.291593 -6.584524 
11.826251 23.010029 3.325482 
-0.306409 21.113337 7.419405 
10.358928 10.520994 14.874216 
-17.417578 11.915704 -2.865601 
-19.227610 11.192957 2.705972 
-9.353208 11.833672 8.843702 
-15.514022 18.072235 -0.856612 
19.807922 15.413334 -3.924561 
-1.323804 24.310822 10.024057 
-21.115526 1.415706 10.385989 
20.426281 2.800265 9.642849 
27.168962 -3.568251 10.989859 
17.390768 16.420164 -0.148135 
-9.973318 16.242212 -4.054640 
16.571728 10.911088 9.343152 
-7.867738 11.581157 14.792124 
10.377131 19.223015 -0.502100 
28.701736 -2.466817 14.287345 
5.282513 17.135218 8.411710 
-22.437351 5.865766 1.311379 
21.724831 -2.631553 3.933487 
-2.727562 20.805866 10.623138 
-13.203546 14.890659 7.531935 
-11.978406 24.942894 -5.238106 
-16.042398 9.244959 -6.417665 
-19.634497 -0.522050 3.438936 
-7.864429 12.608389 9.876652 
-26.712355 -6.217237 -0.578386 
10.030204 21.062464 -5.190913 
-0.240891 30.014561 -0.255068 
18.423014 17.040186 8.100809 
29.086451 -6.970297 9.822583 
28.705235 -11.168375 -1.920018 
-18.244434 13.886477 10.497571 
28.292749 -9.411631 -1.870674 
-12.442629 5.529619 11.270780 
-0.534689 25.336985 -1.296614 
-14.214657 17.540766 6.557799 
9.082095 22.131124 10.554093 
16.881269 18.861689 5.691264 
26.423969 2.603353 -2.021140 
-9.721704 16.630253 -3.109291 
-15.933285 16.348753 5.394789 
4.644765 19.673210 -10.175978 
11.201760 10.868993 -7.184570 
17.990854 2.085558 6.472951 
22.198444 -0.906047 7.169928 
-19.706841 8.794943 7.938291 
11.935502 12.475057 8.728750 
13.463023 8.413033 5.785710 
-22.493734 -1.559253 3.145729 
11.525030 23.690174 -1.217996 
-12.945849 22.768797 4.526525 
23.463593 -0.265768 3.842735 
13.124971 12.101527 7.295921 
10.424646 24.005013 -2.647594 
15.302315 21.034245 -0.821093 
18.104900 -3.944605 -2.839531 
29.189571 -3.245526 12.691464 
17.045013 0.974200 8.535544 
-18.264002 -10.741080 3.414199 
-20.363142 10.064262 -9.112904 
-8.889243 23.005764 4.375850 
-4.771556 26.475487 -4.881186 
-13.157429 5.573319 -2.746937 
0.691350 28.919798 0.352946 
14.031772 7.182976 1.573727 
17.127596 19.262394 -3.674155 
-21.901722 -4.567493 2.224604 
-10.344798 24.965902 -4.953935 
13.567863 15.762208 1.258194 
27.714760 -1.258921 7.048126 
16.752836 16.857218 -0.348087 
-2.821405 19.289461 5.483926 
-9.836780 25.208565 2.546545 
20.833546 4.623639 -2.186000 
-19.104282 7.530309 1.184421 
-17.674438 -7.521057 3.019030 
2.486104 27.043253 3.152935 
-10.424124 15.485277 -5.805842 
26.472370 -12.410989 12.158492 
23.677317 8.485336 9.137539 
14.690588 3.389618 8.870914 
-13.607840 21.563986 3.119462 
29.507936 -6.375053 5.826892 
-5.942612 26.050539 2.295094 
-20.057865 9.367380 3.526553 
-7.716443 24.087708 -2.537738 
-0.969496 24.810459 -3.457132 
29.908134 -15.021403 0.252745 
8.176535 20.293684 11.904645 
25.030212 5.125542 14.685207 
-17.411156 -4.343764 7.691013 
-11.365303 20.220716 1.693317 
6.894993 20.018650 9.170214 
-13.795365 4.065876 6.696715 
5.303077 29.287603 -6.516457 
6.857330 19.590008 6.964109 
14.723922 8.084948 2.042748 
-21.436689 5.247026 -1.566137 
15.849047 21.727896 -8.212682 
-7.378072 21.085438 14.151818 
14.686204 7.239143 -3.441260 
-6.745008 21.680819 10.863002 
6.722612 27.063940 3.846914 
14.996314 16.412033 8.961331 
6.600483 21.946228 8.605853 
8.627612 21.240616 -1.352445 
-6.103728 24.217758 0.390189 
-0.062884 29.603521 5.380496 
-11.952546 18.191189 1.989565 
-16.791922 7.781576 2.098145 
13.447579 12.870226 -6.123048 
5.527590 19.651239 -7.288151 
1.907170 26.015871 3.415343 
-1.745113 27.566311 -1.204179 
2.517049 25.828327 -0.833238 
-20.428806 -11.562383 4.444962 
-11.884007 20.381199 3.244108 
-12.915613 9.551576 8.806084 
-7.789495 22.114296 11.270412 
-19.912329 -10.561523 12.187214 
18.196104 8.465658 -5.204266 
28.241081 -12.956819 -2.133878 
-6.071737 23.552546 9.095650 
12.779872 10.422442 7.423793 
-17.004848 10.590227 3.284985 
-13.270324 13.204356 1.225046 
-15.234837 4.171715 0.218153 
-21.696241 1.564721 9.779126 
-10.282342 19.472654 -0.568266 
-15.079081 5.534278 -2.160228 
3.881179 25.378275 -1.046982 
16.462385 7.032492 9.506364 
-17.305357 -3.742809 9.133322 
28.834581 -13.505073 -1.660377 
-28.247557 -11.594752 -0.092420 
-11.548149 15.040720 2.280236 
-17.882891 -1.990436 -5.352016 
27.096142 1.160332 13.013521 
22.071516 -12.784663 -3.365010 
24.365282 -14.326186 3.230881 
29.895571 -15.844818 1.792244 
-20.338821 -7.843598 4.210454 
24.877174 2.034104 2.788495 
-16.605818 5.204155 -0.583024 
-5.688072 23.298798 10.012631 
18.978708 4.215000 7.853598 
20.154160 -5.283940 -2.427192 
15.830284 11.386349 -5.459644 
-18.680260 -12.966510 2.262224 
-3.611480 25.534258 4.034214 
21.921150 -2.306318 6.591101 
11.313932 21.959503 10.164849 
-27.444458 -5.939574 0.814122 
-8.860193 25.642212 -0.269277 
5.578364 25.873714 3.684400 
15.019720 12.366285 3.453463 
-8.525195 27.716295 -8.117261 
-15.274994 2.199397 6.008304 
24.670929 -0.995700 7.034829 
-4.380642 27.194572 -0.058384 
15.934686 22.260529 -5.128615 
-1.054494 24.113510 3.411346 
9.209142 27.853170 -5.931086 
0.939502 30.445740 -4.116379 
8.361446 23.177504 10.652171 
20.403175 14.637154 -5.955539 
23.695362 -11.039352 9.882949 
8.577026 15.508350 -9.649981 
-15.783072 10.725576 -5.538741 
15.041469 5.399684 6.040926 
19.237944 13.665280 -2.454800 
23.607683 -12.056606 6.690351 
