8.567817 27.014002 5.493751 
-27.052523 5.016802 12.875212 
18.624479 5.235908 5.895366 
6.250583 25.694351 9.550159 
22.993311 11.504316 11.441061 
-23.004112 -7.887954 1.912140 
1.097912 26.084410 -1.295171 
1.806111 26.942884 1.150023 
-25.120443 3.904009 5.327090 
24.614271 -7.113605 5.732842 
-25.001093 -2.020663 14.163338 
22.269096 9.006984 6.342136 
-22.469999 -8.802506 6.215589 
14.271004 24.573969 11.913300 
-22.597116 6.827157 7.332981 
-19.402941 19.706003 10.160083 
21.615803 -5.337441 11.552196 
-9.382339 24.825136 3.458070 
-9.469985 20.001190 15.609097 
17.888006 -0.186514 9.645294 
10.149302 31.252169 9.750988 
-1.136989 22.965626 -1.688897 
26.284328 8.039025 -1.694152 
-6.663758 31.331610 5.619211 
-29.450493 -7.218573 11.239617 
-15.751692 4.039847 0.053680 
24.675591 12.121800 -1.517957 
10.046184 24.052906 2.227000 
-5.471437 27.252817 10.467694 
-23.145996 -10.139635 14.388537 
27.896004 -0.287243 12.182656 
-29.078409 -5.219838 13.799947 
24.838484 4.064350 6.732958 
19.678738 16.565176 1.177932 
-27.061161 3.453190 8.561050 
-24.860632 -9.787078 14.713843 
9.449378 27.441977 -5.414151 
3.685909 30.762262 7.512954 
12.524955 30.997173 5.876269 
-23.446365 11.356466 -2.712013 
0.604472 26.142590 10.024611 
2.871369 22.267159 17.602798 
26.677860 5.215778 15.831224 
17.692541 -0.399299 1.430684 
24.024515 -3.865420 -1.211654 
23.570612 -6.742259 12.971997 
-16.500101 1.318994 0.598029 
-22.706873 -15.222847 1.918885 
-18.008495 0.223766 7.027720 
5.190773 26.071045 2.697098 
19.070042 6.521832 9.504385 
19.030899 6.805776 -0.908143 
-19.304686 2.782705 9.394996 
-11.091059 25.498304 -7.503273 
7.662728 29.528683 4.833136 
-17.925632 -0.413999 7.660299 
-15.081636 26.354250 12.362956 
4.924370 24.676600 -0.825756 
-17.727314 5.873097 10.530417 
-2.232575 30.068481 16.097572 
26.081024 -4.882563 11.358140 
11.261707 15.734569 -3.755699 
-27.947489 -11.586621 2.382221 
10.923830 27.462288 0.254776 
10.969201 17.242420 -1.495004 
23.616095 7.068673 12.627027 
-19.030058 -1.439465 6.762350 
16.262306 3.394188 -4.192223 
-16.854525 2.690158 15.516998 
7.066459 30.315878 6.729635 
21.562374 0.775322 4.963701 
22.836004 5.639743 7.797348 
-19.121946 -9.751314 5.438683 
2.950689 23.941334 0.080543 
-22.201962 -16.122190 12.483949 
-27.712992 -1.206830 13.205071 
-19.212700 6.910179 10.415347 
16.196573 19.509731 10.462696 
-26.949173 -7.688034 7.084207 
-12.287319 27.925991 12.956053 
24.143377 -13.320116 3.454174 
28.950752 -0.498257 14.241676 
-23.100025 16.629736 15.077509 
-0.149206 33.165024 5.156960 
-13.108971 27.268772 4.321289 
-27.747616 -8.679145 7.314009 
20.647991 5.815599 10.982045 
16.022808 19.893124 8.758677 
18.670017 25.600260 5.746406 
-23.280092 3.718471 11.983860 
-27.224283 -14.911777 -0.751561 
16.794209 23.283037 17.076164 
-18.884256 10.696126 8.163637 
-20.053869 22.462145 5.119559 
-12.004188 27.244699 16.204157 
14.792377 16.951370 1.640744 
-15.277692 12.152600 2.392095 
21.347450 14.448346 0.442306 
-18.946604 2.974831 5.593173 
12.412488 22.674520 0.710175 
13.739786 25.849937 -5.513453 
4.348290 22.624739 -0.433786 
-16.427565 19.225351 8.454665 
7.249616 31.463966 9.833528 
-22.433111 -15.999075 6.896989 
-19.361713 -10.553702 3.931058 
-30.430655 -9.043562 -2.658198 
1.991245 27.791054 0.629039 
27.020489 -5.623630 -1.388856 
-22.670425 -7.930576 -1.195289 
6.691643 26.512934 0.458633 
19.741020 11.989947 5.986535 
-15.812702 11.544821 11.715000 
-12.611050 28.308365 5.687529 
-28.245831 1.081271 15.125882 
18.700598 -7.491848 15.018975 
19.838938 23.041454 9.167302 
-27.917242 -1.531997 10.630463 
28.330141 -3.199505 9.955557 
-16.395683 9.778818 1.360136 
-3.289478 29.377617 0.071922 
23.787722 -7.806749 9.651551 
-3.475375 28.757078 11.779369 
-3.463862 26.708820 -1.198576 
11.888604 22.264036 9.204925 
13.570970 21.548708 4.405074 
-22.667231 -14.538877 13.781566 
25.418022 -10.980172 -1.560338 
-6.333559 29.333330 16.218700 
-16.627031 20.145094 9.881295 
-3.702135 30.717035 13.262797 
28.094788 -4.298841 7.712619 
26.122662 -6.838638 13.743476 
-0.097348 30.200724 3.610959 
-15.518120 24.990080 16.608936 
-10.601727 18.354935 17.472889 
-5.882463 23.673136 11.447005 
-27.706495 -13.627477 4.017874 
-23.487152 5.332151 -0.750618 
9.672539 24.731258 1.142577 
24.724422 0.757901 6.150527 
-20.199774 21.721006 5.713526 
-22.197004 -3.923515 11.194486 
17.862431 11.004846 10.119470 
18.050303 7.510483 11.893888 
-13.352414 25.116915 10.334612 
16.103769 22.575487 2.982083 
-21.223145 -6.164213 7.044369 
30.496563 -8.870621 2.380568 
-9.887113 28.374832 11.556155 
-20.077454 -7.094590 6.533216 
-19.600521 -7.493867 -0.105826 
-12.401428 30.627308 5.935494 
-27.325630 2.059319 -4.514473 
26.878212 -13.820126 3.459482 
-2.753942 30.963266 7.206928 
-0.246308 26.840895 0.931741 
-26.399426 -12.422855 14.851655 
-19.598988 25.076986 8.760819 
21.534958 -2.855747 3.406009 
-20.279312 -11.782705 7.505908 
25.639755 5.036304 4.683521 
18.762098 8.707603 6.232920 
30.036724 -3.724064 -1.613804 
-26.341625 -13.671249 1.548655 
-16.101786 9.832013 3.813841 
-16.472897 26.116301 10.595122 
-20.947401 7.678254 2.810164 
-10.811510 23.655602 8.500125 
-23.404266 2.253254 10.611915 
-16.081320 3.140751 3.940579 
18.333839 7.132571 5.579171 
-5.696238 31.140846 12.349148 
-17.252108 7.496698 9.315956 
-24.896200 -6.308302 10.009905 
-21.481621 -12.822283 0.141135 
4.981179 29.226461 14.907389 
-16.508310 21.867905 0.278056 
-19.969315 5.062703 1.727229 
13.556932 28.887730 10.406050 
-16.238821 4.173462 4.629443 
24.522943 5.980937 6.106121 
-23.599977 -4.580764 6.688967 
26.070013 4.164247 -0.698428 
-25.807138 -4.210245 10.430393 
26.267141 -11.736371 5.240157 
21.078318 4.070717 11.920041 
29.602364 -5.353044 11.133064 
-25.968271 -1.625350 11.490490 
11.386419 27.134739 17.003099 
-17.228846 8.336156 2.723773 
-11.438007 15.771227 -5.026155 
-28.940418 -6.431871 16.611628 
-0.389699 28.540342 0.454437 
9.791465 18.604879 -1.133829 
-23.707533 -16.990631 10.369589 
-18.034033 -0.648201 12.706714 
22.364048 -13.554401 6.630658 
-18.065941 12.632474 -1.597965 
-20.215937 -13.055398 0.198102 
-5.944037 24.024054 -1.812448 
-26.115334 4.060452 3.300260 
21.455137 -10.503822 3.712230 
8.787594 25.611301 9.824003 
-23.644503 -2.389572 6.713739 
-20.325144 7.793221 3.894108 
4.911673 29.793873 -0.657211 
-25.446165 2.940489 -0.356933 
-18.139523 -7.406222 0.491895 
-10.038769 27.468891 -3.574455 
-1.361365 30.341061 9.620950 
-18.858686 -2.629869 4.941768 
-3.005500 29.551365 17.037113 
-16.383137 17.958542 7.966898 
22.707111 -6.656720 5.833830 
-26.471146 -3.184418 2.553315 
-20.139936 3.432665 1.388559 
-22.869535 5.424444 6.897141 
-15.845707 14.277602 3.559304 
11.314421 24.907232 -0.890757 
12.803593 28.106918 6.892968 
-26.915545 -11.426491 -0.644261 
18.622869 9.384650 2.400730 
-22.543320 -12.275169 6.105614 
-21.065252 -7.657930 11.962601 
-13.310745 25.658386 6.238401 
-23.944395 5.928040 13.159115 
-27.446333 -9.397493 7.249234 
14.526943 26.748528 5.670365 
-2.552328 33.946609 5.390604 
15.822618 11.972978 5.609025 
21.348330 1.693648 -2.080631 
3.294384 28.542904 12.330153 
28.328760 -2.232541 10.188648 
-13.721776 23.972294 -7.351018 
-18.550644 5.123215 9.997016 
-1.340964 31.892738 8.826939 
-15.493329 28.073780 8.306527 
-21.524557 -6.769179 8.913821 
-30.182365 -10.790973 14.500900 
-25.689339 -11.755035 8.093460 
26.948935 2.927295 6.344119 
-28.285149 -13.966611 14.452057 
-22.783241 2.775714 6.544700 
-25.676529 -14.056110 2.205983 
26.946724 -2.842031 -0.276724 
-20.358772 2.605825 13.127090 
12.617435 19.582460 0.399259 
14.701953 8.393127 -5.512397 
-18.162882 -7.331628 13.376171 
6.507143 28.349827 -5.075226 
-14.741466 8.745304 -2.587356 
-28.297533 -1.175539 -5.539680 
8.323910 26.752537 -8.046715 
-29.657595 -5.096105 -1.792036 
6.403754 27.858585 -6.486721 
14.403129 20.379475 8.461727 
-24.152218 -14.390633 2.579938 
25.345337 -11.482522 14.022518 
-4.852703 27.353968 2.346593 
-20.201132 3.351361 8.352883 
-18.403465 -7.310103 12.632503 
22.022186 5.755477 5.909785 
26.564899 5.513926 -7.257674 
-5.890527 21.275702 -3.012865 
-5.896862 29.543142 6.012321 
15.637398 21.949549 1.763484 
-2.015989 31.617809 10.828863 
-13.667351 13.633112 17.308578 
14.277436 28.475031 8.776751 
19.176901 -0.812105 -0.993203 
15.335242 6.629952 -7.050106 
-20.622389 8.647655 10.703847 
-16.851347 26.538076 9.994990 
-17.412056 0.739368 9.596268 
19.752171 19.914480 16.625526 
20.974634 -14.823724 10.699000 
-8.781138 26.979189 7.057385 
-22.377844 -13.682301 1.176719 
16.684969 21.742012 0.499134 
-26.516258 2.472581 2.830751 
-18.693142 13.941577 -1.164748 
-12.033041 23.474808 11.695299 
11.767426 24.400166 9.243766 
-19.383146 -5.869323 4.871072 
-18.687853 10.219463 9.915953 
-14.764394 18.170345 8.643090 
2.549569 28.383614 -6.658243 
-24.959045 -13.216248 6.088197 
-29.912739 -12.810447 7.967023 
12.474812 17.652668 11.677939 
22.790297 -8.873867 13.149769 
-22.205883 -9.000712 13.881365 
-2.929136 29.107908 17.846684 
-22.497906 -6.260933 2.277472 
6.603785 26.917622 -2.540718 
-29.009249 -4.236767 14.691346 
-22.995583 16.460497 16.250122 
-25.615721 -6.485552 13.855265 
21.887033 16.055378 1.785787 
-21.458982 -5.412592 13.168405 
12.238495 13.629942 -5.388654 
10.037028 23.944849 1.442855 
10.564925 31.662292 6.113179 
19.424505 4.116517 -1.995714 
-12.270450 24.583250 10.021714 
-15.681066 3.731866 -0.843075 
22.550276 14.339492 -7.671998 
-15.652821 21.292130 7.373931 
-18.822407 21.249722 5.857919 
-10.346156 24.873064 12.742036 
-6.213675 29.124880 -2.152381 
19.384418 22.532310 10.428723 
-8.505512 27.547630 -5.191391 
7.568162 27.826588 -1.356043 
23.707294 11.615094 17.216307 
-21.068285 11.138638 5.875325 
13.382204 25.915203 -1.434291 
-16.659431 2.841579 0.414170 
-29.414316 -7.220313 14.176085 
-22.714415 7.562317 7.626840 
21.855402 -6.305503 9.892876 
-29.877438 -13.580591 10.791314 
-13.146797 29.496372 4.572148 
-13.076015 13.884008 -0.592402 
-15.302291 18.135990 9.759672 
22.054243 10.946935 7.183422 
26.790817 1.454023 6.726554 
18.172747 9.956172 -1.357334 
18.003874 25.203432 5.568858 
-3.456296 27.036150 8.372499 
21.241247 -6.863832 9.366203 
-20.189564 20.402853 9.661585 
19.812471 -10.349664 8.479615 
-24.065931 13.643881 17.314882 
6.359655 28.016565 8.743866 
-20.804905 7.855384 4.497584 
16.072475 5.719398 17.013315 
-19.592505 2.722695 7.108788 
-29.951063 -13.723215 15.000298 
28.650311 -5.188575 10.301496 
20.263393 -13.325264 9.644983 
-28.055252 2.093350 14.983921 
29.529909 -11.769587 12.441321 
-24.340773 13.345674 12.037152 
-22.182510 13.047721 -6.512534 
25.505104 -16.163855 14.928638 
-17.721478 9.165123 8.883428 
13.613925 12.128651 -2.816456 
-0.392856 23.329975 -1.341032 
-14.462213 24.965181 -1.060604 
-15.573461 13.952451 2.896408 
0.984829 27.134792 13.244994 
19.653048 14.968954 -0.401935 
16.032171 24.671432 14.658619 
11.528901 23.146143 -1.984297 
9.101340 24.280106 9.399303 
-8.276821 26.661711 -7.638954 
20.379129 12.133759 11.625165 
13.787998 21.150846 1.428947 
-27.006912 -10.656933 7.265053 
18.178812 9.232695 0.394269 
-19.828590 24.224787 5.186819 
1.194636 28.401110 0.250463 
-15.538135 10.457695 13.084756 
-11.704189 27.839590 3.957222 
-29.501825 -13.847530 11.527081 
11.517645 19.574301 0.641210 
-23.812574 12.411456 9.612275 
15.330011 22.398281 14.622305 
-18.571495 -5.633307 11.578924 
-19.411732 5.956470 -0.650397 
10.861691 22.852802 2.883935 
7.125886 28.086769 9.669072 
21.392452 17.464394 15.389800 
4.170366 27.645477 14.372885 
-28.039438 -9.608050 -0.461703 
-21.534740 0.818825 -1.525810 
10.739602 18.282887 -0.057889 
20.611536 -5.728045 5.142893 
18.044590 10.641384 5.305882 
-4.300943 21.549810 -5.784353 
-26.093124 -10.640482 2.022519 
16.992674 6.980568 10.807846 
-30.019867 -7.922428 10.819320 
30.810474 -10.087884 10.432931 
-3.158594 26.229349 8.788591 
-21.617939 14.287362 -6.598089 
-0.308879 25.984980 -0.559538 
-25.022335 11.034425 9.614188 
14.764426 21.169558 13.846377 
-3.931112 33.683495 4.677545 
25.611702 7.834744 14.949538 
11.663483 16.643356 -1.207033 
-28.472898 -1.063522 -3.992615 
-8.966647 29.407267 4.472565 
19.882195 10.023936 6.398973 
15.972063 27.522011 6.202142 
-17.039087 -1.128179 5.962379 
-16.533558 10.110124 -0.649782 
-19.119083 7.448284 3.514983 
15.915298 20.251621 8.033954 
-25.219503 -4.650338 7.085207 
-17.969919 -2.408995 8.691993 
-24.437786 -5.836826 6.997568 
-22.716003 8.286058 2.534077 
-21.178757 11.840706 8.538764 
21.877621 -3.919219 12.375195 
3.443500 25.193314 11.758150 
11.900193 23.147764 12.036633 
-20.655193 20.573895 10.689114 
-14.255868 20.418987 7.823234 
-14.134129 12.561766 17.271166 
-17.176592 -2.137614 -4.362743 
1.208402 26.979748 -1.259321 
-16.978024 6.439431 3.041375 
21.915337 5.609644 8.182256 
11.784345 21.413311 10.692275 
-22.196508 -5.341104 -0.465815 
-4.325395 25.465477 11.981953 
-16.416359 26.026909 5.771315 
-21.906898 -3.380743 2.289834 
-18.647484 -9.205449 4.527725 
1.297556 24.957865 -0.575983 
20.308458 -3.764725 11.888550 
21.814842 -1.884510 5.328065 
16.924173 13.897137 5.695026 
-0.021229 24.027845 12.940407 
-26.043081 -5.096205 2.209803 
-26.635300 9.085632 7.698828 
18.349716 -5.346629 13.793635 
19.166914 24.156118 5.911275 
27.001408 -14.937574 10.003201 
24.961744 4.209074 1.074640 
-29.359697 -11.553781 3.160175 
8.362239 28.184498 -0.403134 
-4.893708 28.761637 7.620823 
23.059511 14.859079 -5.147929 
22.306141 -3.207891 4.419940 
-26.261086 -6.276082 12.920952 
-20.127956 -11.529854 4.220072 
-11.373929 16.569893 -2.051598 
25.422029 -0.688508 4.754856 
5.815268 30.109840 13.213133 
26.717997 -14.527059 11.370854 
-24.699732 -13.777538 7.747473 
4.515914 30.203791 15.426481 
-12.002113 20.976883 2.370481 
17.882345 4.683488 11.217656 
-10.315009 27.256765 6.922922 
20.033487 -1.649759 -0.210370 
6.328368 25.529617 0.918895 
24.614374 1.560841 6.411815 
-28.767788 -2.064744 -2.549267 
-15.048731 13.202119 3.081583 
-23.626421 -2.883199 3.390300 
-25.923328 -14.635587 -4.816901 
-27.285542 4.183818 12.894409 
-5.531636 21.544683 -2.298769 
-28.087051 2.194519 14.154758 
-21.752262 -7.013855 5.963766 
-5.431931 21.059507 -5.871385 
26.550686 6.031049 1.800577 
15.576544 5.876653 -5.220119 
-21.459808 -0.811636 14.088341 
24.120592 5.828681 9.640864 
11.272899 20.466391 2.239249 
-12.740203 25.631824 -5.218652 
19.119635 12.443356 1.021061 
-24.038876 4.390607 1.247312 
22.702505 -15.644716 14.941204 
-23.941319 9.562924 11.670938 
17.093121 27.425186 6.089654 
-3.805016 31.135544 4.816943 
-21.091539 -0.117055 -1.393168 
-18.617449 -7.376534 5.706630 
-8.547882 24.206295 9.775525 
16.576586 23.559126 4.265832 
10.386395 24.362640 0.541275 
17.096323 14.781914 5.133774 
3.906184 34.068256 6.908966 
17.200113 3.607636 12.932576 
17.086861 10.878324 7.649808 
26.430780 6.131373 2.690178 
-18.384098 5.916898 0.578784 
22.047680 4.596393 10.372631 
30.146896 -5.727000 13.898258 
25.450405 -0.733199 0.926804 
-12.176780 17.015522 14.589798 
-5.620867 27.423332 7.741939 
28.566574 -14.490673 13.568932 
26.372021 -12.738873 6.772439 
-20.322031 8.067516 1.933280 
-29.362221 -4.237862 -3.919161 
24.545906 8.766224 11.993267 
22.523518 -1.007855 -1.314137 
11.431813 25.485340 -0.069753 
12.575993 24.471670 11.891637 
22.889908 8.797547 4.617455 
22.126476 -2.927701 1.971794 
-29.211443 -8.195985 7.277250 
-8.443485 30.716602 4.998149 
-21.854650 18.972572 12.078007 
26.959459 -15.769711 15.003601 
-24.768000 2.398263 6.901919 
20.700321 -3.639221 2.869524 
-15.750156 24.362274 13.053871 
-2.543589 24.581392 1.728931 
19.122074 10.153932 -1.479161 
-5.438109 30.215872 6.369869 
-4.462373 24.740406 10.148320 
23.950623 0.985765 6.073765 
-19.579681 24.278225 10.745166 
17.017780 20.059589 9.007192 
-20.062864 9.255424 5.941247 
-14.964904 10.374247 17.194708 
-27.078449 -9.533481 -0.826776 
-26.906160 3.092294 -4.692752 
7.659915 25.787580 9.543042 
-5.741195 32.501492 4.584704 
17.753027 1.761608 -1.524127 
-21.698912 -6.436491 7.688790 
20.662556 2.858668 3.847395 
-23.871822 6.896728 1.454190 
16.129812 7.735287 12.257441 
8.290270 29.183790 6.549404 
13.664772 20.758682 8.467708 
-13.698718 23.642326 9.998990 
17.297935 9.397085 1.549358 
-11.379658 17.077087 -0.923847 
-17.592163 12.691998 1.483363 
-5.728548 33.156254 9.327555 
-13.028985 22.880028 0.364173 
-16.761404 8.614116 10.346664 
-27.218573 -2.358678 1.448578 
4.089117 25.044083 0.771584 
-26.595791 3.947300 7.532835 
27.238539 6.188370 -1.525531 
-12.515399 24.923597 7.471278 
-22.174053 -15.068339 6.322419 
23.372726 10.084603 2.436208 
14.218307 10.732718 17.190683 
-22.757631 16.211765 17.404446 
-22.239885 17.754427 16.328594 
-19.191002 9.670057 1.959231 
-8.405557 27.155222 -6.346255 
-11.282117 26.043751 -6.060853 
-5.666132 34.021694 4.839918 
-16.603287 3.759811 5.725760 
-14.906452 23.623343 13.405302 
21.015608 -13.143753 16.347111 
-6.106462 28.855495 14.579103 
-6.111495 26.183237 12.772609 
-25.234703 3.008896 6.738571 
23.451828 5.347864 8.958459 
-7.501654 23.764801 -0.555704 
-23.643534 -17.076538 9.617491 
8.564284 31.588234 8.847425 
28.486902 -8.449535 7.207443 
19.332434 3.322048 7.437878 
14.009325 22.078480 7.891957 
-18.506409 -5.024045 1.801034 
-10.249379 24.389418 0.864064 
-10.618103 27.972040 15.987426 
24.977379 5.681806 8.459836 
22.017401 6.754991 1.428378 
17.907249 12.731301 5.785432 
20.577780 -10.520220 6.761173 
-8.397200 25.273035 2.413021 
-26.954660 -7.511207 7.844230 
-14.239450 22.774483 -1.786766 
-0.873215 32.889328 6.706550 
-27.513779 -14.144369 14.497231 
-2.030194 33.443153 9.115183 
19.800943 9.058671 2.956608 
-17.971548 -3.845359 12.278522 
-18.622257 0.437279 6.219279 
20.173845 -6.633882 5.063597 
13.985639 13.760386 13.085331 
-25.187513 -1.100725 5.415030 
14.453657 11.487046 -1.100042 
24.055550 -9.975361 13.759700 
19.021147 25.574041 7.882717 
-18.985905 15.009536 2.810596 
-26.399200 3.327528 1.356239 
-28.166862 1.411116 12.190510 
-18.549999 -4.922674 8.582406 
18.051926 -1.894644 -5.191287 
19.663837 7.735320 0.445595 
17.957457 25.199236 12.395585 
28.955944 -3.506266 3.563821 
19.869650 -4.507592 3.209267 
18.582449 -7.520269 13.690635 
24.763475 -14.122599 -2.429165 
23.105171 13.075037 17.267994 
-6.893034 32.517666 9.553209 
24.591215 -4.876950 7.772842 
20.121397 9.860812 13.381713 
-22.993200 -2.102357 14.242766 
-22.644413 -11.529989 5.935547 
-13.958001 23.254293 7.476095 
-17.269947 5.786762 2.693484 
-17.956306 -3.824761 9.773025 
16.933878 6.050982 11.726920 
-11.193587 23.737396 -2.643848 
-16.873131 8.442613 3.749324 
-22.950407 5.662899 13.173257 
-22.153816 6.607431 -0.361414 
28.730927 -6.938950 1.507160 
-17.712009 19.444626 0.549330 
26.317026 2.137108 6.556641 
22.475952 6.017951 6.457682 
-13.850074 26.606731 1.454744 
18.785667 -7.441365 11.589140 
15.145048 25.297070 16.180393 
6.750369 19.418734 -7.583388 
21.283592 9.522407 1.741993 
-17.217953 -0.796917 14.891409 
3.491752 31.053143 5.465359 
-26.376472 7.729845 9.629359 
-23.659384 3.899207 6.793434 
-26.257147 -4.447540 13.142877 
-27.234491 5.031875 13.755121 
-16.998119 1.812007 15.516944 
2.679476 29.090818 8.084830 
17.709740 9.374776 6.719923 
-5.664408 29.684975 15.795935 
-21.845745 14.603419 -4.256714 
12.711536 27.338701 2.132880 
-10.789432 27.996506 4.027984 
24.429466 10.649558 -7.503636 
-24.339701 3.338796 12.833073 
10.193430 18.476439 14.947101 
-7.243162 31.563322 10.891236 
-10.028877 17.792646 -3.969624 
-20.506523 -9.952814 6.765648 
8.476635 28.859510 1.801748 
22.524925 14.467744 17.317305 
27.480453 3.552862 15.129230 
-23.305090 -16.028286 6.791929 
6.721666 22.046450 13.946573 
-14.670621 21.010242 7.494354 
-23.707607 10.176141 -4.830287 
26.335545 -15.112130 10.678535 
-21.405539 10.839153 9.494320 
26.064219 7.007032 2.889061 
27.367823 -4.380688 8.244259 
30.572989 -11.044178 0.559043 
21.275494 -11.449475 -2.903788 
20.934990 1.908388 4.415247 
-21.594534 3.109167 -1.572354 
-16.740950 3.618323 14.271358 
8.561148 27.576525 -1.146802 
-6.918319 26.976254 13.226077 
-27.748413 -7.627393 14.263398 
14.653443 26.146345 15.202947 
-18.088249 -3.396653 2.092853 
22.225449 -14.944633 8.947126 
-25.197544 6.416924 2.453370 
10.331644 15.911669 -7.466895 
20.275806 -1.108806 5.904473 
22.034416 12.420350 11.108663 
22.952173 -7.918338 13.046933 
-22.585176 0.052574 14.203833 
25.982061 -5.064177 12.195570 
-10.798527 28.024239 5.051561 
14.541589 21.842331 14.159568 
16.725348 1.948976 3.607545 
-18.128338 15.709691 2.590179 
-13.084897 25.595085 13.101001 
-0.287166 34.021801 5.960688 
23.908974 -6.638426 9.140871 
20.259817 11.383765 -1.822291 
18.777470 -1.678896 1.489353 
-19.558117 -10.400993 5.217058 
6.497200 29.981836 15.030249 
-25.686335 -8.669141 6.658974 
28.044886 1.662629 16.104462 
19.269421 15.236627 0.453499 
-21.828665 10.076259 10.498724 
-5.960339 25.266010 10.311012 
17.602661 6.194474 10.568898 
10.300496 26.175880 14.107588 
-4.751605 29.630068 7.573929 
-8.746153 29.204563 8.156436 
26.587860 0.134498 13.367640 
-26.576141 2.136547 1.906948 
-4.973843 28.609617 2.574566 
11.496606 20.851257 9.957790 
-20.452326 4.313468 8.989584 
11.117597 27.389736 7.876883 
7.054453 24.828123 -2.221459 
20.020555 -2.101539 3.426831 
22.598095 5.674909 9.541275 
18.981178 6.924350 12.016550 
0.146766 29.476435 11.150310 
-18.962900 8.188575 10.261412 
26.304770 6.131042 14.757244 
15.693045 23.339201 -8.027495 
-26.493288 -11.605371 6.964704 
19.056587 9.498444 5.882604 
4.735578 26.644085 1.221184 
-24.756788 -5.750924 -0.702500 
-22.514122 -3.371179 2.802177 
24.128918 -13.608255 5.587400 
-13.146134 12.658434 -4.961105 
-10.053646 17.558271 -5.408463 
-26.537054 -6.867115 7.738939 
21.585981 -3.318311 1.584395 
-15.690176 8.124075 17.115986 
-8.327863 29.529064 4.043398 
-19.204460 0.957417 -1.471835 
-26.593803 6.747693 17.073795 
-12.436180 15.810183 0.254588 
15.877258 12.405890 11.066476 
-17.721006 2.421062 11.567909 
-27.756748 2.982391 15.845213 
25.700819 -9.236545 14.150806 
-10.363253 25.889006 13.182204 
-24.785177 -13.056099 7.071520 
5.644938 29.650820 5.516385 
-3.539455 22.080597 -3.865164 
24.937561 11.085361 -4.396414 
-20.725409 -6.843517 2.307523 
22.002254 -10.587182 4.351684 
-0.785199 33.103996 5.801478 
-16.524858 4.440369 15.631138 
-18.641939 15.153920 7.918516 
-13.486800 12.829840 -0.964215 
22.321892 5.031304 8.832418 
-21.514851 4.952739 -1.269776 
-16.683508 -2.277395 -1.140548 
25.221399 8.586819 6.166926 
-17.528568 7.948416 11.343061 
-29.550323 -7.474244 1.423337 
-7.060792 33.633854 5.013176 
-11.027402 25.655638 -2.447075 
25.900507 2.668343 6.182901 
18.048111 -1.507972 10.311591 
-18.302967 -10.529203 13.645262 
-24.579535 4.646918 8.885734 
14.543525 26.207952 -3.138416 
24.853926 3.928217 11.063449 
22.824404 -5.660152 7.890272 
19.386150 -4.431471 8.706040 
-22.450481 -7.113436 -1.030988 
-15.284030 24.773981 6.549098 
30.508608 -8.404229 7.909242 
18.713062 3.481257 10.599416 
-21.080133 -6.784164 -0.684095 
4.588019 28.527582 12.061938 
18.839556 21.366608 -3.574610 
-14.297877 25.058199 -3.992300 
-21.989807 -7.261377 7.953096 
-22.928415 -0.969704 2.415237 
5.120052 22.296804 0.099588 
-25.897383 8.059263 5.856293 
16.920353 6.122488 1.637363 
23.287731 15.151875 -3.139845 
24.302380 -8.844127 13.760046 
-20.504847 -2.613560 -0.572217 
-9.056847 27.288963 9.118879 
-27.046907 5.905734 15.855195 
-9.123384 28.259901 16.716816 
-9.591683 20.872091 12.918632 
-0.871133 22.640732 -3.314579 
16.599632 25.225599 13.987193 
5.504228 28.784384 6.413823 
-21.631706 7.406182 1.948751 
-22.963030 -5.595098 13.313423 
26.558601 6.552235 -5.747887 
22.444386 3.785729 5.819821 
23.080481 -1.953743 13.278903 
13.898256 16.336966 11.438200 
-9.632470 26.752436 7.021298 
21.271906 -0.380038 13.162108 
-21.690096 -12.298595 -0.680465 
-16.686638 -2.336851 -0.350350 
-21.961523 11.870371 -0.865338 
-18.040276 1.804173 9.104140 
19.583153 0.871851 0.455589 
4.475503 23.090986 0.431948 
-22.394915 -4.537436 6.345766 
-18.683977 -10.213126 -1.004236 
17.925327 10.384241 6.072726 
-8.135817 27.980003 9.823244 
-24.422527 2.677873 1.236364 
-20.202507 -5.120492 3.191944 
-17.369648 3.002213 12.271912 
11.160502 17.681505 -0.566613 
-29.694279 -8.705878 0.412407 
-19.805340 -5.375632 3.941135 
-16.253069 23.368893 -2.848104 
18.847456 -3.967062 -0.263293 
-21.942085 -0.240706 5.688957 
1.148027 28.102610 4.688189 
30.810055 -11.718589 9.291776 
-7.044702 27.170004 -2.120256 
27.990700 -6.123787 -1.160030 
-25.987875 1.064450 6.678512 
-8.463994 19.182255 -5.782188 
-21.434898 -16.821589 14.204848 
-24.206345 -15.646397 1.732627 
2.175950 28.636209 0.184022 
17.882879 -2.002842 -2.767030 
-23.048285 6.442697 -0.490312 
-1.393478 26.493460 9.767824 
-26.806246 -13.272195 6.070385 
-18.499647 -11.575842 13.102678 
4.721637 33.069733 9.985907 
-3.207464 26.916815 9.588080 
25.547941 9.469331 6.947659 
-29.085592 -3.083881 -2.503159 
1.894951 31.405382 7.226228 
-15.215166 23.441107 3.591863 
22.345726 10.313653 6.793116 
25.471743 -6.157372 9.393946 
13.512336 25.968174 10.392238 
24.214972 8.348513 2.181872 
-15.916533 8.504743 1.385780 
19.952463 -7.838499 2.970701 
19.165964 -4.665934 0.463174 
23.462236 13.409052 -6.394994 
25.497496 -2.885472 13.016928 
17.582348 -1.984463 13.643653 
28.416073 1.303509 -1.346947 
-11.962772 25.665253 11.238633 
25.889351 8.339956 -5.586786 
-21.750908 7.963185 13.720851 
-22.720446 -13.013158 6.230337 
23.414711 -1.564926 5.478299 
19.391518 13.773970 8.803839 
-30.508961 -9.090963 -0.868867 
23.673075 13.617355 -5.275286 
7.779341 24.819447 0.705167 
-22.008905 -8.450405 -1.152776 
-17.532240 -1.784345 15.870923 
-10.112027 30.722902 7.702918 
23.019285 6.257072 11.583375 
-19.344221 -14.340023 13.028030 
3.216587 21.319937 -7.607930 
16.256495 11.598387 1.283622 
12.607574 25.987162 17.728075 
15.868777 6.546960 15.776012 
10.916662 25.712254 1.815016 
-0.114101 27.937401 -7.910821 
12.928598 22.976183 -2.370097 
-14.042497 21.524900 2.029848 
20.227779 -6.988357 9.236049 
8.192958 28.485001 -1.995611 
-20.893023 20.679285 14.210048 
-19.317665 20.949574 17.569107 
27.708487 0.809796 13.075333 
-28.765860 -2.108110 14.986203 
29.201769 -1.601046 13.945250 
27.993643 3.730222 -2.190276 
-3.967499 27.774771 8.037821 
-22.671003 -17.494127 14.100124 
24.755390 10.906932 -5.869537 
15.487370 19.339897 10.258309 
-13.109627 17.868387 10.638874 
23.576096 -16.477533 12.636838 
30.090456 -9.204850 4.362566 
-29.420666 -5.449056 -5.264693 
-21.494169 19.788868 13.622935 
12.714009 12.743277 -5.492084 
10.888660 24.914028 4.214408 
31.156132 -7.887662 -2.580295 
-27.328897 -2.991452 12.933569 
12.767271 22.454008 13.423622 
-12.376609 23.658428 -0.264324 
5.494841 32.917213 9.933269 
24.323568 -12.717819 4.710210 
-17.724373 24.599939 4.473945 
21.485170 1.441694 0.786166 
-8.543213 20.362869 17.542332 
-26.867361 6.907929 14.113474 
-23.392614 4.571369 7.038668 
10.724510 28.770754 13.517821 
-18.815563 -12.713560 11.696836 
1.632723 34.218536 5.441977 
-9.020721 31.216749 5.249761 
7.371401 19.749681 -3.845708 
-4.883898 24.772369 -1.805057 
17.703196 22.703987 6.550827 
-10.727119 17.004517 -3.695693 
-16.078457 1.180845 4.193558 
31.369656 -7.875904 0.047386 
-20.321838 -12.040860 1.785013 
-19.991093 -13.711475 12.687508 
13.965255 26.865063 0.889273 
3.392853 23.247208 13.502770 
23.187210 -2.405523 3.647177 
-25.999762 4.183329 10.487773 
-18.055056 -6.229864 15.374574 
-23.630617 6.672854 7.102161 
-21.446238 -11.297318 13.799027 
-27.513765 2.161642 -2.380070 
11.187839 26.450510 7.704845 
-11.698782 29.336037 10.248062 
0.441209 28.213833 11.416023 
-14.935370 24.090611 10.482633 
-13.421831 22.167761 1.217857 
2.160132 25.570169 1.236265 
11.920237 25.107716 -1.521157 
-19.043211 15.044421 1.639729 
-13.368237 24.829962 5.406024 
-21.486891 7.093447 0.985367 
1.421699 26.438372 12.848781 
19.821482 1.627613 10.056474 
26.205738 6.156627 13.768200 
-24.766855 -5.735448 12.047078 
-14.504909 12.231295 1.291192 
10.721179 29.501913 6.976613 
-16.029846 3.867493 -6.129488 
-6.934156 23.878401 10.425195 
-16.642435 0.222134 -4.728249 
-24.429558 13.586957 13.015539 
-26.495497 4.140800 -4.656562 
5.966647 24.550962 1.314885 
25.210823 -16.334692 13.794126 
29.212130 -10.437666 7.272878 
11.637804 27.296682 6.106331 
26.911276 4.266443 16.956041 
-7.838778 19.709047 -5.568415 
6.882238 29.716187 7.223848 
13.606402 15.760519 12.141878 
-20.481134 -2.924293 2.933007 
3.238177 26.457031 1.081897 
27.668732 3.367922 1.090554 
0.230174 30.190599 5.021620 
8.772149 27.100681 14.151938 
15.923403 13.338677 3.463827 
17.438591 -0.865426 -3.136630 
22.263435 -1.269598 1.987715 
24.755119 7.168575 7.432550 
-25.684341 2.637948 13.434072 
-17.874441 11.737744 4.944653 
15.814869 7.557176 13.877205 
-12.529759 30.151791 4.663957 
-24.093851 7.331913 6.652742 
5.936443 26.220501 1.598497 
9.694833 20.899532 1.192968 
12.652785 21.052681 9.006886 
-0.623953 29.501911 -3.727684 
26.391788 7.858966 -2.850042 
14.233509 22.488033 5.589960 
-7.487138 22.369160 0.567449 
-27.028812 -15.322699 3.022885 
26.049452 -10.281781 11.206839 
26.252354 -11.858116 14.120123 
-15.277675 22.896793 13.587505 
-5.498638 27.590338 -1.353915 
-20.137400 21.974480 13.293344 
27.318800 -7.646569 6.943834 
9.679297 16.670237 -7.495057 
8.176747 25.823633 0.261583 
-23.883017 -11.685532 5.686829 
-24.910135 3.622003 -0.558145 
-16.200474 11.843024 -1.080665 
17.869797 10.946030 1.505194 
-26.821074 -13.682834 5.352739 
-29.323898 -6.994696 2.649801 
-8.229574 21.181942 0.001005 
-19.677265 -14.396327 9.665124 
-17.076126 2.876131 13.199744 
26.161736 -5.948301 1.069071 
-19.668308 -14.335204 14.488478 
17.079519 5.215248 1.100112 
-10.375475 23.452122 -2.379141 
27.733963 -11.351657 7.017430 
-6.680335 28.828081 0.374191 
13.747925 20.852587 3.533551 
-1.400902 25.579815 1.056665 
19.307360 2.090072 12.291494 
-22.443846 -14.062602 2.264066 
-20.182808 -15.785962 13.527845 
23.664000 7.269770 1.564227 
-16.326063 5.793660 2.102539 
10.332483 17.680834 -1.778000 
-8.223600 28.010201 17.811096 
-30.205481 -10.293649 10.519307 
-25.570450 -17.413078 14.251967 
-17.102861 -1.737142 13.062307 
7.767019 27.500757 6.205850 
30.479517 -11.500187 7.645193 
-24.751520 4.464140 7.803155 
-4.739135 28.276913 3.247056 
19.844786 8.509610 4.191633 
7.066653 28.793390 -3.145275 
0.208724 29.697758 4.421977 
17.658436 -0.813454 15.717931 
-20.750603 -12.749997 -3.713238 
29.142439 -3.561177 1.050311 
1.822546 31.463123 12.768577 
23.145243 -3.835376 1.818733 
19.460897 -9.571754 16.473619 
-15.962538 21.974661 1.087475 
-9.958324 19.075003 17.497847 
18.600780 7.172335 0.574907 
20.405910 -6.121837 0.073442 
-11.460240 22.925976 0.569284 
16.275446 4.105337 -6.926538 
-24.822224 11.504958 7.586658 
30.160753 -5.913118 6.916429 
21.261578 -3.327158 12.442229 
26.402189 -4.072803 7.970912 
-19.563211 1.722084 -1.582398 
15.067224 21.260275 1.406469 
-18.306559 -4.831129 11.262945 
3.079794 29.562494 0.054105 
11.654114 22.383671 12.261353 
25.157953 10.067258 -5.690897 
21.429853 10.606167 13.405412 
-5.959342 22.462091 0.471326 
-12.512442 24.972597 5.397228 
-24.606390 8.421593 -1.906080 
-20.803600 -0.076389 13.883032 
-16.403234 1.195878 -4.663543 
-14.696866 13.864833 2.852720 
28.878330 -2.952709 11.186484 
-25.794720 -15.311525 -0.880786 
15.373757 24.799942 6.947361 
4.233067 22.185089 -1.475093 
14.527386 21.191528 -1.205312 
17.040194 5.242371 12.239935 
11.104908 25.060337 1.343118 
11.506179 25.143299 4.778759 
-17.954636 13.729939 5.327147 
-25.150852 -4.001397 6.492800 
-20.283833 10.926353 10.965092 
5.365888 24.605303 10.839045 
30.020700 -13.247081 15.346564 
12.611356 14.028065 17.307491 
-17.791338 -3.345081 10.617374 
23.983717 4.796018 10.955863 
-17.839840 1.592529 9.804424 
18.846025 21.087763 16.788420 
-18.453688 7.697274 5.602721 
-15.905855 3.606324 1.114455 
22.851257 -3.558492 12.732826 
-29.214209 -13.354643 7.479287 
-22.345291 13.093284 2.411146 
-21.926973 4.177135 7.065017 
-15.652619 9.439954 13.382891 
-29.141100 -14.547178 9.085317 
25.961874 -14.384975 1.568668 
22.133661 -2.093779 13.084342 
27.749399 2.932554 6.386258 
13.456099 29.631918 6.291039 
-25.914038 5.571200 2.847943 
27.259676 3.394176 16.925165 
-26.297094 7.705673 17.107317 
-19.181080 -1.910538 -0.758520 
-13.012690 21.448109 -1.539449 
19.920727 -7.525710 3.663630 
23.148394 -14.671341 11.828211 
20.431549 -9.125551 2.249299 
-11.226324 23.613480 11.854767 
30.599859 -11.948091 8.357488 
13.385415 23.597437 -2.479569 
-19.233355 -11.743227 9.592218 
20.795668 11.856208 1.001560 
29.961964 -11.977407 -2.484524 
17.710087 4.512020 -1.538229 
21.703619 -6.799522 7.661036 
9.267542 28.540712 12.682330 
27.968143 3.606423 6.749692 
-27.851337 -11.255557 -0.343384 
26.456472 -13.507251 -6.152297 
18.639902 -2.987121 -6.572681 
-21.113735 2.051307 -1.644005 
-27.903168 -1.890222 11.301929 
-27.376406 3.841454 16.972033 
16.962982 1.556895 -5.657342 
-27.362381 -15.493547 11.533512 
-13.306310 29.391956 9.070858 
17.013689 27.468929 7.861646 
-21.464264 7.846071 4.917357 
-23.455738 -10.840765 14.527036 
-18.954533 5.472107 7.307051 
-19.517887 -6.265416 2.107818 
-29.100233 -10.404137 14.590848 
0.593918 25.548973 10.580585 
-0.637397 29.096794 -4.975786 
18.660629 -4.213124 -4.978469 
-19.338078 2.357590 12.810766 
23.793098 13.820377 1.533142 
18.667473 7.375344 7.581251 
16.955002 3.989661 4.716810 
22.727610 -2.122322 0.748869 
-19.795330 -15.666632 11.327820 
20.950533 -8.987894 6.230646 
-4.280224 24.908016 0.550940 
9.044605 24.696016 2.791256 
16.085787 24.749626 5.279397 
-7.669337 32.807674 8.445280 
5.020831 29.945126 3.204281 
2.695263 30.158159 7.116619 
-18.606384 -3.151672 12.816184 
24.074276 8.911428 12.651667 
-6.211715 24.679960 -2.368049 
13.776156 27.165764 9.200514 
-22.391783 4.968338 -1.136993 
-20.326393 10.512776 9.281713 
24.206354 5.840224 -1.266576 
29.476938 -3.674623 12.705836 
4.843781 28.161810 0.896384 
-25.790447 -5.524506 7.501822 
12.146060 27.519129 7.078820 
29.487436 -2.631574 14.641490 
21.575327 -14.678242 15.030360 
-19.752806 4.201571 9.507373 
-13.524712 28.483727 5.342030 
7.324108 24.745001 10.948608 
16.390564 23.600313 5.205602 
-12.401037 26.715179 -0.720023 
20.844269 -2.796629 2.898513 
-19.758680 5.740916 10.312433 
13.180802 12.947046 17.269150 
13.100451 26.546486 -4.051572 
-17.307791 -1.242137 12.245522 
-22.829336 -5.523708 6.407821 
-20.245045 24.104277 8.177795 
-20.428419 -11.584375 -0.537680 
-19.452730 25.406128 7.984879 
-5.425438 29.139120 17.081497 
-5.137243 24.205336 10.470912 
18.360668 -4.571476 11.394275 
-23.666368 -5.824499 6.562885 
-18.013723 -3.383314 8.735950 
30.249943 -10.250878 7.263813 
-7.762820 20.906881 17.561020 
-25.949961 -3.011986 11.100991 
22.943890 11.444151 5.722755 
23.282875 -7.860152 -2.022157 
-19.900728 -11.413889 -4.002455 
24.181530 -0.825320 11.059888 
25.961449 8.729116 -2.558414 
-23.474627 7.731531 6.874135 
10.986835 25.594025 8.148027 
-21.361567 11.286785 -1.223388 
-18.474602 -6.842303 -5.449314 
5.420502 31.470835 6.311703 
26.944162 -8.156932 14.168844 
-13.640244 24.965673 11.770513 
-16.227455 13.913851 9.788260 
-28.191116 -0.086236 16.834368 
24.467157 -2.255045 10.416052 
-22.294138 -11.244261 14.159822 
13.758209 11.067772 -4.312225 
-15.163578 6.728744 -4.659160 
-28.893019 -3.180518 14.836331 
22.159695 -6.488217 7.146213 
8.126131 28.355539 -3.226492 
-26.626152 -1.760708 1.991256 
18.954882 13.516772 9.465890 
-25.957708 -8.868340 7.828053 
-28.487829 -10.838655 14.729167 
12.019389 19.633362 1.234417 
0.282208 29.785059 16.893637 
24.416553 6.905529 10.102522 
19.040752 -6.256752 -1.731007 
26.870609 -12.851267 13.974284 
-22.252409 10.764227 12.782357 
-25.319420 1.742873 6.592068 
-24.155737 -13.998677 4.436749 
-21.051649 10.081662 5.964854 
-23.102005 -10.331017 5.334539 
-27.910749 -0.126796 -0.652117 
-19.767570 8.176617 1.189424 
-0.106344 30.163097 -0.245202 
18.834604 -9.708460 12.927115 
-22.032215 1.663060 -1.543078 
-9.040522 24.718016 0.471530 
29.968029 -9.725546 -0.155178 
-9.341557 19.350597 -1.107074 
12.428242 15.734118 14.378965 
8.566221 29.931740 6.782601 
-30.024878 -8.469285 8.014139 
20.761129 10.215936 -1.293399 
20.303230 1.579738 4.680261 
26.391531 -12.160507 -0.374683 
-13.922878 12.001390 -0.493848 
15.353346 6.848683 -3.627554 
-27.220289 -8.468795 14.542974 
17.149792 0.404063 -4.406979 
-18.713200 -8.015839 -5.375494 
29.142677 -1.673160 13.122823 
-0.617463 32.147224 8.322051 
-28.001743 -1.199189 -0.331470 
-22.974907 -9.930977 6.021486 
15.710410 12.604455 3.366489 
21.863771 0.295637 10.826107 
-6.983703 24.214930 -1.904117 
29.185812 -8.408652 13.717339 
24.770937 -2.106094 4.403117 
-17.646578 -2.429406 11.084980 
25.780317 7.033901 -0.116706 
18.519255 -0.940145 5.362915 
-23.072596 -11.791041 14.412643 
-15.455675 27.039486 7.621616 
-25.049210 -3.796738 1.651918 
15.231350 25.195349 -4.984350 
-28.378096 -13.438008 -4.826813 
20.390722 -4.518806 5.951880 
16.742037 11.647602 5.841527 
-3.692461 28.598387 4.915945 
20.472160 -9.984676 -2.680448 
-15.977735 8.363626 12.800626 
3.453319 32.039639 12.132179 
-19.412708 -6.062299 9.577725 
-24.269547 -9.128409 5.951316 
-17.238203 -3.331189 -2.830007 
-4.958409 22.801849 14.291164 
19.329348 6.834494 7.623981 
14.731099 11.629633 -0.323442 
15.082246 9.939422 13.489872 
-2.980702 28.941616 -0.590473 
-5.622571 23.080360 -0.100407 
-16.977438 0.203215 -5.894076 
29.401165 -8.901218 7.237411 
24.110834 9.136570 2.035008 
0.811916 22.162512 -5.845578 
-26.917902 5.877678 12.940874 
14.547138 12.243617 13.098763 
-17.133974 12.289516 5.257525 
11.455847 25.512655 13.598467 
-24.133537 -5.805230 12.950289 
-0.401564 24.830746 1.367755 
-24.106737 -11.674889 14.677942 
22.772390 4.462248 12.177357 
23.747253 12.394039 2.755227 
-0.475646 29.920115 6.915082 
5.728338 26.597393 10.183143 
16.205578 5.843198 14.448757 
11.979269 29.323875 11.965560 
21.952639 6.469655 9.668008 
-17.374310 10.382365 -1.507412 
19.692890 -6.396485 4.312788 
-18.333521 1.395709 -1.350397 
8.339294 26.318819 9.577850 
14.940770 24.979620 16.909290 
-18.695488 -8.409397 2.962994 
-0.765372 28.056299 9.099865 
-22.639380 -14.578613 3.736002 
13.247567 25.053942 7.042131 
-2.825312 29.147526 -4.390417 
-29.193495 -4.358213 -5.333442 
24.553043 11.928731 -4.705759 
-8.908367 22.099590 0.550022 
21.456802 -9.608080 4.253469 
22.124683 16.153284 -0.153522 
-1.744905 23.790596 13.162724 
-0.690914 26.031668 10.271605 
-8.093376 20.845228 -0.777425 
28.290569 -0.557687 6.586296 
5.338009 27.246454 1.234918 
-3.319824 24.862894 10.294387 
17.223989 13.400187 -0.378881 
-20.090673 2.316621 4.704599 
16.459461 5.048917 14.258743 
28.595537 0.434140 12.461947 
-17.196617 3.750112 12.272161 
17.793261 -1.136015 0.087930 
21.900248 15.836217 17.365788 
-24.724461 -5.255015 7.416110 
-24.212290 -15.619775 3.672094 
17.673512 26.220646 5.487312 
8.523191 28.746471 12.921484 
9.947835 27.904102 13.264618 
16.074697 4.727653 -1.592864 
2.465389 22.552423 -1.819898 
14.952922 24.096514 6.707707 
10.020681 26.594221 5.634017 
-16.523655 19.448301 12.628169 
-19.588964 -12.082608 8.846633 
-21.629642 14.098426 3.879160 
13.600547 10.937825 -5.696803 
21.668653 7.908720 6.057490 
9.776404 23.510485 10.417086 
-14.871200 15.668074 10.396780 
-8.984247 29.636126 13.059043 
20.340359 11.030058 13.264203 
17.315819 0.438863 -5.510425 
4.571482 24.629692 2.087540 
-5.726197 28.136106 7.425145 
-1.135885 28.410975 -1.327792 
-23.546270 -4.548076 7.527639 
27.713684 -13.494438 -3.979587 
26.577414 5.336601 13.803092 
-23.591478 9.729407 6.350009 
-8.656747 28.201614 -2.503980 
-16.342073 10.666529 -1.127856 
-30.017313 -11.851006 -1.734403 
17.801796 5.514677 5.903168 
17.918430 -3.542429 11.362970 
-16.179436 0.285057 -2.699563 
6.231174 29.380659 3.647337 
-8.472409 19.369200 -4.497571 
-15.292148 21.795921 10.305273 
22.456835 -15.780087 13.773036 
23.845144 -5.270678 9.759953 
28.441448 0.299113 8.099382 
21.309116 7.750814 2.278954 
22.293219 -9.460060 12.953449 
26.204714 -14.124199 -2.242975 
15.785522 25.761681 2.579768 
8.488400 28.493263 10.986939 
-16.345646 -0.496909 2.950689 
-2.855994 28.395214 0.076244 
-14.976219 8.990818 -0.741690 
24.254889 10.285862 17.169249 
18.743397 -5.176008 16.628620 
14.167139 27.036673 13.622275 
-25.578274 -15.303348 7.793605 
26.026545 1.247085 7.137362 
-19.189623 24.862589 4.475693 
-6.533871 27.574251 7.516425 
26.906475 -15.471835 12.234764 
-0.134762 31.011209 10.732172 
-20.439871 -5.503094 6.225788 
-1.754580 30.014284 11.002116 
-20.372845 20.990189 10.130160 
-29.043316 -3.956648 -0.561152 
13.715076 19.655170 11.810952 
18.574751 21.576126 -2.462594 
21.713314 15.341278 12.771553 
16.548338 19.831575 9.560144 
-26.097733 8.181326 11.717884 
28.892262 -12.996055 -2.284471 
-29.767736 -9.234994 2.509485 
-27.499256 1.927511 10.858673 
-16.222300 6.130735 17.046186 
-17.356678 13.220117 5.205785 
-16.414877 5.284656 17.016541 
-29.674761 -10.643638 2.510531 
25.584356 6.915949 12.141629 
-21.363518 -5.473869 10.876320 
-25.097309 -3.504253 4.147769 
-15.950807 1.380990 -2.495817 
17.759157 7.790131 9.300406 
4.974556 30.829199 5.610894 
14.179273 20.586946 9.827832 
17.577049 -2.210606 11.186248 
13.667459 20.203417 1.718897 
-30.267218 -9.017547 8.864690 
-3.271708 22.569223 17.616922 
-19.197527 19.680613 10.964150 
11.197526 29.151953 12.751747 
-16.340662 1.085939 1.473472 
-24.324797 -4.630676 10.569105 
-19.658091 13.827894 0.971296 
-23.180775 7.661592 4.065176 
-6.968329 26.049385 11.439357 
14.268667 24.566517 -0.656307 
-18.305897 1.816921 5.178701 
22.080284 9.035466 13.442820 
21.674898 -6.613743 8.643143 
21.188961 9.534755 10.926215 
24.578934 -15.465101 10.382146 
29.110643 -2.841036 11.940583 
18.925076 1.186120 -1.759443 
21.804153 10.272491 0.074836 
-25.420982 -16.072889 11.973295 
24.927904 9.478959 12.299872 
-9.791923 24.413443 12.143221 
-19.603268 22.677601 12.490722 
-23.895786 15.048377 13.800048 
-19.389214 8.786692 2.647568 
29.212370 -1.813677 -3.453264 
-20.559671 -8.076974 10.355021 
-23.815613 11.608170 6.318177 
17.306736 3.306569 4.457321 
-17.131929 0.924799 15.612520 
15.317049 25.061275 14.325849 
-17.960400 20.936956 -4.167786 
6.418802 29.692369 6.518972 
-17.894768 9.169012 10.023054 
-26.961054 -8.530581 7.479752 
-13.991229 13.864244 1.949598 
-25.794060 -1.613627 14.049842 
24.685108 -14.272357 -0.971210 
28.781727 -2.436895 1.049868 
-12.862741 13.859375 -1.811078 
24.862051 9.506499 15.300625 
-13.133680 27.481964 13.364792 
9.260917 29.656052 7.065478 
25.448833 -4.086905 11.979386 
-25.818336 3.967310 4.002004 
-28.107185 -0.020896 -4.161345 
-6.187666 20.963297 -4.015293 
17.999844 21.774734 -6.463989 
20.462872 -9.950651 -1.446354 
-6.201539 22.924650 1.103267 
-25.670864 6.380690 -3.264603 
-13.467603 26.688423 0.805265 
-3.525830 23.399172 12.902006 
30.729219 -10.784265 14.993502 
-15.405839 28.861525 7.736180 
-24.818668 -2.372726 3.857889 
-28.216848 -12.396637 14.722754 
23.701595 -14.825987 9.354185 
14.799955 25.969521 6.972021 
9.380527 19.501938 -0.599208 
-15.330051 11.573328 12.789244 
-9.269955 19.105936 -2.002304 
-0.104796 30.162951 0.515952 
25.593647 7.804106 13.229793 
-6.457917 29.033705 1.102430 
-23.748779 8.223816 6.263164 
-10.075745 22.900036 1.378476 
20.762165 -1.895208 -0.162741 
17.715969 11.149442 12.130178 
6.242345 28.610466 1.315703 
-4.436756 28.848911 14.605783 
29.814287 -11.275125 2.667393 
-20.222166 24.246021 7.381439 
-7.311759 29.586086 3.075603 
-29.169582 -11.740470 2.382591 
7.040912 26.432272 11.722818 
-22.962917 -17.423414 15.084371 
-12.124987 14.559539 -6.844032 
-23.872656 14.829669 12.638574 
-26.345198 4.028234 8.392870 
24.435591 -13.482557 10.435693 
-9.061141 22.461454 1.343483 
-14.590963 25.033236 17.710028 
-1.844572 27.466738 0.136684 
6.737363 21.005919 -1.600035 
-0.791570 29.105766 8.867449 
23.863237 12.427723 1.323296 
17.236893 0.217699 13.630178 
-11.419119 24.909277 10.189082 
24.930178 -4.344796 -1.373856 
-4.756848 24.066435 1.015052 
21.353443 4.027961 4.862113 
29.569843 -9.705790 7.428535 
12.876609 21.705555 13.144696 
-19.703169 18.189955 -5.335111 
-15.363162 5.819441 -4.489916 
23.837469 12.875475 2.108170 
9.174302 26.377953 10.903067 
3.896584 22.407841 15.787298 
26.224117 -2.997181 9.604949 
22.739693 14.598701 15.321233 
-26.377600 3.513257 0.274781 
-10.833501 16.464022 -6.985756 
0.274268 34.228401 6.653157 
30.429758 -10.511629 -6.422302 
-7.693155 24.443895 9.259275 
-19.447586 -10.560870 8.627034 
22.779060 -6.486357 4.920363 
23.041704 10.012548 6.023980 
-5.671323 23.718637 1.609060 
-0.901865 30.106508 1.786795 
-18.028568 9.270541 2.093387 
18.560780 -5.517974 11.689585 
-24.490540 -6.015488 10.620330 
-18.264208 5.238629 10.944426 
5.677357 29.826576 6.644299 
6.289237 32.525261 10.241287 
18.740250 -6.475999 11.609423 
26.108124 -14.290894 -0.721579 
29.180895 -9.596087 -0.651263 
-26.582615 7.393790 7.613195 
19.042545 -6.468525 10.792183 
-11.591811 24.432791 -0.322621 
-2.303774 22.918486 -1.059972 
17.476892 1.651273 -0.435542 
-6.931178 21.373959 17.576973 
-17.357349 21.486389 6.724994 
29.782417 -4.051096 -3.823411 
7.312411 27.644117 8.624343 
-17.538017 10.172731 1.783711 
10.924866 17.631268 14.752956 
-21.027527 -8.568620 1.968113 
28.498995 -3.093976 3.078230 
-14.742241 27.788225 9.894762 
-19.434366 -12.681559 9.536530 
-29.970104 -12.154295 0.478853 
25.025404 -2.073273 2.292598 
19.862579 19.570154 13.051248 
22.705103 15.308897 3.711843 
-19.113333 23.969971 4.696822 
-19.370316 -5.901175 3.585159 
26.521793 -4.674871 -1.237108 
25.995646 5.740105 7.819770 
18.123165 -1.858941 16.745628 
-27.204222 0.534782 1.747059 
27.387690 3.648961 10.634219 
-21.862638 -1.696915 14.148885 
-12.636894 23.834951 12.019324 
-23.905190 -1.703380 6.916722 
-12.691794 30.220974 7.639009 
20.596376 -8.514680 7.073234 
-19.596428 17.892887 -1.425188 
22.689144 8.302599 13.258898 
-25.495461 -6.477590 7.352240 
21.289803 -11.834085 6.437091 
-29.042498 -5.309169 15.645640 
-22.259512 11.471689 0.308377 
-28.321075 -4.814440 2.493259 
25.595985 4.140071 12.372395 
-14.583265 9.788488 -1.881192 
28.224031 -2.176838 8.763306 
7.073776 26.236410 10.962337 
-25.079174 7.524463 -1.872002 
20.647402 -7.285711 11.367316 
16.645432 1.597392 -2.831430 
14.473618 9.318080 -4.301351 
13.918737 12.267844 -1.708784 
28.218039 0.014055 -0.000544 
-26.770338 -4.767204 10.110842 
-21.570040 -0.663038 6.227333 
30.468657 -5.444633 0.954346 
-17.675648 24.212061 14.806127 
-27.839123 1.245645 10.199626 
-23.409958 -10.204630 11.409377 
-20.061258 -6.229833 11.111729 
-26.771442 6.867160 15.979081 
-22.978365 16.764641 12.767561 
5.345085 27.445391 -8.014659 
-22.915997 12.274829 -4.074455 
13.631076 19.243986 11.031965 
-17.546246 0.713265 8.635900 
-13.185553 25.875044 17.738832 
30.352057 -5.675036 2.747531 
-23.479891 11.383733 -1.760580 
-4.689196 22.153704 -1.410731 
29.982759 -5.737980 3.783470 
11.792517 25.817970 10.237035 
-24.928055 6.682236 3.427110 
21.879223 -6.152707 -1.638231 
-20.540142 -15.543801 11.401988 
-18.219280 -5.090321 16.652700 
-6.181071 29.013580 16.986109 
9.923939 21.797024 0.402670 
-24.165236 8.489220 0.139040 
5.162845 28.832548 2.093065 
-20.553743 23.451431 7.076266 
-26.288996 2.233243 6.188760 
11.542978 22.733637 3.338563 
29.232908 -3.090435 -5.115628 
21.701534 5.657181 9.802764 
30.296009 -6.628924 -5.318892 
-9.279584 28.654909 15.701083 
-20.453764 10.922086 -1.573960 
-22.427706 10.236085 13.454052 
21.455519 10.691301 6.720432 
22.619207 12.485271 8.849305 
16.408876 14.478692 1.723183 
-17.236494 20.535316 6.663545 
-26.518116 -15.340833 13.139385 
-17.385410 8.157914 8.708474 
26.330303 -16.066519 13.067814 
24.059544 -1.621004 0.699435 
27.556536 4.912987 -2.611007 
20.478615 19.160080 14.632711 
-18.187483 -8.936349 -0.748900 
28.517609 -9.936689 7.614832 
