-23.162560 -2.203056 8.053582 
9.440336 28.352911 10.574605 
21.283413 19.988108 -0.086028 
21.093184 11.930817 -3.839931 
32.407009 -18.143614 -0.659932 
-29.140038 -11.624129 2.642400 
-15.637070 23.442263 -6.656349 
22.833626 16.539419 -3.704301 
32.130447 -16.672071 5.448838 
22.387224 -13.839368 0.680186 
-28.461540 -20.522234 13.037767 
-7.650820 26.635513 -9.554095 
-24.005108 -18.991926 -3.387976 
-11.759980 19.429129 1.363206 
13.439689 20.196835 -4.333684 
-18.735218 -1.148143 1.763769 
21.298876 -3.428231 1.565763 
-28.826458 -12.230331 11.594646 
10.061442 20.174475 13.354516 
24.952856 -3.696573 -0.502950 
-27.393177 12.372199 9.615660 
-26.440924 1.765679 -2.852790 
29.990734 -17.684769 13.198611 
19.120758 18.043478 8.680735 
-22.018711 6.350188 10.955550 
-32.162796 -19.660873 12.268387 
29.104612 -10.894293 8.598371 
22.394444 -4.578504 -0.116393 
-20.081947 13.914148 9.448972 
-26.759062 11.314251 11.667134 
-16.636665 19.740292 4.677186 
26.117199 4.852464 7.741534 
10.587733 27.904119 10.398057 
29.003439 2.005797 0.114328 
21.047768 20.143763 8.619385 
20.249113 -9.396560 -2.361373 
5.522764 25.799314 1.112852 
-8.051417 26.363146 8.806484 
-31.076357 -14.009232 7.962069 
-14.416881 14.654790 5.135871 
-24.363626 17.330647 18.154011 
-11.864596 30.034628 6.219954 
12.330322 13.977126 -6.427528 
-20.210358 -2.100154 0.538768 
-20.260277 17.453106 -4.548892 
-15.838087 24.993881 0.228787 
20.330769 4.538224 -2.798418 
28.930983 -11.499084 11.084336 
-12.404614 14.934396 3.613260 
24.816412 -21.693428 0.069665 
16.677559 18.116671 -0.607709 
-18.235857 18.786509 8.205666 
-14.955982 25.648193 6.290512 
-22.231907 -7.000536 4.179475 
1.213776 19.589314 -8.041570 
18.905787 12.665045 -2.591269 
-30.091484 -12.470754 13.130194 
-29.810946 6.478540 6.685537 
24.593632 -14.041607 0.858439 
20.983362 0.783578 5.758622 
-15.631633 21.503036 6.383361 
-32.056072 -23.559557 5.246183 
10.454237 17.296608 -3.677260 
-33.009346 -22.209677 4.987126 
20.121174 -3.665028 0.531219 
5.846262 31.415806 16.534515 
22.328112 -13.241730 1.963826 
-27.245003 -17.925505 0.323434 
-7.929100 20.780569 15.011230 
21.713100 9.528044 -0.303239 
6.996064 27.792374 4.278057 
4.009444 29.934591 3.461401 
-16.358299 20.071285 8.669856 
-7.044026 26.055227 7.327341 
26.067596 -9.440271 4.132195 
-2.798876 24.585844 2.487127 
-4.172576 26.342251 1.420693 
34.209412 -10.689821 15.438498 
-7.684346 30.247625 14.715311 
20.673307 11.535110 8.657597 
26.232418 -12.263038 5.099171 
20.455624 8.385840 -3.077099 
25.791433 -4.558345 4.535887 
-16.617773 4.267123 1.123383 
22.237215 8.669241 -2.051318 
19.392765 4.846344 9.998062 
-28.410059 10.666227 15.185192 
-12.830800 15.134066 -0.901428 
-15.843224 18.895163 5.803164 
8.138111 18.848429 -3.374608 
-12.513741 21.173845 -4.905335 
-16.860014 19.418634 -2.326478 
-29.298492 -3.221744 2.811700 
20.709082 17.255157 12.409785 
1.621919 29.571659 10.482619 
-20.575476 -8.329112 13.348484 
-14.825131 23.870096 -8.191834 
29.331169 -19.767822 13.308722 
30.479898 -4.718479 8.835835 
-6.769570 34.382874 12.591421 
-21.100069 9.311850 1.786763 
-32.466621 -21.604866 15.954364 
27.955055 -15.673181 5.651866 
-21.694448 -11.650162 0.807110 
25.669098 5.350915 -2.830156 
24.319399 -19.739204 -3.617913 
31.861267 -12.276763 5.135857 
-23.630232 -12.813241 1.225146 
-11.303586 23.335901 10.421150 
-12.420505 18.181128 4.554926 
8.034353 27.371178 9.613011 
-22.747208 -11.852856 -1.052946 
23.426889 15.360963 -3.623218 
12.681302 15.984509 17.821383 
-33.593918 -13.712801 10.787408 
-10.419282 33.190689 11.507750 
-25.370081 -12.882905 0.732568 
-2.427400 23.966082 -0.219459 
32.008049 0.263515 6.962798 
-34.005291 -11.996368 14.910134 
18.187183 10.242556 3.543369 
-31.926355 -1.232049 17.668152 
6.348101 27.127615 -9.384023 
-3.990638 35.163628 10.805548 
-0.651298 22.218479 18.110111 
28.654085 -14.719302 11.378740 
13.428195 26.841829 -2.634765 
4.974555 18.759243 -8.548413 
18.503948 4.636484 -1.107316 
9.114040 20.501383 14.039546 
-24.100998 -19.668270 2.583724 
-34.411926 -17.002251 10.891672 
-29.438215 -4.740093 -0.799281 
-23.996601 2.815054 4.319825 
-13.472735 23.592121 12.409736 
25.638096 -24.642565 9.902359 
-18.163998 6.819281 10.063708 
-18.072384 7.514214 2.504423 
18.623505 5.317413 17.460796 
-28.237701 -3.610045 -1.129174 
28.507658 4.007346 -0.349564 
-20.062546 -4.187764 12.372238 
28.373301 -23.562090 7.657061 
-28.750845 -24.036259 -0.246191 
-17.936390 3.933681 4.569904 
-26.150936 -4.919783 11.209531 
-20.506752 25.630688 12.024609 
-16.508932 24.431807 4.077777 
1.058658 30.272812 7.632715 
-13.525293 11.932314 -0.341120 
21.014660 9.769194 3.591015 
14.695471 26.579224 -2.427441 
26.689754 -3.251150 3.256538 
-28.111740 4.204151 11.354941 
18.979523 15.860788 4.559267 
-18.667006 16.879152 3.533811 
-21.143635 25.748501 8.014999 
-9.694167 30.034401 3.515986 
32.465279 -5.996655 6.566617 
-24.586996 10.411954 3.505608 
20.251259 14.989909 -2.190737 
35.126503 -16.914940 -1.212011 
22.947481 -6.159358 -2.030805 
16.445475 27.079041 8.955197 
22.551090 10.824369 4.440369 
-24.485655 -18.881031 3.697331 
-10.972260 25.410152 1.491670 
29.807867 -1.541421 8.232083 
-17.469015 1.428819 -0.577775 
4.532064 20.084066 -3.201192 
27.481853 -1.019086 -0.619840 
29.787827 -24.679544 1.692492 
23.947409 19.770744 10.521424 
14.583861 15.599159 -3.950607 
-30.869394 -21.356998 7.038224 
-4.059488 29.297899 9.639938 
-31.503267 2.922956 10.546157 
13.510620 29.267076 12.799576 
13.949739 30.518858 8.025615 
20.310461 -3.713053 15.362428 
11.173619 24.673580 11.876767 
-19.841667 15.957173 -0.496313 
20.565218 -7.624637 -6.605293 
21.848032 3.163134 9.784761 
-5.482301 24.061579 -0.793213 
-8.061780 27.721407 -0.297609 
-20.325426 6.939011 7.519083 
15.316683 9.655006 -2.603333 
15.582723 19.931192 0.447457 
16.010536 7.202123 -3.077191 
-32.027103 -12.673364 4.706025 
-7.747433 36.200031 8.747878 
28.829014 2.818233 0.588332 
27.939606 7.481962 10.360532 
34.216366 -23.264837 -1.066606 
-16.504017 12.692472 -2.494700 
-11.842306 29.851215 5.065615 
14.893317 27.689531 18.147974 
-16.942841 20.914890 7.368207 
21.146139 19.885059 10.517816 
17.863203 19.004976 -4.781204 
-22.058132 -11.244521 4.683485 
-9.071075 24.979811 8.806288 
26.861643 11.591679 9.851323 
23.698277 -17.605207 7.807254 
23.247433 12.294750 9.640999 
-12.040742 11.523737 -7.251792 
19.099926 -4.024475 -2.771687 
2.507867 23.388885 12.345181 
19.591799 6.505577 -0.294786 
31.090742 -10.292416 2.736790 
-18.584974 22.094921 4.076469 
-13.452553 18.410791 10.165394 
16.752302 10.634072 -0.128207 
-30.429552 -4.522101 10.776289 
20.904699 2.507273 -3.138458 
24.865900 2.048541 3.928464 
24.136656 19.767097 11.541002 
-30.686716 -4.015462 -6.953331 
-22.416546 21.479820 5.594763 
-25.337093 -11.200486 11.254261 
31.397854 -4.600098 -2.314174 
30.193527 7.937291 13.202357 
5.639058 18.383654 -10.124128 
26.834099 12.494276 8.369135 
-29.131048 8.537498 11.794014 
-10.516316 28.924007 10.775571 
13.601644 12.214623 -5.730344 
8.994545 26.664886 4.999135 
32.503742 -19.472996 -0.690229 
-7.329123 17.735245 -6.066633 
18.122120 1.945230 1.432005 
-24.227968 -2.454750 1.703833 
-17.122547 22.814915 0.711301 
16.753847 7.804890 -0.313823 
-12.046168 22.223362 8.723783 
-10.287214 32.035633 5.498895 
2.004328 26.648350 9.707950 
23.456648 14.903599 -6.279405 
17.510359 2.185224 -0.635225 
-30.867989 -6.799397 0.445470 
-18.224422 9.194790 -0.318572 
26.691771 0.852075 4.752835 
-29.580921 -6.396274 -0.908712 
24.239790 -4.401999 10.122516 
25.914562 14.707969 11.032597 
13.118437 22.540503 8.282091 
22.201939 5.965384 4.640925 
30.708948 -17.222130 -1.007280 
-8.632963 26.847242 -2.277265 
24.319702 -13.375921 3.879954 
34.873390 -22.112595 -4.662216 
16.979631 19.233103 -4.256218 
-18.217421 14.263134 -3.099874 
21.357548 11.891791 11.215441 
-18.389242 2.184663 10.913646 
-1.895337 32.537849 17.306179 
32.765533 -6.246288 7.447192 
17.984749 2.784502 1.775087 
25.418133 11.756373 -3.265618 
28.395910 11.933550 11.759647 
11.173995 18.063042 15.968110 
-30.548584 -22.215071 2.221129 
-17.955736 19.392416 9.805176 
28.548571 8.637970 10.785647 
-22.933228 14.049563 3.253382 
-13.627707 19.717588 -2.849322 
8.238323 23.598200 7.197781 
24.469210 -6.866525 10.032787 
-20.922911 1.837687 3.597140 
2.357284 23.799225 1.416539 
20.737299 -8.734684 10.676482 
8.274096 27.231461 -0.858467 
5.813512 31.748596 2.179826 
21.160236 -8.837012 -1.624852 
22.923889 12.113035 5.549057 
2.821912 28.662745 -0.474453 
-23.268433 20.596977 13.096045 
11.634139 25.482422 -1.403696 
-16.573561 13.301343 4.140982 
28.462126 4.360747 3.362045 
30.254606 -10.604949 11.024442 
-11.887921 13.895808 1.751699 
14.732686 24.666893 -5.130466 
21.322878 17.816690 -8.618674 
-18.524538 0.712820 -2.841355 
-21.741499 -4.348544 5.038774 
12.888409 14.926165 -3.053847 
30.540272 -14.315697 8.548791 
-14.259355 25.970499 1.467169 
11.269266 25.711319 7.930834 
-26.370949 -2.121010 0.695541 
-29.523138 -4.057555 8.611150 
2.124501 32.657757 15.115578 
24.454369 18.334139 17.797319 
-7.549236 32.691715 7.847161 
-9.830400 24.832043 -0.305479 
-25.320278 8.419099 1.779593 
21.195774 6.440316 4.567595 
-27.327587 -18.035679 13.638278 
-13.821181 27.523010 8.866426 
-30.551582 -13.847247 7.057910 
11.928041 30.058159 13.050214 
31.873085 1.342065 6.296970 
-14.659752 25.988869 9.600500 
13.957619 29.601267 10.445393 
28.026707 6.752707 -2.393219 
7.430116 18.120832 -6.274651 
-17.710712 27.860352 3.562937 
32.427280 0.777236 17.218132 
-24.232567 -15.214973 4.729361 
-11.646622 19.319788 12.260467 
-27.787071 3.932613 0.537189 
13.465300 11.941558 -7.357719 
-26.185490 0.952207 4.542824 
-23.249722 -2.534509 10.340069 
-9.893622 27.686996 10.921678 
-22.773951 15.166324 12.023001 
26.133377 10.001685 -3.674811 
-7.706275 21.373251 12.946063 
12.898736 29.950653 3.473255 
6.614214 23.711052 -0.853106 
-18.410248 17.937513 -0.957003 
-27.178749 -22.258657 10.942561 
-9.728952 23.863909 0.622107 
25.135466 -5.881621 9.850539 
29.166952 2.449471 -5.545922 
21.811792 -3.144676 8.738216 
14.503653 28.737871 13.999043 
6.212408 27.474251 13.076966 
5.057356 27.947809 6.686560 
25.846279 10.741464 -4.246061 
30.473387 -23.294893 0.714016 
18.309788 14.168729 1.868606 
-7.168237 23.743326 10.293395 
-16.586546 19.565668 7.572113 
22.849432 -7.681465 9.542661 
-31.558611 3.099454 13.843483 
26.147562 2.239230 4.732110 
-25.663391 -4.205064 10.753236 
-7.633585 26.838449 9.695713 
-5.380214 26.793335 2.862572 
-17.053255 3.021643 2.579095 
-3.954999 36.156082 8.826278 
-19.300529 26.185453 12.183859 
-26.765751 13.837383 6.247986 
22.012758 -13.524098 8.460754 
-18.772751 18.116449 3.569437 
-3.730266 18.714565 -8.180759 
-17.202982 10.740294 8.554127 
-5.514076 26.713377 -2.094240 
26.261147 -19.585815 4.047776 
-21.435781 14.107924 6.906628 
19.718100 17.516525 -4.987565 
27.355856 7.792339 8.855192 
-29.783091 -18.973104 0.474879 
-12.262285 22.216768 4.995677 
16.249847 21.069901 -0.859600 
-11.436899 23.535200 7.609669 
17.167107 26.005453 4.575224 
-22.447725 -6.820382 5.329419 
24.323364 19.517174 15.134752 
8.128402 23.966745 9.626476 
15.735058 25.662304 10.575455 
-11.363924 26.900141 -2.303764 
1.126805 32.238480 5.734232 
29.630964 -12.186815 -0.477349 
26.045614 17.001101 7.783940 
20.182480 -2.651591 15.521526 
3.300640 32.122658 16.306627 
27.826349 -14.491825 4.455379 
-33.533123 -10.381789 12.620372 
-5.440928 28.691042 -2.258276 
-6.776096 26.154192 -11.152764 
-27.288273 -17.496019 5.539850 
24.639881 12.659245 -0.514968 
-0.265402 19.245071 -10.225244 
-16.673674 16.351778 4.675676 
-16.513041 21.872429 -8.830113 
18.448565 6.926814 11.012946 
-22.603012 -15.281804 17.181379 
-8.084058 22.435926 -0.607148 
-3.820908 23.982643 -0.379225 
19.773064 -1.009585 4.662268 
13.764677 15.175204 -1.369861 
-31.768705 -11.379502 9.721916 
-11.434873 25.316631 2.879719 
-17.901632 7.132567 3.488882 
27.063602 -10.002275 -2.180849 
3.131058 21.695414 18.064814 
-22.927031 2.135470 3.751086 
4.968257 29.770788 3.029539 
22.427517 3.974488 8.865323 
-21.595089 19.289680 11.503183 
11.239676 26.228981 2.145079 
-29.236547 -13.996538 13.875701 
-9.200730 36.024155 8.011497 
-19.888735 8.493403 9.595500 
-26.937984 -23.406160 3.814375 
-27.255014 -20.970476 8.717770 
-26.861113 12.634193 18.035706 
24.792109 11.812552 9.205062 
22.799955 14.035110 3.084404 
29.224405 -2.860186 7.622193 
-3.116873 23.208687 -0.355750 
-20.051411 11.059834 7.546325 
-19.868401 1.400973 5.544418 
16.922762 19.998621 -1.541619 
-21.883991 5.148315 11.301458 
32.971230 -9.347208 -2.455892 
31.162386 -4.115265 -5.551442 
6.635292 31.987995 7.996838 
-19.120747 2.821839 -0.400633 
20.737141 -7.614856 2.565638 
-22.672606 -17.347784 11.225806 
33.719456 -7.454150 16.965933 
23.492598 -7.369443 5.272220 
7.409667 25.050034 10.789633 
8.492390 16.811209 -9.916947 
-26.638449 -19.421549 8.714666 
-31.080364 -0.531219 9.734138 
-21.087839 19.556522 9.380591 
21.595184 -2.933378 6.557015 
27.809347 -13.345610 4.309412 
23.223410 -17.365810 -0.401839 
24.553389 13.682064 -2.692505 
-20.492950 15.941441 -1.353932 
17.443653 13.554646 2.090975 
-28.687059 8.003337 9.766782 
-28.360348 -11.356095 4.828944 
-32.044319 -9.227629 6.678269 
12.298932 26.864279 -6.036014 
-23.213894 -9.018096 10.976994 
27.949060 -22.352177 -0.648618 
29.020985 -22.107660 4.621415 
27.867447 11.768348 7.630348 
-20.031103 14.127513 12.079867 
-19.538116 10.357921 -0.076742 
-19.886154 2.796032 -3.546232 
24.221512 -4.010062 10.990314 
-19.388535 12.524652 7.776856 
-4.175438 26.530426 6.905612 
25.145882 -18.075169 4.294228 
-11.474611 24.820711 3.905076 
-21.058334 23.388323 6.348524 
-29.442200 -11.073218 3.669728 
-2.294394 22.708771 -0.385218 
-1.014519 29.180565 -3.882577 
24.260242 -13.670714 -0.187131 
20.730566 1.032906 9.922760 
22.640881 -0.232396 3.568675 
-22.635908 5.810138 -3.632171 
28.107903 12.062546 10.228713 
19.511024 0.326064 13.026163 
13.558029 26.606428 -5.430748 
28.473200 4.532899 -5.839080 
4.582655 24.575218 9.291059 
21.012072 10.029181 9.100636 
23.751780 13.963490 0.581186 
15.054122 17.127281 2.780535 
-18.806961 -0.408015 -1.677887 
-11.357216 12.432480 -7.702257 
20.804760 25.017860 10.920341 
-15.125041 12.597890 1.502601 
-4.386204 27.467642 -1.027725 
-31.687826 -12.806546 8.910619 
-30.734015 -11.296661 11.015340 
-15.477292 18.064377 6.393188 
-13.782757 23.071194 7.309146 
-31.695795 -10.283591 6.598519 
21.651466 5.874801 5.488892 
-19.509398 0.519698 4.751570 
27.816214 7.050855 3.762204 
-20.439167 -3.452063 9.444277 
26.162350 -25.484913 12.389186 
-34.517551 -14.820251 13.957342 
-17.681541 20.621113 -8.737369 
-27.426287 -15.489794 0.413682 
21.593950 -11.565505 3.927336 
19.408396 1.258495 11.511492 
-25.594534 -22.298191 3.965928 
13.110548 25.995350 -3.404701 
11.941213 30.167400 9.121948 
24.646181 19.085432 12.020101 
-5.466055 23.638218 2.380128 
25.509840 11.697680 9.762315 
11.156536 28.279617 11.172048 
4.340106 19.490444 -5.437520 
-9.398911 30.467052 18.421793 
-21.530890 -4.673483 8.460782 
-27.569883 12.124226 4.318337 
22.556734 -8.366595 6.424527 
-11.642236 15.387922 -2.493298 
23.649202 -12.450503 5.335150 
20.573093 -3.663012 17.181377 
20.659325 19.753494 3.799830 
-24.324299 -16.140730 7.336742 
30.660824 -23.488153 2.702990 
24.792549 -15.984674 9.774280 
26.410027 -4.993578 8.507201 
-32.519588 -14.333058 14.059546 
22.802011 5.304547 -3.068974 
-30.890810 -4.068094 -0.364752 
-22.829365 14.310833 -7.229661 
-24.325167 -12.996904 1.866348 
-33.410954 -19.005032 10.976754 
-20.236641 16.600624 4.427451 
-20.801346 -10.819612 2.190754 
14.998275 21.589546 7.082271 
16.220110 24.519650 4.029809 
33.330734 -20.427816 7.780053 
-21.267786 -7.213724 17.407991 
25.794199 -18.961226 6.750821 
-24.257046 19.229908 13.686184 
-22.291599 -8.907827 5.658378 
23.158247 -8.558404 9.897023 
24.622551 -17.078566 6.631931 
-16.274120 21.252035 13.311023 
-27.295706 12.938418 15.523239 
-17.799026 18.880844 10.801224 
5.530674 32.317497 9.738791 
-33.404781 -6.063358 11.557684 
29.682981 -5.302076 7.570817 
27.376078 7.245337 -5.447773 
22.250015 0.633171 3.269574 
23.496277 8.550687 12.107437 
-1.157065 26.542231 -2.869979 
-3.588710 31.602324 13.200791 
24.479256 8.325215 1.887347 
6.235607 18.642643 -5.853470 
-21.429148 -11.307470 -5.981215 
24.574436 0.905777 3.846446 
5.023469 25.202839 1.710611 
23.217012 -7.130817 6.215086 
-4.000797 20.401999 -2.224997 
-19.587328 11.518294 10.348160 
27.251781 2.070889 11.686085 
18.027603 -0.775628 -3.910103 
-16.220518 12.735019 3.375829 
14.338837 20.596796 -4.418705 
-12.909822 25.842592 8.629797 
-6.607777 33.995552 13.452981 
-18.530621 27.039330 11.085183 
-6.173151 35.289135 11.265427 
-15.225237 19.742641 10.504514 
-4.225962 28.402746 -6.108702 
20.380466 20.560061 -6.172245 
-26.148155 8.195659 -3.979208 
22.251104 12.122015 11.688896 
31.448383 -24.448700 -4.332557 
21.643450 16.632675 1.304963 
-29.984453 -4.608038 4.696463 
22.697237 -17.726402 8.521506 
26.759106 7.557446 0.263441 
-14.617746 18.922577 8.126494 
-22.934746 -8.607807 4.595225 
-26.414106 -9.914767 5.818760 
14.375259 21.507168 -4.805970 
27.456997 5.014987 2.964096 
-27.115782 13.696801 14.077029 
2.483712 24.766184 1.420455 
24.263123 -9.918242 3.995269 
27.412218 6.964544 -0.119881 
15.466797 15.152539 2.237396 
24.777943 11.656670 0.427902 
16.985174 19.105993 8.395332 
18.547085 5.311898 15.625739 
16.661802 23.666977 0.513490 
-21.926451 -13.402773 15.282547 
15.014595 15.917039 2.743336 
-1.856779 26.393816 -0.631009 
22.744013 16.203693 -6.396306 
-24.748346 -21.158421 2.606185 
14.767655 17.012587 -4.201342 
13.161263 23.971678 7.767451 
22.084238 7.418872 -1.387929 
-26.737207 -22.335600 -4.455954 
16.333540 19.279116 6.904269 
-10.255260 14.769734 -2.977021 
-19.552217 -4.189622 0.642802 
-26.003063 -14.317788 12.146888 
23.833038 17.776533 11.422686 
19.647560 25.697424 10.454039 
-19.287100 18.576893 -8.769455 
-19.122074 26.004881 2.340743 
29.022327 2.038620 1.079950 
-29.164845 0.404097 -5.959471 
-18.934090 19.339462 10.723702 
14.685461 18.811684 9.935455 
-20.874807 -7.254443 15.755981 
-34.073265 -14.615770 10.998657 
-10.658586 30.257248 12.431163 
-11.244315 26.348852 -7.580345 
13.548540 28.902609 16.311483 
24.967522 -20.876875 1.522920 
21.467779 6.354584 10.160772 
16.507086 27.172173 16.952444 
15.409884 29.249916 9.158134 
-14.982845 21.292812 7.023562 
-20.898727 -5.117443 17.466698 
32.443272 -8.166684 -1.166188 
-23.204142 5.852652 4.364803 
21.811802 19.219147 0.372363 
18.011250 22.942593 -2.407375 
-7.824831 26.158428 -1.125808 
-27.966593 10.411343 17.979105 
-29.590771 -2.070773 -0.581247 
28.324696 -7.267885 -1.872138 
-12.371391 19.313387 4.491877 
-6.287503 32.814011 15.070459 
18.849850 22.002802 -2.175730 
6.789328 30.101501 2.008899 
31.949263 -5.639985 5.545694 
29.844652 -8.717416 11.054529 
-11.333394 17.861130 18.066525 
-25.556982 -12.674906 2.995611 
24.696648 -1.938155 -2.106048 
28.633070 -5.581924 10.188361 
-30.597878 5.381948 8.251978 
-19.133219 -1.240961 11.784439 
-24.040453 -6.294523 0.754561 
-21.006996 3.645396 3.649452 
-22.960608 8.637753 -2.306137 
17.251810 13.271669 1.159691 
19.798140 -1.633307 13.047134 
-30.079540 -10.122330 3.556205 
-15.092567 19.752340 4.026130 
16.186714 18.381800 3.652489 
-8.126293 30.910892 18.424774 
-26.211811 -14.723621 8.079775 
34.341805 -11.808334 14.052248 
-9.031221 23.154394 0.497261 
-33.901157 -12.000512 13.847412 
25.165377 11.817277 3.035728 
8.947505 28.649719 11.972479 
21.725409 -2.000187 10.878235 
-6.648677 36.495663 8.494376 
17.041298 26.488031 18.095661 
-21.986696 14.700508 11.640363 
25.468443 14.106013 6.278693 
-1.541143 22.871244 16.266846 
21.559872 -13.421000 9.581622 
35.186630 -20.340467 -3.312030 
-28.140730 -4.439583 11.109348 
23.491396 -3.082148 11.196049 
-19.239386 11.821134 2.991049 
-30.243269 -19.739622 14.069536 
-35.764454 -18.423950 -0.090858 
-20.215147 10.120996 -3.379879 
-16.630827 9.535475 12.968282 
-20.979111 2.776873 -3.703398 
-8.483933 26.096943 6.859105 
5.512450 24.100863 3.980572 
21.176329 -8.952085 17.021126 
-29.574226 -8.560526 5.748963 
-20.950760 -10.660029 10.020745 
-14.155390 14.676292 12.392416 
15.579491 14.969347 1.107813 
-17.457108 2.722409 -2.823502 
19.669542 25.537014 4.172752 
-30.477081 5.303759 6.641654 
11.342367 21.662714 1.876893 
-32.993889 -13.245078 9.512110 
25.344456 7.993128 -0.503195 
-14.770464 24.510025 13.111769 
-21.673178 2.071252 11.653722 
26.901276 14.550750 11.595224 
-31.561047 -20.449720 11.117023 
-16.803743 20.015932 5.778409 
-24.977861 -17.561735 0.949657 
-27.268559 0.920098 1.591608 
-30.769794 -3.021955 9.804403 
15.883587 20.728445 8.856910 
-29.195480 -2.526402 6.283434 
-22.993246 5.848369 11.284799 
-24.728556 14.239410 7.584689 
1.546887 27.804022 9.529150 
-19.814301 11.840446 -4.022987 
-32.297417 -6.362604 8.633964 
-16.455225 23.658943 14.139648 
24.701332 11.029867 11.370410 
31.073776 -2.145186 4.222117 
-30.299881 -11.703938 6.508101 
-2.478797 33.661835 12.898334 
-22.146801 -9.692539 -1.850371 
15.260086 20.459902 -3.576763 
-22.604631 10.923016 -0.832556 
-22.126209 -12.284160 17.265730 
23.934484 -11.951683 10.142669 
-33.489971 -8.536105 11.504839 
-22.276449 -10.503975 5.451732 
-15.371675 14.626500 5.497211 
-10.932584 17.666845 0.836912 
0.334117 27.454363 3.817887 
-21.487020 -3.138167 3.981434 
-27.812117 11.383557 16.675484 
-25.491774 -19.687441 7.488857 
-32.629623 -19.995876 5.739881 
-0.975136 27.651894 8.627066 
34.062176 -17.813925 9.992646 
4.369178 30.709833 11.693472 
22.924847 -8.239070 5.521471 
-21.181725 20.353861 8.598449 
-7.509544 28.157742 -1.669310 
-28.554323 -17.504427 14.298746 
-4.149759 36.645718 7.727222 
21.059566 14.884547 2.761248 
3.068299 31.659224 11.743311 
-27.256907 -2.402601 8.614251 
-27.120745 -1.875612 4.664686 
5.542980 26.406309 12.656032 
1.784186 23.817249 11.877218 
-23.733093 -5.754151 10.794060 
26.895523 -25.654066 14.856735 
-16.721893 27.443995 14.004775 
29.569344 7.913541 9.638330 
-22.298958 15.452900 -4.226127 
-16.513149 6.095143 -0.368552 
-12.456734 25.664202 3.149503 
24.628485 -5.683201 3.510863 
31.067579 -1.417052 3.617997 
-31.802389 1.994234 13.521290 
24.648159 11.903061 1.560696 
10.887965 20.934546 0.929512 
-24.588875 -10.510628 11.261642 
-25.508965 15.432956 9.995826 
-10.324165 23.480564 3.505618 
-20.931353 19.786013 3.821061 
-33.437073 -12.836544 11.419382 
-4.299610 27.559931 9.635504 
-18.817345 -1.036847 3.312408 
-12.039641 21.962538 -1.367962 
29.431108 -18.134897 4.581024 
5.667385 26.749144 2.732839 
-24.425282 -0.545016 8.386219 
14.082500 24.298532 11.972795 
30.907513 -6.779567 1.094613 
20.467472 13.282712 -0.216632 
21.011887 21.546686 13.170346 
-20.836470 -0.352564 4.587761 
31.597317 -23.253744 2.662392 
-12.169819 32.746746 6.555250 
-32.489059 -8.315275 -6.359402 
22.361319 -19.016590 13.154773 
-10.088677 29.285788 8.461846 
-10.605046 25.605963 0.517296 
-2.472139 29.018951 5.923035 
23.550398 9.201745 2.072403 
15.888646 28.886297 5.506373 
22.430693 -3.895333 8.747179 
-33.450466 -12.058757 12.053305 
31.292301 -21.431841 6.717998 
-23.435350 -18.441813 2.624768 
7.215297 27.072746 -0.496889 
10.007403 24.290884 -1.512881 
25.693705 10.711428 2.514482 
-11.275548 29.633648 3.678287 
18.030630 26.543983 15.597783 
-11.954113 29.006859 9.524001 
1.730117 23.347347 13.113444 
-31.891401 -10.484283 9.916001 
33.248455 -22.313498 1.314416 
20.493366 -3.989210 10.271768 
-23.251781 20.729544 6.972019 
20.336391 -4.825638 13.527969 
31.735722 -15.099190 0.244469 
28.941675 -12.684073 5.161115 
-33.018013 -10.029931 0.017269 
-23.377182 12.778880 3.912176 
21.674015 -15.115155 14.798352 
-16.372047 10.687234 1.995224 
10.886847 28.039246 9.362757 
-23.027710 21.090616 5.026643 
23.931288 4.643862 -0.595849 
30.052643 -19.094942 6.913154 
14.971528 15.924917 10.091399 
-16.841335 8.834063 16.176922 
31.126081 -23.064497 7.531859 
-22.871731 -16.062105 9.435929 
23.362125 -18.174360 9.314954 
24.941465 -7.760990 10.475786 
-32.475250 -19.938938 11.306869 
15.354573 14.465318 -2.578678 
31.872124 -0.514497 6.171544 
5.435299 25.136570 0.213154 
10.237642 23.509787 5.250002 
-30.132624 -11.383107 5.635041 
17.836531 18.115700 10.284266 
32.748924 -8.070798 5.711976 
-21.063305 -11.245511 -4.723456 
16.814531 18.253069 10.971002 
24.473608 9.666036 3.556168 
22.537378 -17.993536 16.744570 
-20.314415 22.480289 14.010465 
30.903284 3.088886 3.218258 
3.486864 19.082651 -10.213705 
22.366163 -11.200752 9.499811 
-27.936249 3.020872 1.326161 
19.838387 -7.149524 -2.801785 
-21.182484 19.391981 2.883741 
24.877182 3.343211 4.063828 
10.002455 21.832371 -1.515481 
18.357075 11.826693 6.634109 
-27.621868 -14.432506 0.670085 
24.637495 -3.150091 1.626106 
5.437529 25.347742 12.034343 
31.071285 -18.253593 -1.142745 
6.507804 32.023540 8.964216 
-18.483694 1.974576 13.108007 
-12.228302 17.037457 4.335053 
24.943552 -15.873114 3.621031 
-23.651125 13.270622 0.375153 
19.851482 11.003831 -0.581628 
0.682064 21.163731 -1.897554 
-19.197634 14.083932 5.727905 
20.490185 8.960877 3.358833 
-9.781970 34.754276 9.966080 
24.004101 1.619734 3.687880 
23.660852 15.106701 2.322968 
-26.549675 7.273942 10.092961 
25.700169 -14.984031 5.784623 
28.108622 -9.524964 -1.948779 
23.021101 13.309766 -3.041295 
11.092356 30.041212 15.697934 
-21.605780 16.226044 1.504333 
-22.095957 -9.291110 6.553078 
-2.594008 23.644037 1.438276 
-25.241879 -19.674116 4.816689 
16.948835 25.059790 4.354168 
-12.481881 20.469776 1.366271 
11.729969 29.941448 11.070629 
18.859701 25.926266 10.013781 
7.303967 18.908117 -3.839434 
28.671146 -7.985619 8.444838 
-15.029600 12.847770 15.857615 
26.089508 -2.416672 0.530638 
23.412474 2.041226 11.565021 
33.043125 -8.736923 6.788288 
-22.348686 -10.833176 7.611333 
-21.561161 -12.633251 11.507756 
-22.737841 7.550945 8.620035 
-27.411358 1.776699 2.633181 
-23.337906 -13.584684 8.709062 
21.237282 16.128473 -2.713662 
20.794733 -10.011968 12.949646 
-11.221279 26.157366 4.602804 
-21.769915 -13.555333 12.263453 
28.696510 1.509164 2.699621 
-31.524706 1.949686 16.168953 
-25.758442 -2.625829 -0.498400 
30.540695 -3.139501 5.825229 
27.632231 6.000646 -6.937727 
22.732403 16.567322 -2.601187 
-5.665947 30.686378 14.611860 
0.090225 28.662807 -5.867463 
10.924644 27.490421 11.736461 
9.597644 15.981503 -9.806483 
-20.713512 10.164418 -0.033589 
-14.966825 13.880210 4.803735 
-12.642238 24.911808 -9.658917 
-27.175344 9.619054 6.240779 
-20.988308 10.297003 -2.705864 
-22.419962 -8.646868 10.578082 
21.807474 -14.384129 9.875424 
-22.663395 8.586008 11.426086 
21.182041 19.706150 2.920665 
-11.463244 14.371694 0.200682 
26.927332 -13.935879 0.692787 
32.234776 -12.594227 6.168607 
13.072455 13.385627 -5.087692 
-16.773607 21.208868 0.988605 
34.121761 -8.376560 9.680874 
-13.786413 24.312843 11.538653 
14.818992 24.602612 7.638599 
13.916768 14.310776 -1.629595 
-18.558540 4.531368 -3.245431 
-16.868919 0.301664 -3.137872 
28.460131 10.574668 9.899498 
5.327317 24.562004 5.919344 
28.845995 -9.935642 -1.584086 
4.808228 29.599216 3.914474 
25.087549 -15.920911 8.357733 
28.105000 -17.787550 2.829790 
-24.901083 13.308355 11.286810 
-20.318087 -1.824404 -0.467309 
-22.936054 -17.429779 2.071196 
22.395329 -9.891155 6.721694 
16.770988 27.593544 13.818553 
5.098211 23.442318 -0.115929 
14.544169 9.671250 -8.956507 
28.945410 -8.969665 5.519485 
29.708946 -22.938253 11.920904 
-16.545692 12.208634 9.477171 
-1.105448 29.314526 -1.506197 
-17.285664 28.931505 5.546604 
-15.458409 16.710812 -1.427410 
-23.446512 -5.495643 -2.391554 
-26.890688 0.669585 11.678878 
-20.113779 -5.249398 2.599609 
12.071399 19.596369 0.230512 
-17.069288 24.025402 2.578852 
-30.598238 6.340086 12.550570 
-19.583935 18.343063 -5.233798 
17.571384 13.400199 3.298700 
-2.302606 33.516403 13.955919 
-31.806114 0.831518 12.024832 
7.477044 21.093498 -3.019106 
5.067454 26.644947 3.686329 
-9.114915 26.701017 4.004837 
-18.807333 19.401419 -7.503540 
-31.484831 0.804440 17.724525 
9.427952 25.555218 3.214750 
25.125225 -20.881905 0.532963 
6.318286 21.444454 0.353732 
-31.135860 -13.780055 1.529335 
-21.920988 20.987354 18.242180 
27.517313 -18.922688 12.684675 
-8.911736 27.010754 -7.789717 
12.134389 19.407515 11.610912 
6.485686 25.260502 11.921352 
0.951179 31.876608 3.481863 
21.813808 14.608441 13.385659 
-13.618481 20.378126 3.800496 
26.939941 -14.996927 8.798611 
-30.431879 -23.242765 17.009287 
14.057072 26.833660 -1.332257 
-12.797317 17.713594 12.604973 
1.943532 31.626835 18.366159 
-0.018004 26.286232 0.546893 
33.537605 -11.524845 -1.547617 
15.830837 16.618227 -0.619476 
-23.110260 6.648230 -3.436603 
24.062416 8.063551 -0.349711 
16.720066 23.245678 1.678263 
19.220274 0.156036 4.168714 
30.199242 6.066630 9.613667 
-22.880905 -17.327793 15.342812 
13.782369 17.107204 10.921901 
29.502319 -19.445257 6.201140 
23.301573 6.137671 -0.360427 
17.177086 11.074523 -1.149781 
-24.500837 -18.674850 2.260999 
21.821068 22.585003 12.495975 
21.608541 20.019945 9.372085 
6.849184 26.685144 6.012172 
27.818878 5.554654 2.179596 
-4.044806 26.205229 5.859590 
16.175291 27.981253 12.902676 
22.052448 16.315985 13.290986 
-25.657692 7.948931 -8.606002 
24.410208 -20.305874 5.650182 
-34.825203 -21.210054 0.902754 
17.702902 0.444058 -3.348771 
-34.288609 -17.354052 9.804070 
-4.020271 35.452423 5.249753 
24.962692 18.246170 8.291514 
-20.417591 6.050563 3.412821 
-23.577362 -13.950421 2.558813 
-23.697506 -19.292393 14.135616 
-27.754896 11.510910 5.006317 
5.607275 23.724995 3.053067 
30.153704 5.497418 5.471107 
-27.315981 0.048819 3.758443 
-12.163575 18.328695 13.312366 
4.557201 31.472311 17.342649 
-24.606876 18.379740 14.779885 
24.048977 -24.022802 12.110735 
-28.507404 2.370849 -1.372895 
23.512831 -6.963824 9.657318 
17.721912 0.647155 -1.853005 
-22.464687 -16.320759 11.118001 
18.950834 23.982771 12.061132 
29.884287 -2.583469 -1.065142 
29.764566 8.660530 10.377150 
-30.970560 -7.723949 0.825467 
-16.168657 12.040561 10.632558 
-18.886257 7.325058 0.618353 
-13.834625 28.937441 10.552418 
28.587122 4.501998 8.631706 
-29.474277 7.433074 10.270448 
-25.443855 -8.451278 4.574223 
4.340184 32.651932 9.643689 
-9.614126 25.569363 6.429217 
31.749081 -6.869251 -0.333748 
-25.806440 -22.587690 1.493293 
-19.332327 8.376774 0.529920 
-27.762362 10.993231 6.202069 
-23.680046 9.195257 2.073211 
-34.831127 -17.477474 4.704910 
-26.407724 11.656293 2.535935 
-18.420265 1.083786 4.201446 
-19.658712 25.306662 2.658658 
24.399622 18.177006 9.717725 
-28.599838 -3.263888 8.043013 
-17.858047 10.809762 4.150978 
19.707531 11.777287 5.914240 
-18.368526 -0.652361 2.494449 
-0.496853 25.549677 10.599972 
29.178413 -21.013449 10.340337 
-24.015953 18.650982 3.267203 
-35.761486 -18.554926 -1.509861 
21.309505 -1.183229 11.002945 
19.754709 -0.544665 14.531007 
28.947380 -5.823384 4.642284 
8.563643 19.878754 -1.286154 
18.140034 17.081125 7.749446 
-2.660342 33.728771 11.907787 
-5.189858 26.081081 9.954945 
-17.619646 19.196623 1.099049 
-7.710378 31.744820 8.107441 
-20.587580 -7.256683 14.305134 
28.146664 -19.615850 12.963752 
22.733662 10.345156 7.593115 
19.883720 -1.591980 14.286359 
-27.164829 -12.599337 1.859920 
-23.597946 0.140181 -3.157021 
-16.879280 10.225298 -2.026251 
-3.378379 31.239044 11.863956 
23.761845 -4.114472 -0.715756 
-34.659374 -15.984541 15.990630 
31.952721 -8.665218 10.502256 
32.148075 1.128678 9.894015 
-23.829159 -1.083429 -2.090080 
16.753023 4.842060 -3.358500 
-33.893398 -18.230465 11.172771 
-32.555550 -20.034782 9.918925 
-8.328958 34.365955 11.673322 
-19.922573 -0.973938 17.580782 
-24.979681 -15.042455 5.754596 
-12.033914 32.006012 7.654802 
30.235352 -13.101196 10.477822 
16.414240 22.193644 -4.427036 
-20.824188 23.556858 5.151254 
-0.990333 26.423010 -0.120061 
25.824957 9.491978 -1.204854 
18.142338 13.854832 -3.631984 
11.153476 30.216497 14.545859 
-12.037649 24.153538 8.425822 
-14.250557 19.828638 4.565913 
29.119770 10.450184 12.726242 
-15.380959 20.756733 12.700797 
-23.800470 12.202242 -2.414736 
-16.907059 8.839961 17.845423 
-6.511848 19.563889 -2.453287 
18.227289 18.204338 7.877834 
16.578535 22.069807 1.361504 
-14.054314 23.862814 13.164396 
19.572971 -5.310970 -5.307784 
31.975359 -15.490018 5.209014 
16.909389 3.768638 -4.686483 
-20.576067 -11.144504 -2.615967 
25.153286 -15.759480 0.475067 
18.527241 6.125128 11.735191 
33.272167 -20.575924 10.079532 
-19.879597 20.819244 9.545774 
-20.243055 26.755299 9.949070 
-5.204776 32.540157 13.483366 
11.058925 29.912977 8.425678 
24.139933 12.771294 10.099164 
-34.010685 -12.889174 13.399683 
22.892357 13.381146 8.669493 
10.912609 26.683071 12.584659 
31.286999 -11.823027 8.734127 
24.460257 5.954393 10.373747 
15.521779 25.816462 3.204795 
-20.822481 -4.368346 4.580539 
-1.597664 25.243111 11.850000 
-3.770479 19.460159 -4.911871 
-7.888008 27.132547 -3.279702 
-18.502821 10.834918 7.514679 
20.710733 -9.621910 1.474013 
-4.042483 21.233135 -0.884112 
16.632935 24.120987 2.366261 
-11.319850 15.718404 2.560303 
30.205990 -23.130899 7.264960 
1.233686 31.654577 2.508661 
-24.867746 -3.162074 1.206106 
-1.161087 20.287489 -4.153478 
21.898260 -2.010485 -2.136740 
4.867384 24.459517 11.327749 
-21.969587 10.828953 -2.307481 
-28.432487 0.390296 11.281280 
33.304993 -10.725496 7.178348 
-4.034648 25.550991 3.731236 
29.863874 -20.127205 6.785891 
11.414440 22.368830 -4.752369 
26.677504 4.695889 4.315450 
23.706591 -14.464939 1.499339 
-18.649549 10.772396 5.585885 
31.183224 -23.018108 -0.159125 
-17.815454 5.766931 15.549762 
-8.660157 28.682827 9.462059 
12.336446 26.151316 -9.282517 
-22.404247 -13.680803 1.486475 
32.184048 -11.382885 10.370854 
25.490095 11.313661 10.864375 
17.132851 13.769116 -3.203914 
-4.635472 30.849333 14.312238 
9.313854 22.629383 -3.067902 
-22.160711 16.272240 13.301365 
-13.936305 8.420161 -8.703959 
-22.700157 -16.903343 -0.711590 
-15.587240 16.570658 10.221846 
1.111769 30.799267 2.939044 
-28.236063 10.567909 16.511671 
4.371477 25.498356 3.744352 
-9.268880 26.533884 2.160961 
26.411758 -18.048403 4.038120 
27.790470 -5.886857 5.343652 
1.456130 27.591042 -9.099666 
-10.609753 27.771835 11.577898 
-29.103617 7.985648 17.916794 
21.726707 13.474815 13.146697 
27.942471 6.092065 -0.264553 
-17.218515 21.500801 -7.239674 
20.127083 16.645184 -4.744708 
-26.576717 -12.936170 2.539206 
32.026268 -21.942816 10.893906 
-32.660866 -7.950120 -3.380883 
26.048391 11.792722 2.636495 
-19.327450 2.378776 7.450254 
-16.439060 2.112283 -5.233172 
25.839287 -0.803579 -2.689131 
21.171648 -1.555355 9.799146 
28.748238 9.807080 4.507540 
-14.210329 22.497471 6.021517 
1.432773 31.155300 8.751132 
8.668885 31.057114 9.576911 
27.511816 6.749526 -1.073769 
16.897856 14.309247 11.095435 
-30.512733 -22.985249 2.825442 
32.568314 1.993971 14.753474 
-0.126366 24.430471 0.599459 
-13.383810 29.321413 11.358797 
-31.998999 -7.206095 -6.512683 
-15.889181 4.794998 -3.247403 
-28.528948 -16.449488 14.330606 
14.196743 26.827942 2.601793 
7.017654 25.440506 7.762629 
19.678120 9.431536 3.113897 
21.331367 19.035330 -6.526023 
27.485888 -15.346419 2.260680 
-25.165861 8.711023 -0.595535 
-31.207062 -15.150661 8.164537 
-27.558556 -13.391462 1.081514 
-28.998510 -4.752843 4.617878 
25.398714 -16.594303 10.709311 
-16.579700 9.474711 14.413146 
-34.202305 -13.707411 12.766062 
-16.533476 10.224981 -0.434200 
21.110624 15.866127 1.085002 
-30.612507 -12.406330 12.260600 
-23.516163 -8.681857 8.963244 
19.846380 0.975167 17.323475 
-34.917133 -14.755775 3.125006 
15.596717 10.817064 -0.852025 
34.109161 -12.725405 -4.112223 
-4.477587 34.573566 5.177836 
-31.513960 1.527370 10.099520 
-31.526558 -6.110129 -6.664105 
-33.514446 -15.143978 5.349211 
-26.843899 13.395947 16.600704 
21.430387 0.794120 -3.118077 
23.889372 -5.223780 5.252252 
32.795055 -21.217247 10.569736 
-23.574137 13.589016 1.567073 
-25.923914 3.800879 11.801339 
-19.082644 -6.170887 -1.731684 
-25.283823 -1.962024 1.650537 
29.417557 8.351298 17.464596 
-4.893609 17.983273 -10.039260 
-26.431263 -9.608957 -1.803945 
18.245060 8.405603 9.338038 
-4.516266 23.602900 13.896780 
24.794193 9.960515 -0.239080 
21.411777 19.300821 6.492576 
21.099424 15.995960 2.279019 
30.590113 4.360215 3.405855 
-17.098705 18.856932 9.923516 
17.335526 21.977283 4.892737 
18.936516 26.370600 7.614297 
-26.452234 -18.315817 8.080965 
-27.862484 -22.889395 4.647499 
10.591281 23.004492 -3.194694 
28.930862 -2.645548 0.177095 
30.699486 -23.356647 8.403442 
33.371513 -22.255426 2.219793 
4.287843 26.082899 4.903419 
16.374723 27.588762 5.298219 
-30.136057 -12.165264 4.654022 
14.254235 20.957352 9.852608 
-24.823389 10.568973 -3.832930 
-15.695863 22.815996 -1.781963 
11.185903 24.354120 -2.819791 
28.208975 0.678727 -1.804718 
33.674904 -15.777966 8.593738 
-20.261312 -0.133607 -3.000865 
-19.748657 0.885216 9.230042 
12.911295 21.309177 3.312656 
-8.407571 30.755348 15.005485 
8.123561 25.886002 -1.199909 
13.845138 26.838104 -3.675979 
2.555116 32.662109 4.060890 
-18.503044 18.593378 -2.394621 
-28.791370 -23.624865 16.985077 
5.665111 25.068375 6.643267 
19.289534 2.522093 13.529463 
-19.099533 10.988256 3.547806 
18.599451 21.770689 -8.859271 
-23.526604 19.515314 3.196293 
-19.508701 9.759605 -2.685621 
15.188087 22.120392 11.950267 
-33.305874 -10.962194 0.239403 
27.749241 -5.464437 -1.683383 
-32.554623 -4.291914 17.583172 
6.668817 24.532972 11.344106 
-24.483955 -0.087708 11.755742 
-32.622604 -6.710298 9.555787 
-27.904127 -21.394136 1.366220 
-15.712498 26.357538 5.741610 
-15.394349 12.342711 13.733131 
-23.187193 -9.939422 5.550421 
-30.398905 -2.719880 -5.573855 
28.801704 -18.965652 4.599927 
14.964477 26.446947 -4.734248 
-29.908827 -12.900557 3.644826 
10.511174 23.825359 10.918544 
-5.299685 25.692488 6.044931 
-20.916502 25.855345 9.948483 
-12.143667 13.815334 0.796309 
-3.708157 24.699160 2.245029 
20.947927 20.369951 0.685022 
-9.805205 32.626675 6.007981 
22.008446 -3.743902 5.530900 
0.185744 26.586273 4.143860 
-16.234884 11.666077 2.931823 
-3.974426 36.230293 6.023429 
-22.336967 6.842880 9.361053 
31.142447 -19.468723 4.571691 
-21.505766 7.121626 4.210111 
15.648129 26.128176 11.569613 
-25.389273 -22.297020 14.110265 
13.157553 21.460819 8.736878 
4.691061 25.393518 2.623351 
-5.515759 22.689598 14.409830 
30.415676 -5.301709 1.442857 
24.667686 13.001019 6.477493 
30.946148 -8.182033 4.006144 
35.087799 -21.812141 -0.083414 
-18.870939 1.045476 14.707046 
25.242233 18.097181 14.419431 
-25.143585 17.190117 8.405991 
-17.949884 20.022469 -2.333343 
30.784479 6.116460 15.653087 
2.783331 28.841738 -2.560742 
-28.575830 2.656689 -4.326079 
14.089481 25.467089 -5.007719 
-4.496553 28.526535 9.322149 
-29.330229 -7.333800 5.858878 
24.685110 4.447707 7.478217 
28.875401 -7.304629 4.573061 
22.153276 -3.380812 4.623994 
-3.513889 34.016052 11.384770 
8.418158 27.429712 12.597162 
-12.992152 11.393840 -2.325984 
27.369850 -8.638055 11.142452 
-2.596157 25.161785 -0.488085 
-31.613522 -5.580157 -2.294362 
-21.721972 -13.187431 -4.154360 
1.551789 27.735111 8.487790 
-24.007286 -15.738603 8.173791 
8.985840 21.901569 -0.801437 
-27.455538 -0.992515 0.895320 
-19.416449 19.786020 9.863742 
-30.863485 -22.333204 14.889754 
-17.726969 27.729134 9.748978 
28.874432 -9.449809 8.631718 
30.037788 7.722224 15.868621 
-7.161694 17.265526 -7.851787 
-34.167992 -20.515018 3.731107 
-31.144924 -11.192534 6.797684 
20.598022 15.308250 -3.491336 
-0.309820 25.505226 -1.146108 
31.300604 -9.155432 0.274100 
-10.121231 35.138512 9.054111 
16.234854 15.023927 6.230921 
22.730034 2.988853 7.682627 
-4.207553 27.242943 -9.332536 
-27.673672 -23.433130 13.303655 
-20.672113 7.517858 -3.158954 
-11.720277 31.683907 8.732060 
22.397484 -18.841455 9.421239 
27.035700 -19.456305 3.334551 
26.898594 -22.040010 5.438873 
-2.001958 32.961540 16.182314 
-24.127314 13.960320 3.603272 
17.573479 1.162545 -5.162226 
15.984156 15.026948 3.102097 
17.165457 16.191307 3.493226 
-9.429429 22.876284 5.416185 
0.959366 24.267900 11.464889 
12.168976 25.486950 -2.918112 
-11.342237 22.132008 4.839668 
-35.088326 -14.521959 -1.997141 
-20.686594 -1.968092 6.547965 
22.327806 -14.736149 -2.741713 
16.131714 11.230620 11.534256 
-17.604477 8.299027 9.799248 
4.673462 32.375969 13.647273 
34.459396 -9.626733 11.438701 
-8.562958 26.062639 10.802248 
-29.631580 -4.428357 3.515684 
15.613694 14.979407 8.272564 
20.362610 25.549189 5.045427 
-25.456522 -5.051042 5.220304 
3.601494 29.358856 13.310221 
6.319635 26.516918 -11.239787 
23.724813 12.783540 12.398178 
-28.361868 -16.318541 0.217589 
28.642817 7.857758 9.454457 
23.523136 -17.910303 1.820216 
-17.558989 21.016130 13.364699 
-6.220680 23.770596 2.957220 
-24.220764 19.382563 12.138628 
-16.476360 24.433685 0.596389 
30.321661 -23.474447 3.627346 
-28.559824 -2.056567 0.713097 
-7.118302 32.370602 16.778406 
-29.774927 -15.568800 7.588320 
25.231709 13.659697 7.062452 
6.494832 27.932470 -6.173882 
-5.738010 22.922277 1.824294 
-12.476005 24.998344 8.521332 
14.641504 23.200348 7.701822 
-21.117762 22.973595 8.209586 
19.407049 25.875257 5.023550 
-24.981554 -3.193108 5.293368 
-13.339444 28.376162 8.192264 
-32.587311 -23.475235 2.776935 
-20.518579 -5.403451 4.164496 
-24.346798 -6.165334 -2.467483 
-21.395237 23.582279 9.125059 
9.065783 26.058937 2.135341 
-24.246435 -8.307706 11.442762 
-30.546782 2.525039 6.621198 
28.130419 10.708414 3.357503 
-3.422353 28.843914 1.633790 
33.223259 -9.666297 6.710367 
-10.615865 29.478409 11.805335 
-22.319876 -2.039807 -0.229360 
23.805576 -15.991899 7.580728 
17.186676 3.807722 -1.605755 
-33.115429 -4.729604 10.526817 
31.820089 -14.869600 10.592679 
-21.675426 15.656313 -8.054775 
32.207626 -22.846964 13.788049 
-28.716974 -9.072252 5.679920 
-23.150637 4.880762 -3.716167 
26.498152 -15.743136 11.009713 
22.269335 21.970892 7.956242 
17.995121 12.506073 12.143479 
-33.009026 -21.868746 6.171856 
17.562998 9.328845 10.631569 
-12.070525 17.462448 16.135134 
20.437916 0.915722 -2.894616 
-10.372992 13.948175 -6.226848 
-22.721796 9.649213 11.814499 
-29.729507 -12.184030 7.090666 
21.010546 14.958837 1.645991 
22.830156 -18.956617 16.713942 
25.897913 5.316490 -0.847284 
-30.503128 6.540871 11.611664 
31.722054 -6.065186 4.471637 
-22.594788 15.500284 1.570057 
-19.681499 5.544622 4.250429 
-27.263317 13.277958 10.805314 
26.963860 -22.097151 12.054935 
15.855726 19.738897 -0.477521 
-12.708771 10.622355 -6.940952 
34.195915 -15.099627 15.341206 
23.832382 -23.572580 9.358433 
-18.529377 3.214840 4.525579 
19.980492 -2.195847 3.712061 
22.982704 -21.048079 12.120673 
-22.850998 -4.210926 9.142520 
-20.967003 17.718025 3.209538 
19.388794 1.893553 -2.639058 
-26.212164 -5.194865 5.724935 
22.518244 5.434308 7.710949 
19.251394 6.527642 2.260249 
-26.217607 -12.954483 6.215110 
26.422901 9.310186 -3.133734 
0.211972 26.951305 2.917335 
-5.305605 36.773102 8.184854 
22.254332 20.947651 7.911949 
-22.359070 13.696360 -3.846336 
27.167133 1.858042 4.646150 
-3.828663 28.151958 -1.801152 
-9.692146 16.598969 -3.119990 
-18.569977 25.033514 2.757763 
-18.687422 3.428162 17.700417 
-15.130525 13.432617 3.411177 
23.143885 15.789743 -4.884531 
-23.476892 -3.857704 8.543980 
19.987192 13.848324 0.467883 
-16.304331 19.683996 10.853114 
29.809061 -3.588460 9.147194 
22.588358 21.398411 17.902163 
-11.271605 23.017218 5.296161 
-13.552629 11.289243 -1.183084 
-27.432457 7.023818 10.500954 
21.306866 -12.863831 -1.631088 
8.524611 31.160467 8.190401 
-26.151556 -2.159931 4.274617 
0.169303 26.850803 5.754162 
-30.363445 -2.885919 6.726195 
-8.820667 27.075129 3.135725 
-26.788557 9.366828 7.052335 
21.530104 16.904739 -2.235416 
21.950232 18.506403 -5.212390 
3.319400 22.610334 13.785550 
-8.025657 27.600368 7.454135 
-12.066403 12.733058 -0.940619 
-7.932357 28.246962 6.675555 
-27.039989 4.357563 3.840352 
-12.403677 14.919794 -4.201348 
-30.416643 -16.033880 8.113486 
34.488636 -17.817762 3.635809 
30.490561 5.022304 4.240582 
9.818718 22.413635 5.206328 
-28.400124 -22.478333 11.996216 
20.607124 -8.244390 1.269346 
-5.169110 27.529791 9.188046 
-11.744332 14.898190 2.746816 
16.894150 9.441309 1.101339 
-19.155014 26.935719 2.308671 
11.393415 27.199944 -3.369472 
-26.823994 -1.043061 4.335128 
-18.513420 13.763293 7.819062 
18.447742 25.968998 4.770369 
-7.613940 31.412289 15.314013 
28.988422 -15.765563 5.561707 
-16.925602 14.204087 -0.442755 
29.239176 1.062965 3.599609 
-26.170656 -22.575432 -1.063205 
-31.815462 -8.337128 6.149945 
-20.817581 6.019429 7.677019 
23.715387 11.407035 7.357429 
23.182959 -6.650745 7.195493 
-20.577036 13.095107 8.878654 
-26.307934 -10.827478 11.556288 
25.865015 7.002564 -2.225925 
33.964783 -20.144936 4.964168 
-11.412498 24.335337 11.179670 
-21.174255 -11.617037 11.880911 
-19.405094 26.768658 11.334955 
-15.771303 26.297575 10.633818 
16.287092 28.042871 8.750382 
28.626169 -20.151937 -1.319844 
18.505867 26.179504 11.019333 
28.678951 -3.879369 7.105142 
21.204107 -6.659252 -0.784825 
25.622705 14.769730 5.550360 
7.550033 25.463707 11.858127 
18.459040 1.479354 -1.620641 
-14.497472 24.733070 12.206187 
-20.000282 0.077123 7.603078 
-24.665182 8.959741 0.272617 
-10.292451 23.474136 7.452777 
-33.954449 -19.233242 6.166548 
-21.048492 16.194563 -3.298083 
16.756657 19.458324 11.790231 
10.896563 16.314688 -4.831875 
-1.772035 29.251390 4.613036 
-25.968098 -1.748018 11.246690 
21.013454 -0.229681 -2.817758 
28.181116 -16.336998 12.215626 
-17.345819 13.386799 4.685831 
4.958550 32.483265 10.690821 
-11.021235 19.182873 -2.789120 
24.275562 -5.070187 4.376540 
29.865561 5.316887 8.651402 
-17.588476 14.487890 5.651287 
-9.234669 34.217003 11.234576 
-33.456642 -19.628479 14.761292 
-22.922029 11.054909 0.072319 
-17.494545 1.133257 1.805637 
26.916645 -16.821426 4.326251 
-21.993839 8.745645 -1.591254 
27.652077 -11.258417 1.380852 
7.547956 31.653299 6.564716 
9.802511 30.753054 12.509807 
-23.976027 17.821867 11.770920 
11.201488 30.852163 5.395613 
27.321678 -23.600294 9.189078 
7.819187 22.515657 11.546338 
-25.209963 -17.607183 6.483415 
7.861796 31.239008 15.267007 
30.498306 -6.182652 8.138859 
5.504229 23.991241 -1.730967 
-31.620104 -9.419616 5.695997 
27.835032 7.138620 6.697669 
-5.412310 23.317549 -3.645503 
-29.550215 -11.187472 1.117480 
-23.775280 -4.778227 8.132821 
-3.553594 33.870300 12.321205 
-14.978329 19.840122 7.566455 
31.139048 5.672873 12.690447 
-34.108189 -16.852016 2.827724 
19.371931 7.855723 -1.248179 
-16.245880 27.080418 5.455379 
-11.641616 25.539207 -9.364539 
-23.933857 -19.238501 8.532978 
-12.849125 13.431149 1.293492 
14.931453 29.851362 8.415829 
26.337910 15.987527 8.275872 
-21.123606 -0.186560 11.317848 
-27.689501 -17.058901 0.218761 
30.001945 2.928312 2.721106 
-20.441584 22.426407 4.958678 
15.009132 26.387880 2.703036 
30.538996 -3.469475 -1.320579 
23.948309 9.644986 0.328604 
-24.713930 -12.980355 9.573797 
6.834887 28.289377 -2.584856 
32.988445 -9.524717 -4.867746 
28.985773 10.858743 8.135544 
22.384256 -12.062456 7.731949 
-16.176157 2.717758 -2.463051 
-6.604044 21.424810 -2.043256 
-25.964540 -22.606617 0.313693 
-14.566020 17.516670 8.495956 
11.983699 26.970741 2.744453 
-23.231249 20.282326 15.438027 
-19.003836 27.971935 4.398451 
-16.859638 20.003143 6.809449 
25.618422 -20.368656 -0.485726 
25.911356 15.527996 10.516638 
-13.219731 19.754536 -3.845652 
22.652359 4.237684 5.632690 
-11.025570 20.148567 11.729790 
20.713179 20.493074 -2.474485 
31.198215 4.442743 8.581532 
28.988617 -12.964047 3.927850 
-4.623548 25.600605 0.557665 
-22.041515 -11.169562 9.435925 
-23.890816 -16.368130 4.290475 
-16.923635 27.411346 4.399563 
-34.959290 -21.041117 -4.609761 
26.854971 -8.722817 4.626213 
-24.780128 9.719299 -8.850927 
-25.262831 -12.801198 5.675553 
19.573904 24.529417 13.011983 
-24.725922 -1.784530 8.069574 
