-23.985077 14.565807 2.909300 
-31.546871 -12.611656 13.669977 
-19.034372 6.941439 2.827145 
18.532825 6.295102 5.823396 
22.627924 -0.184373 9.631537 
16.580021 10.046579 -2.716294 
-32.364017 -7.738242 11.463632 
31.440571 -8.160015 -0.490534 
-24.866705 -12.427677 8.179205 
-28.563965 -14.572489 -0.868148 
15.923234 6.554192 -4.426545 
-14.865802 22.447748 12.045724 
20.573174 -3.916405 4.753535 
23.838961 1.809011 -5.979115 
20.548330 15.664763 2.068546 
7.122196 28.013348 -1.341893 
29.102282 3.982671 2.569038 
-12.716947 24.741547 8.071178 
14.281013 24.956816 -6.434090 
20.657999 11.131780 2.160806 
25.219612 -4.686024 2.627010 
-28.654997 -9.813025 -1.991608 
-7.191141 22.439228 11.062861 
-10.264152 21.448648 0.910778 
-14.580928 17.847954 0.240722 
-31.641237 -11.988487 10.903050 
-32.194492 -6.027097 6.836891 
24.674002 10.721393 2.148711 
-10.932189 22.869366 -1.563060 
20.298105 12.559222 3.619902 
30.822348 -13.094913 3.114296 
30.920794 -3.661818 -3.921958 
-11.697927 13.807159 -9.254602 
29.722015 -5.954484 8.845513 
-11.772836 23.196262 8.953816 
-32.437267 -6.937301 8.457584 
6.791480 34.432770 3.089541 
-7.308887 24.577023 -4.429610 
8.480516 21.716234 10.505368 
31.808748 -6.820180 -2.711383 
-20.595482 -5.465665 8.271166 
-23.566738 12.497175 -8.059326 
23.087214 2.594383 1.867061 
-30.147675 -10.061247 7.129466 
-11.883057 24.074356 -4.830582 
-1.311200 23.236378 14.045182 
-19.606064 12.943728 -1.580967 
13.136938 24.730091 7.666630 
25.641024 -15.351988 -0.246891 
2.380072 33.703251 4.556320 
23.830767 -6.084437 5.024971 
-15.936760 23.408897 -8.581209 
-24.080748 -1.835278 10.224701 
-16.561987 16.309433 8.848274 
18.841587 7.735782 2.020658 
14.601742 12.045616 13.563736 
-18.031303 18.032965 2.055886 
5.838569 27.714684 8.450055 
-24.779470 -13.322050 -1.790206 
-23.967058 9.023536 9.555075 
-11.486709 26.590042 5.389570 
31.991919 -12.150196 10.664878 
-22.071249 12.582520 5.831534 
-21.158712 -9.108133 -0.975379 
-15.485114 16.148634 6.127755 
22.785227 -12.799401 3.767616 
-24.659506 8.530955 -2.565513 
0.608281 32.432419 9.770604 
-31.066412 -4.603920 -1.955274 
-9.493802 16.416925 -9.647876 
31.495329 -6.096665 -4.726098 
-8.318286 29.445890 2.920991 
22.907339 -1.528817 1.475650 
-11.361136 26.814215 12.828460 
1.289849 32.607254 5.315858 
18.630070 -2.713705 -3.265208 
-26.590862 -5.243722 7.741926 
-7.803188 29.495474 7.904013 
30.698393 -2.734000 -5.271882 
27.013718 5.401214 -2.473706 
32.391380 -10.648297 -1.801074 
17.458427 18.335241 5.170786 
12.032142 26.005922 -3.045219 
-24.818880 4.922155 6.465304 
-4.924315 32.144276 2.791814 
29.939644 -12.905842 7.615394 
-17.355087 8.522827 -4.553223 
26.906309 -14.309834 8.918726 
22.730894 12.406213 4.977870 
-8.832636 29.804323 9.681268 
20.112501 12.192190 -4.889242 
-22.482599 -11.891108 -1.630552 
32.308605 -8.428373 6.982552 
11.205984 19.241995 -0.760826 
22.748425 4.020168 2.791737 
-13.654130 14.725096 10.316790 
17.775070 4.368584 13.087387 
-24.694141 -11.905568 11.305286 
-20.471298 -7.883066 -5.947474 
-25.673479 -0.501362 3.644614 
-18.197964 2.951687 13.096555 
19.351950 4.402081 -2.603129 
-29.052052 -17.107811 -0.328577 
2.508867 22.748859 15.276918 
-1.150837 26.942350 10.365252 
28.977510 -0.657875 -2.272206 
-26.479156 -5.320611 2.816935 
16.901663 22.306160 12.081274 
-21.428381 11.677678 -2.734720 
14.985255 18.777390 1.073904 
22.144587 -5.664597 5.239393 
13.183203 20.304777 6.665390 
-21.008862 0.939935 8.590999 
19.186777 17.907635 8.663529 
17.938051 15.692441 2.962568 
-3.654390 28.588820 5.181492 
-5.280445 23.399054 11.276293 
-12.185897 23.614998 4.587335 
-20.975719 16.668613 2.044881 
-6.014613 26.373224 -0.770739 
30.267319 2.881827 13.398222 
1.767446 31.045076 13.092212 
-13.799260 28.807806 4.743088 
30.776438 -5.936136 -0.066953 
17.092627 18.870047 8.586620 
-12.997036 28.738749 3.109063 
26.913618 10.998194 5.355514 
30.397448 1.851012 14.615037 
23.579758 -7.703408 2.938206 
-26.395638 4.775396 -3.027345 
-7.872267 18.947693 -4.871838 
1.929400 29.568438 -0.168237 
-16.622177 7.488474 -0.125484 
32.381329 -7.306740 9.439489 
19.710375 9.569129 8.281601 
22.556202 -5.858292 6.058371 
-4.677868 25.634539 10.006002 
-18.686501 7.318530 5.537189 
13.526221 17.754410 8.104425 
22.676901 6.943132 0.425902 
16.341150 17.347929 2.036385 
-15.207215 13.064245 7.593704 
11.835007 24.418407 6.045327 
-20.010479 8.758036 1.653145 
17.788906 19.501354 2.534198 
-1.562183 27.387405 3.891731 
15.484195 26.428617 7.915054 
11.148517 30.209543 4.566937 
-29.080334 -10.876844 -1.815111 
7.983547 25.855988 4.101432 
-24.757742 -4.038779 2.661726 
-9.046399 27.737827 0.810741 
-9.274231 27.169987 5.252520 
8.213319 21.437904 11.421761 
12.449248 22.128006 6.832843 
28.195850 6.077033 6.385424 
32.291012 -4.849683 14.459357 
-11.083475 24.434715 -3.342794 
-31.305071 -9.432692 12.438051 
-6.395119 29.925327 12.649712 
19.644966 0.003416 1.040446 
-26.165133 -9.861446 3.961491 
20.087490 15.416851 7.868435 
-24.323469 9.000897 -4.924198 
30.601442 -6.790538 1.684257 
-3.257621 22.083853 -2.774314 
17.945782 3.570433 11.391144 
23.354704 13.423580 -6.039284 
28.199776 4.920864 7.349535 
-30.148413 -6.428540 5.910809 
10.444956 28.262684 15.328856 
-6.448260 27.907227 4.934514 
-22.951792 13.622614 9.425997 
13.233915 20.331333 -2.101435 
-14.028240 21.840515 6.309905 
14.529981 11.929527 11.192793 
-17.244070 7.728373 -4.079252 
-24.413517 -1.824592 7.612573 
20.196100 8.344179 8.869360 
15.187697 13.408026 -3.891073 
23.516073 4.408042 2.897370 
23.131062 12.104265 -4.076558 
26.972013 -10.093949 12.048196 
-18.798813 12.783983 -2.213474 
-16.550758 4.424445 -6.729939 
-21.503984 -10.968818 8.648216 
-26.185389 0.542993 3.294790 
-19.405434 -4.739064 -2.974705 
-22.653027 0.500327 0.927326 
28.279507 -2.162751 -1.693903 
-27.420830 -0.134470 4.304487 
-15.509268 20.185694 -2.301850 
6.802577 19.453129 -4.802577 
7.037869 27.976656 5.872607 
13.568971 25.165714 -7.621664 
0.310364 22.292551 -3.328165 
21.900885 -0.405472 -6.071043 
22.249470 -6.578630 7.196460 
-27.081139 -13.081236 8.962287 
-9.433409 27.737541 4.603647 
27.958452 -3.242541 0.358430 
14.095753 11.285126 -3.594064 
-5.190180 25.551128 0.079459 
16.107407 20.377914 0.743034 
-20.806032 -3.476857 5.709798 
-24.698086 -13.955215 5.670586 
-28.370499 -13.734599 2.966712 
15.030042 13.165436 0.031723 
-18.599007 5.462447 0.260652 
-15.693622 7.320698 -4.526431 
15.400987 9.422709 -2.365201 
-25.601225 3.031626 7.163332 
-0.628049 29.243111 -0.084069 
25.032400 9.841043 6.998257 
-28.324684 1.027576 8.660540 
-21.022989 -11.029213 -4.431901 
-10.397771 27.633732 4.233965 
9.905449 27.287285 2.103537 
14.644547 19.556982 6.338121 
26.464354 -12.734290 5.363095 
-20.940453 21.515148 10.547626 
30.829729 -13.577232 -4.862773 
23.581547 -11.840311 5.808885 
-2.120006 32.761539 8.470350 
22.714787 -8.969977 3.324363 
11.919586 24.943375 4.034865 
-24.383377 -5.844003 -2.131000 
-18.767006 25.728178 8.167686 
-1.299194 24.601416 11.022449 
32.198837 -10.047373 6.502381 
20.116131 5.710110 2.641623 
-29.286345 -8.200936 4.824609 
-24.303570 7.457080 -0.874453 
30.686171 -3.069826 8.169483 
-25.428404 -7.410113 5.068811 
27.376940 9.721453 13.462705 
18.688932 6.523016 0.529194 
-18.897074 0.479691 1.989449 
14.612827 22.421999 4.166609 
8.781045 30.556177 11.308549 
-21.790482 -5.139434 5.023315 
16.608471 18.403351 -6.218407 
31.203205 -4.730205 -3.700157 
-24.366890 16.481720 9.991149 
-27.863546 7.327127 3.182353 
-21.799410 1.721660 8.871242 
7.540577 29.022879 7.716698 
18.663546 24.789675 13.309588 
21.397049 15.967388 -3.666678 
27.640377 -9.316697 12.174055 
22.216364 0.577899 9.450282 
-2.363694 22.653648 15.314011 
26.715164 -2.438984 2.469316 
-1.491475 29.199081 -0.450944 
-17.476328 5.439423 9.775960 
-24.434334 -8.239022 4.859764 
26.926340 6.538424 -5.845322 
19.557751 5.834968 -1.016314 
-20.047693 3.818615 0.029755 
-28.305841 -16.944607 -4.582692 
26.672491 -4.483912 2.807111 
-19.117722 18.361681 5.762660 
24.847685 5.257551 1.829880 
22.357948 -10.045040 7.206898 
22.299923 -11.559262 -1.329538 
18.033157 -0.211049 -0.568736 
-25.975363 8.110455 2.243518 
6.712899 33.248734 4.224199 
7.362024 32.446461 4.633971 
20.049236 22.616739 15.133433 
-0.788802 28.460354 -0.559198 
15.646935 19.204622 -4.072390 
-26.361362 9.611564 1.235211 
-27.981781 9.396995 9.525964 
-32.975174 -9.295311 14.889740 
-20.016611 -1.913362 8.084431 
-9.063574 28.214649 10.773849 
-21.146719 10.287009 5.071499 
30.184175 -14.211403 -0.200189 
31.325617 0.134147 11.312749 
-31.528532 -5.163812 7.482747 
-16.709673 22.468201 2.775497 
-20.033684 11.366268 -4.683792 
-18.876047 23.288464 15.459789 
-8.034430 21.465731 -1.298983 
-23.512894 9.681641 1.868405 
-20.402430 20.305437 7.666835 
-26.731304 -8.398558 -2.282132 
23.696535 -5.706657 1.111948 
-15.392692 26.634308 12.824111 
21.418180 7.008591 -4.792055 
-1.252928 27.981579 7.582479 
-23.345747 -5.550483 -3.784342 
15.094589 11.239888 9.747600 
-10.594592 29.691914 9.307222 
-23.705742 -15.249862 0.264610 
-32.956654 -10.638241 -3.374726 
-17.424128 14.222350 1.077422 
-31.972937 -5.520808 11.075316 
-0.641274 29.753122 -4.627574 
19.388018 1.283960 8.055086 
-19.655293 18.954744 -9.124244 
-15.103679 15.808240 5.300880 
21.991135 -11.335114 -5.243993 
21.468254 8.301435 9.311248 
-24.859627 10.384572 -7.213377 
13.738239 24.277510 10.468013 
-20.549337 19.025156 5.721363 
15.820728 11.806650 6.552883 
32.040966 -7.570474 5.314277 
19.463961 -3.125263 -3.017445 
-18.814322 11.350672 4.802595 
-4.882917 30.164169 14.920423 
11.040213 14.989077 -6.006121 
24.326288 -8.894886 -3.380029 
0.019271 21.949118 -4.372195 
-19.818296 23.663586 4.805564 
26.392149 0.537187 -5.246728 
4.820209 27.156828 2.337749 
17.990023 23.223175 1.899027 
-27.953289 -1.972975 3.326027 
-22.322945 -2.520206 7.072212 
-19.836107 23.653725 11.063525 
-15.887679 18.306110 -4.571392 
26.997007 11.504251 9.449533 
20.383373 -3.883061 5.825250 
21.841408 12.834221 8.271726 
14.069345 18.077570 -2.972523 
-6.624211 20.002367 -4.381670 
20.726534 -6.970273 10.313783 
-21.453997 -4.461557 4.700896 
-12.265169 14.194241 -4.385212 
6.680626 26.734989 -11.172609 
14.402411 13.671822 -3.475256 
-32.652733 -9.568668 -4.537483 
6.141802 21.452730 15.220598 
-5.648103 32.327892 3.814790 
-29.678608 1.061204 -3.365425 
-22.041891 8.140891 2.212391 
23.213364 -13.628571 -3.967287 
-17.911303 0.596568 -4.453494 
21.865965 15.015158 -9.305198 
-27.915945 8.943432 2.674237 
29.214949 -11.285419 12.245143 
26.584877 1.155613 10.031368 
-16.610312 11.565439 5.656039 
-28.712902 -2.710240 0.611466 
-10.485818 21.061056 -4.332888 
-6.918571 26.841473 7.150173 
-13.195723 29.031229 4.027678 
16.795935 3.832472 -5.347451 
17.038464 6.876965 11.147335 
-17.940639 23.549517 12.619852 
-13.809259 16.134668 -3.752624 
15.113276 7.670691 -7.068746 
-25.382816 -17.648941 1.746898 
-28.579287 3.398762 2.790835 
13.946308 19.509794 -0.644078 
-15.073291 10.824782 12.096125 
-19.750797 19.098162 -1.404154 
-1.229329 26.411434 8.640742 
-2.785399 26.256800 8.855983 
-20.597227 -7.515099 -2.122028 
-16.112082 20.996056 8.694431 
-28.375206 0.955239 1.131607 
-23.993177 -7.694118 0.201895 
-6.710932 27.268623 7.831527 
-15.950851 16.727684 4.084829 
19.108303 2.741495 7.164451 
31.114799 -8.852485 -0.898447 
-22.512915 -0.303151 0.653064 
-6.928668 28.478313 5.442219 
-21.428623 16.107021 -8.759938 
-31.036272 -13.282109 13.559655 
5.039135 35.200333 6.754377 
-26.506130 -14.140794 2.646102 
-28.514091 -16.425867 0.447784 
-14.703244 24.979517 -1.458678 
-18.512154 10.563594 -4.546981 
-18.745346 20.502529 -7.885404 
-20.254801 0.867633 -5.714212 
21.129911 -8.732815 2.833737 
5.063115 26.019083 2.217892 
32.848850 -6.682642 12.389541 
-18.627682 11.266248 0.405662 
23.213102 -2.230594 2.151782 
4.893314 24.635067 0.691770 
18.166506 2.782558 11.389257 
-30.266352 3.718396 11.819398 
20.620935 -5.162583 7.753180 
0.337805 30.790821 14.818344 
-13.906099 24.132065 -10.854637 
-19.400602 20.480448 8.933094 
19.855703 6.693830 8.449296 
-21.211660 16.788742 -4.416629 
-5.780873 29.081264 4.976768 
-17.638920 12.737607 2.724458 
25.415861 4.105951 9.208607 
-27.997347 -5.450477 2.303624 
-25.131531 -12.721322 11.329371 
-20.836540 6.408124 8.692960 
-16.153393 18.132683 9.585950 
-20.938679 -10.005405 -5.622300 
19.913391 19.501892 -2.074034 
-26.988949 9.371820 8.460036 
-29.074303 -15.506660 -0.056380 
22.096754 -12.449948 -2.153213 
16.364222 26.592773 8.149186 
-28.401243 2.927518 -1.629612 
-23.578318 -13.387701 -1.514489 
-19.711676 12.633747 -0.554636 
28.614626 3.678375 -3.425513 
-27.455109 -5.756948 0.238787 
-27.576811 -2.943465 -1.308685 
11.058878 21.023230 -4.660172 
-15.857585 20.578382 3.006131 
13.336648 11.421886 -5.947858 
-7.216788 28.528484 -2.934038 
-12.150405 28.317625 12.125830 
31.399660 -5.663654 -2.724585 
29.777939 -10.318296 5.936600 
21.021328 -9.271041 -5.565993 
12.940468 25.595730 -7.287814 
22.264894 8.210312 9.469998 
-29.578650 -12.334571 12.704316 
-14.301373 23.736753 10.944786 
25.804871 8.952754 9.313254 
30.226002 -14.707235 11.211077 
-1.181627 22.078537 -3.832642 
-19.671574 -5.716212 -4.380109 
17.891359 7.658537 1.481704 
-14.692249 24.743303 -7.684108 
-19.487272 24.471647 6.150410 
21.761202 12.447202 7.093225 
-17.692804 21.718185 -7.914179 
25.148966 -11.602695 -3.103595 
19.935881 5.451589 3.575688 
-18.931051 19.362913 10.862517 
-19.625433 -1.112215 14.954211 
-20.604252 15.934530 1.720377 
4.800537 27.360754 8.747903 
5.543547 25.353098 -0.650015 
20.621542 10.153997 8.742352 
-20.549566 11.990779 3.497607 
30.466812 -13.628038 2.537700 
4.203253 31.409382 7.148343 
-26.058298 -5.345768 10.094413 
-24.173483 -5.491749 2.969823 
-12.950341 28.842363 9.021466 
-20.231529 -6.823343 -6.109814 
7.694826 25.317532 7.807086 
0.159530 28.637964 -0.050500 
-30.997236 0.429681 9.373770 
-32.780579 -12.097939 -5.347659 
11.423986 25.404324 2.599245 
3.502506 23.289392 12.960165 
-27.251774 10.728180 3.023114 
-0.804824 30.501316 11.746063 
-10.986763 19.549671 -0.016268 
-15.264359 21.906614 8.735343 
20.070274 21.552773 9.650476 
-8.012628 29.299627 14.665078 
18.123186 19.088966 7.610259 
15.123801 15.523403 4.525270 
-10.662947 25.792673 6.739749 
-6.373480 32.087757 7.750216 
6.495547 26.677525 10.162631 
26.055496 11.787512 5.936276 
-5.087362 32.575336 5.601687 
-27.703325 -4.856376 7.643426 
25.673388 4.651329 1.481740 
22.823553 -7.088809 7.906618 
16.126595 20.717466 11.549983 
23.425470 -8.523962 5.544724 
-18.506865 -1.286309 -0.153319 
-18.910753 -1.020858 9.981965 
-27.900555 -4.909894 6.806629 
-28.683502 -6.074862 5.492441 
14.272233 27.170752 13.430737 
-22.380947 3.957193 6.937158 
-18.186211 23.938025 15.467874 
13.001782 19.469200 8.393102 
-28.928339 -7.578434 0.439217 
-25.343758 13.669368 7.921538 
9.263998 28.083158 8.993486 
-20.150461 16.769461 10.467203 
19.341185 6.866275 -5.021520 
25.771412 -4.495699 3.378250 
-26.067642 -5.326162 -2.081771 
28.014315 -3.612104 7.010767 
21.555248 18.935059 3.849452 
-13.951833 23.334551 -3.824936 
-28.733978 -14.177167 6.327203 
20.351789 14.473747 -1.028893 
23.061033 -6.488279 8.602818 
-1.434711 32.793159 4.310330 
-12.515756 18.119474 -2.528616 
25.440245 6.999556 6.052326 
19.708591 6.192200 1.913950 
19.213568 11.520506 4.345168 
18.414227 9.538121 1.414448 
7.028407 27.299522 11.333520 
-18.762215 14.097416 7.591438 
29.602758 0.523933 -6.171333 
25.483450 -9.182486 -0.409816 
-30.317858 -3.420774 6.654503 
29.931080 0.970719 8.582016 
-17.719614 20.044325 -1.077147 
-30.219437 2.653489 14.011338 
-27.145966 4.539142 -2.556367 
30.835943 -10.202315 10.643784 
-25.127665 -0.158161 -2.677111 
9.856381 19.512844 -3.164340 
-27.553204 7.633633 6.565420 
21.538897 -11.310231 -3.199317 
-16.122992 13.632796 0.969696 
23.601814 17.187323 7.812256 
10.454007 17.447483 -3.071624 
19.783995 -2.527400 6.631752 
-12.594785 23.622871 -5.104201 
-30.406240 -6.990112 2.174192 
29.266066 -1.759014 9.115357 
-13.346166 22.908321 -5.251131 
18.813211 -0.410464 6.444232 
-25.691078 -13.358695 8.035114 
0.894361 21.300655 -6.829564 
-25.153099 9.704194 -4.281848 
7.288601 24.810081 -4.394102 
17.569450 2.112195 -2.559698 
14.314937 13.969688 7.397325 
1.418624 23.849335 12.677246 
15.840599 12.977782 -2.236735 
0.040064 28.975096 1.268179 
19.785479 -0.875224 -5.800244 
-23.040874 -12.344839 6.975581 
-23.805071 -2.648641 10.032523 
4.755900 29.447636 5.227253 
-8.939986 29.854071 10.823483 
-18.502838 7.143869 -6.051620 
18.472591 1.429464 9.282194 
23.544670 -4.978445 -0.699828 
-31.360600 -1.469845 13.921196 
19.832119 1.374021 -2.848584 
-0.280131 23.033340 -1.805313 
-30.994284 -7.608564 1.784462 
6.132023 23.248541 -1.286699 
5.884859 30.934626 7.056841 
18.890053 19.744844 4.016549 
-13.485579 19.647375 7.104462 
-12.201732 24.200006 7.675874 
19.368090 19.740057 -3.352986 
-19.430929 9.646531 -2.473805 
24.564667 -4.188722 2.613938 
-17.835011 6.287744 -3.854954 
8.147136 32.310932 4.364807 
-11.026395 20.751421 9.078485 
18.683098 18.465168 6.555167 
-9.825746 22.801224 10.277589 
-25.432934 -8.875031 3.468305 
7.782509 26.918291 5.624379 
-9.092683 27.234993 -2.168558 
-20.061810 22.006786 15.442430 
-21.657078 8.452410 1.529033 
28.743017 -0.007439 -0.363495 
30.185413 3.494872 8.077312 
26.687471 -13.858611 10.494611 
12.471320 22.849457 9.626649 
3.901975 29.566856 5.428885 
-17.280352 12.882235 -4.569912 
25.283121 -2.445990 -1.659965 
-17.913378 7.542502 6.720632 
17.448292 11.874989 -2.121994 
-1.732499 31.112566 11.166434 
23.502396 -15.125411 -0.354920 
-23.696884 -6.296556 8.400306 
-15.925634 19.777260 0.129247 
-2.287763 26.985924 -4.430472 
-3.901784 30.492102 3.642226 
24.814465 -14.634345 10.904450 
15.300465 11.173669 8.819571 
21.850256 -0.026339 0.092958 
-22.296333 13.112399 9.755874 
-8.261551 27.921404 1.035789 
18.778545 11.258139 -1.895107 
20.477434 10.586511 3.653952 
-0.700460 27.916361 4.938408 
10.010200 24.680275 7.343206 
1.051229 35.263466 5.429769 
13.929654 19.901876 -3.429899 
-16.500206 15.837269 9.941075 
-22.103123 13.912245 -3.564259 
-18.983187 11.826647 3.885230 
28.804684 -0.130499 -3.797015 
-29.750978 -4.840434 6.587255 
28.579830 -12.976483 -1.888173 
29.730206 -8.812371 -1.973239 
-21.578926 13.104452 6.753623 
22.133598 20.110533 13.778342 
-9.737583 24.394899 -0.490202 
-28.186337 -15.114704 9.788938 
15.070012 24.556152 -0.781540 
20.534103 13.171688 -2.702809 
10.296537 25.729263 6.720090 
-11.361331 25.594011 -11.069652 
13.964585 20.058779 6.577535 
-22.310122 -13.409004 0.527767 
27.616684 5.867504 5.182644 
-19.536160 15.741102 3.523029 
-29.168512 -14.285068 9.160030 
6.776332 28.186792 7.796718 
25.332594 -1.292866 10.112089 
-25.952368 13.253491 10.970827 
8.149402 32.966213 9.326164 
1.139456 24.910511 0.612327 
-18.168921 10.845905 5.609877 
-2.209330 31.883131 12.640935 
-21.719351 0.791262 9.069295 
21.979738 12.526998 2.335901 
27.323549 -15.367616 -0.470965 
-7.397318 28.609629 9.749307 
-26.680429 -14.085659 5.247166 
-12.586219 19.948856 0.602099 
29.302456 5.509372 13.069896 
-23.947290 17.388359 10.285700 
-8.980095 28.728542 9.281088 
20.243519 0.537118 8.634675 
-17.210943 18.287367 9.360078 
-29.440004 -0.364343 10.551420 
-29.451181 -9.711385 12.930544 
30.920511 -11.419600 -0.867699 
11.690787 16.138445 -2.762554 
15.099728 18.961338 6.721763 
26.241451 12.688914 11.940684 
25.708397 10.267567 8.648728 
-28.772377 2.324837 -7.554087 
21.057409 0.587507 9.009279 
-4.366035 28.158716 13.238745 
-12.017068 23.263931 7.277775 
-16.008995 7.815481 -2.869066 
-24.989883 -13.989779 14.727255 
28.522058 -14.855880 2.905338 
-12.129723 26.145657 -7.909391 
-2.639009 28.272573 -9.938191 
-25.024450 -6.364159 5.668112 
-8.277094 27.168907 10.231219 
28.385485 3.543741 -6.590988 
-2.196694 29.853075 4.399337 
-18.670750 13.034415 -3.351152 
-15.696877 23.667660 2.472444 
20.235081 23.393003 11.632008 
13.998750 13.492345 9.307443 
18.330402 3.958292 1.206976 
21.742100 1.825487 -6.121885 
-31.273932 -12.916183 10.505093 
9.888469 26.009058 8.800174 
12.546869 16.397728 11.892537 
-10.601479 24.836845 0.509457 
-26.059126 -11.550063 0.820661 
-23.852343 13.510888 2.764663 
-17.836969 5.578542 -1.476655 
14.919739 26.594107 14.245566 
28.336916 -1.316892 7.518006 
-7.088346 29.167850 15.488492 
-24.018585 16.825237 7.881027 
-25.301933 13.052279 6.973750 
-15.300832 23.992868 -4.076703 
26.252581 6.476995 5.777740 
-20.300634 12.479298 6.284518 
-19.532213 13.437285 -3.196401 
-26.002491 2.448520 10.092375 
-28.216652 -1.832043 -4.407266 
-8.050660 27.649776 -8.545667 
-26.378780 11.585529 2.929796 
-17.038319 26.145250 8.284633 
-0.479484 27.022751 8.188469 
-30.037916 -8.392411 5.712479 
11.287287 27.621187 10.380575 
-21.199253 4.009200 -2.909871 
0.355548 27.853920 4.481269 
-21.058201 16.988276 -0.466236 
-7.005652 30.849609 2.647879 
-30.406500 -3.425801 5.199872 
-12.527340 26.346424 -4.394187 
-19.357977 6.116457 2.665288 
15.002329 24.308083 -4.513313 
-23.921425 16.711332 4.330240 
-24.426022 16.335855 12.515614 
-14.222006 10.290318 -5.862041 
8.901722 17.125048 -7.116254 
-25.817604 7.409302 7.066608 
13.749039 23.578205 -5.156735 
-32.654404 -10.871642 14.854117 
-13.009226 27.713907 2.706500 
-18.733334 19.970209 11.961380 
5.599096 28.163574 0.154151 
19.829895 19.494335 -5.985585 
-20.744257 0.079693 -5.817691 
-19.738102 -5.742859 -5.271673 
-12.931291 28.575420 9.800520 
-21.179468 -5.554698 7.384612 
12.938540 28.237703 11.527402 
10.933976 20.904644 0.429612 
6.913324 20.777298 -2.163545 
-24.379387 12.152529 5.154408 
-20.273729 -7.835593 -4.814033 
-0.083338 30.822607 3.501387 
13.498009 19.578625 0.309574 
0.901428 30.702000 4.813603 
13.244961 16.848806 9.448331 
-1.634834 29.730589 -4.493823 
-27.614033 9.153133 13.979017 
-5.677214 28.504377 5.899038 
-15.544847 24.080044 1.173480 
-17.396074 12.761514 -1.351456 
21.940746 -11.643838 -0.316389 
-1.430019 24.662926 -0.526325 
26.756849 -14.868047 -1.454770 
24.118052 2.031300 9.686175 
-18.387484 7.965281 -2.363053 
-23.723049 11.620225 6.727690 
-19.391050 23.460114 2.971191 
-32.379326 -8.341076 -4.669161 
-7.697952 27.988375 4.860332 
-1.505910 27.434916 8.138947 
-29.491062 -11.315669 6.377577 
-25.187136 -3.492805 10.206449 
-27.950531 -5.824152 3.969786 
-11.250041 28.939747 11.596332 
-5.733537 29.282665 2.985074 
30.431784 -7.086875 -1.138041 
28.697433 6.188464 14.719615 
-23.134670 17.571095 3.675264 
26.970661 4.704326 8.987663 
-30.903913 -15.031913 1.548932 
-21.050081 -2.112820 1.729150 
-16.880243 10.077976 7.720181 
7.464950 25.669144 -4.567257 
-18.310289 15.586171 3.404491 
-3.690873 28.179995 -3.573472 
18.368202 15.063954 -2.546534 
-22.163088 -11.481858 8.529932 
11.308481 13.999685 -9.191348 
-28.851509 -6.659320 4.124973 
19.792566 -1.313720 14.633760 
2.366659 22.638218 -1.323804 
-19.021769 11.852629 5.887659 
-27.990974 2.435708 8.251091 
-23.761957 10.955367 -4.426044 
1.872645 29.634991 -4.887711 
-22.153225 3.719787 5.958343 
30.464233 -4.550949 10.277403 
-13.357882 12.441625 -3.972421 
-24.538298 6.724096 -1.986555 
-23.351439 -7.820038 3.913899 
4.344377 24.554552 -0.634465 
-10.391412 25.236977 7.310636 
12.478176 22.101515 2.514239 
31.346552 -2.885016 9.439450 
-16.514229 17.013758 1.454689 
23.613695 6.162481 -2.655277 
16.680099 20.645128 7.896791 
18.441729 15.948139 -6.420420 
17.139521 22.289762 9.733382 
-14.097750 12.944179 9.321611 
-4.044550 24.764730 -3.107160 
28.647762 -14.022532 9.267138 
-14.419647 10.496086 -4.746943 
-22.225719 -5.550468 7.377889 
21.728827 -10.161263 11.818048 
-29.528864 0.676415 10.437206 
24.748959 -9.113233 11.061131 
-29.294643 -8.040210 5.946326 
6.856901 29.320444 10.449369 
-12.099600 18.274801 9.837729 
32.265244 -12.507726 7.346585 
-0.425727 28.421116 4.144072 
8.666600 31.981668 5.034691 
18.753000 19.163448 2.047951 
14.698202 17.253431 0.698927 
-16.814915 14.948443 10.190305 
-8.952200 25.518442 8.298868 
25.412306 -15.124459 -4.646218 
-20.830599 -5.923419 14.863008 
29.827635 -0.903229 8.559706 
22.124952 18.405651 7.856911 
26.304070 5.028175 8.378512 
7.855458 25.183569 10.300035 
4.110602 28.906012 13.977855 
-12.927180 24.045345 11.401458 
-17.158550 6.231285 12.314758 
-29.549322 1.851721 10.195227 
-29.546144 -9.259426 4.804629 
12.837044 27.361601 3.208033 
-30.364052 -11.987057 2.279854 
12.067778 25.916567 -0.851741 
-25.888260 -10.902309 -2.434517 
25.016071 8.714282 9.465629 
-28.385206 -11.527272 -1.991735 
-2.499133 27.708660 3.751728 
-24.429840 -16.978230 -0.233814 
-12.128852 28.391451 2.307223 
-21.374041 -2.462621 3.989528 
7.323189 27.565260 -8.333483 
22.404512 11.492990 2.857644 
17.039000 26.519497 4.385192 
4.027575 32.096222 6.700411 
-28.967520 -3.029056 -1.243296 
-19.392109 10.035900 0.609644 
-6.721363 27.646778 11.677124 
-22.671329 -6.011315 6.725445 
18.563192 12.678828 -2.237904 
12.266646 25.365004 -4.539840 
-23.836514 -14.343502 -1.146270 
13.443082 15.250669 -5.299183 
23.965187 12.097049 -2.334571 
-32.227577 -8.553571 -5.891629 
20.034317 -4.895993 10.571368 
13.630319 19.144657 7.905810 
-22.097933 -4.877558 3.901198 
21.435017 10.787650 -5.610834 
7.967602 18.949303 -3.975005 
-30.782507 1.855548 12.396463 
20.421297 18.879200 -2.406951 
23.595278 -6.865051 -2.088487 
-2.655481 28.033110 -1.875726 
-18.639973 24.428488 2.869943 
19.063892 12.171488 3.103986 
-20.431362 6.293398 1.084178 
-18.706720 20.646349 -6.777706 
-26.549379 -1.883613 -5.149425 
-23.843704 11.555403 -2.573366 
-32.548107 -6.826743 12.770474 
30.724052 2.152318 11.555711 
-31.961472 -10.792277 7.964820 
-0.768845 27.598917 4.143235 
23.696789 12.135821 -0.328893 
10.217511 16.416830 -5.146195 
9.316522 27.612331 -4.880847 
-13.884370 21.017979 11.428931 
12.792845 27.876616 10.513812 
-27.540777 -8.630515 -2.186637 
31.748377 -12.114534 0.673938 
15.700258 21.349442 2.723331 
-20.890400 -10.965055 -3.533080 
-21.565861 -8.489446 4.033136 
17.057398 2.786039 -6.296989 
25.651426 0.765614 7.403792 
-28.559578 7.645078 12.459390 
-0.580286 22.435219 -2.999604 
15.204753 10.896503 13.258622 
-1.263976 25.537706 9.609088 
21.296661 3.963336 6.798854 
28.654535 -14.712857 8.497977 
-7.251251 23.017708 -3.662865 
16.762697 11.377846 0.822111 
19.240606 -2.620311 11.064384 
20.757935 -8.382383 2.174263 
-29.961504 3.470237 13.904275 
-4.025990 24.113537 -2.560034 
-11.589769 24.489614 -4.176415 
-3.545021 25.314590 10.505308 
-17.407377 18.060558 1.520901 
25.152536 10.241488 -5.529294 
-21.394278 4.303080 6.511121 
-19.620745 -0.134773 7.724165 
2.674233 35.572041 5.269834 
18.586073 1.633508 8.355666 
5.965586 35.312946 3.843958 
-15.341103 24.587313 -5.894547 
23.543232 -13.439329 8.222930 
-30.248158 1.702844 15.098453 
29.985228 -10.851713 2.195311 
-26.879339 10.624129 7.530528 
3.710948 26.749958 12.148242 
-30.661541 -4.592895 -1.120703 
31.811140 -9.790772 1.815397 
-16.212177 5.421535 -6.020671 
-15.239884 15.052709 7.249144 
0.246740 25.339165 -1.643841 
13.504485 16.441305 -5.123723 
2.139465 27.922853 8.161398 
-26.896542 11.631111 9.636303 
15.987335 23.026197 0.522016 
27.399887 -10.778236 5.245980 
-26.937134 10.843745 2.172577 
-24.695221 -11.073762 3.905843 
13.735640 14.545314 10.548949 
-20.738974 2.606895 6.588158 
18.049833 18.826174 5.786258 
21.802307 8.030068 -2.241770 
0.844105 24.974804 -2.495282 
28.186354 8.030785 13.207852 
3.186954 27.243380 12.550905 
-31.588957 -14.254529 1.721654 
12.916950 19.381115 9.290318 
23.088573 18.859426 10.905505 
-25.408524 -9.817509 -2.463063 
-5.048881 19.697275 -10.135441 
-14.324509 17.138391 -3.535189 
16.175793 23.735022 12.079026 
5.866522 24.745443 1.007968 
-26.295835 -15.129352 5.627831 
6.292875 32.981865 4.958246 
-25.905180 -13.136916 11.582087 
15.480091 12.242748 5.851031 
18.403290 0.502471 9.671997 
-22.589687 13.755236 -9.290592 
25.007351 -7.586200 -0.501735 
-24.976545 5.904160 8.528849 
-22.770401 -12.992624 3.882653 
-32.331856 -12.433115 2.583797 
-6.218679 28.160080 2.845633 
-23.842163 8.970504 1.377522 
-16.993580 14.224930 1.921115 
29.066677 5.332770 14.698712 
-5.387733 29.867815 3.707967 
17.641577 17.854832 3.225235 
4.417252 33.013283 5.584357 
27.842489 4.233758 -7.619594 
31.815466 -7.040180 -3.579940 
3.108204 32.547546 6.280431 
-17.813906 16.241507 -4.179524 
-32.400738 -6.619540 11.683684 
-14.244082 13.442662 -3.039340 
-4.166973 27.163153 12.781985 
-31.547428 -7.241564 -0.035875 
28.032213 -15.716492 4.229221 
-21.331633 15.029392 -2.396905 
-5.660510 31.252497 11.444559 
25.905880 -1.284931 2.990983 
-0.206713 28.746593 6.925202 
-26.105005 3.484112 3.070213 
27.332975 4.825774 -3.102986 
-16.528925 7.988403 15.120176 
0.513862 28.290588 -1.739421 
-8.548301 30.159561 6.405030 
-19.171074 24.097235 11.557108 
-21.751574 6.170071 8.897366 
23.549419 -3.000805 -1.831827 
18.676886 0.301783 11.861417 
14.414967 25.628002 4.018136 
-13.153847 22.840200 4.783689 
-7.716487 19.729172 -3.667888 
-17.060600 17.043709 5.550251 
-14.236395 19.493549 -1.362885 
-20.836554 16.693586 -9.736325 
28.306490 1.634503 -4.221714 
-25.286860 -13.034983 4.819676 
-30.998825 -6.649377 11.956852 
24.279335 -15.364255 3.692089 
1.164493 28.956903 -1.808244 
-23.241289 17.624218 4.485792 
10.542055 26.080763 0.945184 
14.664254 14.629058 -6.448954 
-22.238972 -7.392891 2.344690 
17.054722 21.670391 -2.759184 
-29.031391 2.674793 10.021058 
-19.479511 11.398911 7.567581 
-15.457932 12.780347 -3.552511 
-21.461380 11.727881 2.085298 
-9.404894 19.619329 -1.318925 
-28.271391 -3.834613 -1.730443 
-13.086805 19.099249 7.562903 
15.490775 7.256898 -5.379106 
13.712729 27.859369 10.575503 
2.125044 26.143139 10.152125 
25.410151 -2.331988 -5.044508 
-19.107485 -2.788509 -0.233835 
-27.137308 5.068001 3.262596 
-0.880051 21.826912 -4.757567 
-17.117201 14.807695 -6.878104 
-30.587486 -1.661092 -5.986530 
1.683753 26.553520 10.908258 
30.798588 -13.421041 9.055903 
-1.790367 28.206732 13.014928 
-12.041124 24.876184 8.738737 
-19.255936 18.880579 7.276983 
-1.365306 28.550468 8.302098 
21.727390 12.632100 -3.955384 
-18.380125 13.253993 3.069051 
-30.264990 -0.367837 -4.330227 
-13.453263 22.212706 11.374462 
31.742268 -10.838078 2.487121 
-26.864744 4.800870 -1.511183 
25.940697 0.153225 3.181160 
-29.862503 -8.196730 12.658823 
4.614058 30.262255 12.883302 
-20.105133 22.877453 5.036824 
-21.171913 -10.184638 12.198140 
23.169470 2.896737 6.406171 
-28.256392 5.399118 6.206059 
-20.848454 4.353273 -0.250473 
9.928582 29.770239 2.595046 
-15.484390 24.893679 9.878379 
2.017256 32.267323 6.068115 
4.434815 19.905296 -10.129194 
-17.811876 18.317101 4.794505 
22.238857 -4.695258 8.620841 
-2.124327 29.086306 -1.731188 
-15.430935 11.831472 -1.783807 
16.469831 13.874537 1.477825 
-21.268082 10.875162 1.976701 
-30.861958 -2.705286 5.860599 
24.239771 16.289738 8.563605 
-16.061495 16.955420 5.625384 
21.494307 -9.750872 -0.735860 
27.984520 -12.669155 8.582654 
-20.818710 5.473993 -4.449047 
-19.945992 11.726280 3.998639 
-20.572901 0.030312 8.454888 
-23.958927 3.816520 8.991529 
13.231256 25.477554 -3.855689 
20.918617 16.428558 -9.526834 
0.902586 26.517738 1.727309 
24.602741 11.279948 -4.506438 
25.819439 -10.635185 3.836847 
6.713740 19.063162 -6.249541 
17.771236 6.720222 -0.431183 
27.933575 -15.209085 -4.622994 
12.258202 25.047760 7.631462 
-18.685242 -1.809664 -6.876200 
-10.888642 19.903479 -4.149291 
27.074535 -14.708361 4.407486 
14.434099 24.690506 8.138628 
23.067579 11.513051 7.788720 
24.346489 -5.197236 1.433636 
17.228279 6.026651 12.055370 
28.670351 5.246278 4.594666 
-23.328390 -15.909863 -1.114864 
-19.723166 5.009143 7.398297 
13.432332 15.899429 -6.279194 
-21.324106 -9.831323 8.210728 
27.014584 5.691087 -3.245057 
9.638025 26.384926 4.863971 
-21.647657 4.740725 2.641521 
-23.618858 17.916731 12.200802 
-16.970989 8.335155 9.039029 
-20.355190 2.828894 1.312679 
-26.459063 5.264509 7.147823 
26.960207 10.177029 6.768921 
25.097048 -5.539152 9.639030 
-27.428085 1.626338 10.430834 
-2.149781 32.603634 3.343093 
23.072111 0.777382 0.999040 
13.780207 23.937740 7.582949 
15.982284 13.398156 8.956968 
-14.843904 24.597494 4.860406 
-20.578672 22.433422 12.409466 
27.033297 5.535690 6.557217 
26.150082 -3.875094 0.699124 
4.212252 29.175377 0.222454 
26.419930 -4.679471 0.741428 
-23.435335 9.708386 6.889369 
-7.836845 30.843925 4.482298 
17.489149 20.989307 3.243876 
5.751920 28.477207 2.172490 
-8.737637 30.386841 5.622377 
-5.142908 29.312944 0.983230 
24.386261 3.085008 2.641604 
-17.497717 21.803080 -4.715379 
-20.187922 14.162770 1.932045 
-20.319637 4.130523 -0.964438 
21.630095 -2.343173 -5.632029 
14.975793 13.268876 -2.721524 
-21.487150 -3.676457 8.758977 
30.242109 -2.025248 5.875385 
-10.208257 25.629385 -1.444062 
-24.043022 -3.928318 -1.463987 
16.835180 11.352010 5.149370 
24.558321 10.221921 -3.250475 
4.996265 27.743586 1.702515 
22.330721 6.673394 6.310641 
10.252550 18.367031 15.122925 
14.721975 26.326582 4.882592 
18.090384 4.240069 -2.352134 
20.741177 -6.950661 11.478389 
-20.700523 -8.946770 -5.784479 
29.159931 2.181447 -3.361867 
-25.878963 -4.506292 -0.083528 
28.710684 7.300709 11.618246 
10.289387 25.978266 0.108381 
7.731727 25.710552 6.835592 
27.664486 -2.816193 -0.577375 
-19.473921 6.008079 -2.092758 
20.782465 0.538879 -6.087624 
-27.639652 0.547274 10.635455 
19.907600 -5.976158 -5.153430 
9.369664 30.433298 10.612610 
-19.556448 12.556277 10.189144 
-21.389099 -4.913288 5.793099 
32.021553 -3.682404 11.267135 
-1.604605 27.768871 -11.365400 
24.606892 -15.603362 2.227185 
-11.588355 18.037405 -2.550873 
6.806178 28.652872 3.101275 
-5.317535 29.657631 13.349602 
0.066643 32.722321 5.648132 
-20.162271 -3.151807 2.109322 
13.418468 27.271509 14.411201 
-28.009979 -9.344267 5.352984 
2.047396 21.138350 -6.625043 
-11.500019 29.295515 9.920208 
15.397810 26.942238 9.742321 
-25.628889 3.723007 -2.644775 
-5.670410 26.693798 -2.132124 
-18.350538 2.439067 1.437974 
-23.842709 4.604608 8.485243 
-24.745260 10.721428 -4.593894 
-25.247902 8.640560 1.759475 
-21.792358 0.625098 1.067457 
24.959955 -14.594123 11.899758 
30.446445 -6.165116 -0.804131 
-29.069885 0.309858 0.041574 
0.265712 31.544804 2.903854 
13.144285 27.041576 10.460424 
-19.621817 19.471447 8.701529 
-28.474514 -17.385818 2.631959 
19.720333 24.640430 8.264205 
-28.571941 0.936216 10.520930 
18.106718 -1.203007 -3.422276 
26.827845 -3.051394 1.925049 
-13.051283 17.287838 8.953006 
-20.811213 16.398972 0.879784 
4.588419 28.344362 -0.160389 
-23.372612 16.007645 10.172017 
-30.196730 -10.878391 7.166438 
18.919474 15.473870 3.188610 
28.690598 1.638940 2.415768 
14.445222 20.649897 -1.610088 
5.239068 26.248512 3.043900 
26.063402 -5.328727 -1.390376 
-15.630320 23.987282 -1.329851 
-6.498435 28.769056 4.740576 
22.001558 -11.198053 10.096155 
-28.661278 -9.393394 12.852129 
-18.376816 2.963518 15.029648 
-26.939335 -11.984729 5.036699 
23.387939 -4.275100 9.330185 
-20.208511 18.758078 -6.607396 
-29.391869 -16.822760 -2.310040 
-25.411345 -2.212444 10.490955 
-2.897728 31.375229 2.270528 
31.065542 1.163651 10.624593 
-21.364601 21.062321 13.451837 
6.782469 22.996704 -3.443484 
28.410650 -15.939120 2.671827 
-3.809178 29.471529 5.000446 
-24.076759 -0.358440 7.471583 
-7.596607 28.951139 5.307755 
20.718134 2.732504 -5.944100 
-27.257000 3.256388 0.309942 
-20.229006 12.090591 9.911054 
13.942992 28.156481 3.880686 
22.200191 4.748904 1.656273 
0.377623 33.762672 6.794296 
-24.411449 11.439518 7.482859 
1.934134 30.907030 6.890421 
-14.284923 17.618742 -0.517524 
13.131346 25.680481 -1.228606 
-12.557013 25.119532 5.332014 
18.517923 20.179937 -1.045007 
-21.604120 -0.186127 9.151613 
-19.955736 -2.222642 6.980762 
19.765860 14.499318 1.894553 
6.702363 24.985929 1.341262 
0.645806 34.642883 5.864441 
-24.642015 -14.537453 2.387384 
20.979895 7.412194 1.354724 
-19.886946 9.760009 5.008965 
24.382862 -5.014108 8.642934 
-0.632026 28.493507 -9.354548 
15.560857 23.298849 -3.451865 
17.274225 6.027686 13.354178 
19.155945 10.338075 -2.325677 
11.637886 22.350473 2.163404 
16.902210 17.425608 -6.584387 
-27.037720 -3.959982 -4.284679 
4.000971 29.837341 3.554283 
16.938183 26.486536 8.774377 
-25.692755 -17.641481 0.574848 
30.085045 -14.240595 -4.763554 
23.361433 14.674004 2.008726 
2.003496 28.707197 8.697544 
16.094496 16.486013 2.276748 
29.820324 -13.382104 4.915621 
-13.252381 26.348598 12.306181 
25.836935 -6.436444 10.694821 
-8.773015 29.538420 8.581461 
-2.193986 24.159264 -2.880133 
12.032610 19.620342 -0.470807 
-18.895927 0.505824 13.229351 
11.882484 18.146149 10.537453 
-17.053432 24.514351 11.705462 
18.225176 20.254866 -2.405156 
-21.916025 7.337217 -5.668789 
5.076287 24.046495 -3.438276 
-20.296921 8.966111 -6.144119 
32.362206 -4.773739 13.440234 
31.135748 -11.104153 4.130973 
-24.777706 -5.830074 3.407360 
27.789536 5.004865 -5.002580 
-19.326670 3.949269 -1.421971 
32.606468 -7.950817 8.430783 
-20.808367 5.093436 -1.727779 
24.306885 -14.515272 -4.744562 
4.448297 25.246819 -3.242668 
25.642780 -4.731819 6.881996 
7.990339 20.264380 15.180853 
-29.755550 -3.724082 7.470757 
-17.559576 10.850796 -1.828304 
22.814791 16.719856 9.509048 
0.495934 32.009960 6.713058 
18.054901 11.482350 8.676157 
-4.613457 29.246389 -0.068616 
-2.267597 29.530592 5.289936 
-24.659464 -16.083179 5.203025 
-19.273878 22.108665 2.558660 
-22.701048 12.296997 -0.979285 
23.127974 3.135142 -5.885186 
30.796497 -13.531213 1.225991 
-18.599030 22.417162 11.193721 
16.130245 22.565174 -0.158388 
21.435905 13.752950 0.096420 
-14.867741 20.283241 7.552801 
20.656818 18.210558 -3.257071 
5.645753 32.839058 5.581258 
-14.324826 16.899532 0.108296 
18.227404 3.581334 14.748948 
-16.242313 22.625868 -3.209989 
25.041405 -14.430305 4.608898 
-27.820456 0.892854 2.176020 
24.214500 12.099088 -5.162969 
27.900675 -6.751287 8.354801 
21.919640 6.426068 0.457096 
21.112989 -4.815085 4.538996 
-28.576187 0.418016 4.026944 
18.753487 8.125225 1.175246 
-17.250929 6.201890 15.088511 
-16.719080 7.465180 11.890537 
-8.188441 23.077051 -0.234183 
6.767159 21.321671 -1.461333 
21.299402 -0.607380 7.061626 
3.279174 34.602325 8.387576 
22.263193 -12.576947 2.849822 
29.957695 -14.724153 9.982817 
-9.212671 24.958143 -3.835258 
-7.499429 28.414455 6.574803 
-18.678486 6.426828 5.346384 
-30.991531 -5.438733 -0.980688 
-24.017351 -11.624389 10.880249 
30.372849 -3.513285 -2.049182 
-3.268099 25.732380 9.467253 
-27.556055 10.242579 9.240676 
-31.104334 -0.384044 13.980656 
-9.350911 27.418715 -0.407071 
7.480059 34.190758 8.105330 
18.706425 1.106539 13.065737 
23.398149 3.954777 5.825315 
-7.567269 27.200420 7.650463 
25.694729 11.067304 7.752208 
22.627901 11.261211 -5.268301 
-24.093721 -8.595752 7.401812 
1.542909 30.260698 7.289206 
-19.866259 19.734802 4.757263 
20.620398 17.368162 -8.727284 
6.699346 26.403709 4.338889 
-11.256962 26.879946 -3.426339 
-31.067366 -0.288394 5.748736 
13.658261 26.078777 7.458651 
19.388268 20.047880 8.426042 
-21.689220 1.514716 -5.895347 
-9.854440 23.614168 8.469296 
-27.204121 -12.330755 12.337989 
-10.248183 29.595770 2.964672 
24.506948 10.763117 -1.208190 
-15.539951 22.375225 4.696486 
-30.362263 -9.630148 12.906443 
-18.852518 1.703233 8.835945 
-28.574827 -0.906467 10.674933 
-28.333292 -12.395519 7.758833 
19.341026 15.210253 -5.405943 
-23.171518 17.324488 8.610729 
26.771112 -7.319688 11.500280 
-20.560682 6.438485 6.195452 
14.982173 19.548506 -1.461328 
-13.742586 21.994152 4.741366 
31.317450 -11.930396 -0.335897 
16.692301 24.395800 1.758239 
13.834229 24.680330 3.557143 
-30.853636 -2.607275 6.765825 
10.612890 23.242729 9.132369 
17.516731 10.293438 6.961525 
-31.598225 -2.556584 13.861308 
-6.953747 28.263409 2.333498 
-0.569183 32.740765 3.791007 
17.628746 12.295403 9.073262 
23.529289 6.626182 3.506331 
-16.879629 3.732747 -5.538339 
-21.162947 4.373724 0.667846 
-26.319910 -4.990578 -3.304516 
29.484589 0.282404 9.772070 
27.605217 -15.866297 -1.101300 
-18.424122 20.740294 -4.757449 
14.360313 19.867382 -2.260816 
-20.872139 21.685884 13.777909 
17.717747 4.366664 11.612936 
-2.892812 25.323082 0.515975 
10.533460 30.319735 5.548642 
20.824705 4.338636 -4.875369 
-20.599733 4.300801 5.509484 
22.233448 -4.346150 -3.406156 
-17.208216 23.861610 2.107257 
-19.043825 15.405730 2.685100 
-9.149922 23.921995 -3.120630 
27.345564 0.125431 -4.750535 
-28.993980 1.719597 -1.906137 
-1.324607 32.936836 7.857406 
19.626976 9.375545 -2.568601 
12.622246 17.893566 9.301346 
21.218559 4.729763 4.880332 
5.970873 23.066299 11.223604 
18.031422 8.777874 1.375627 
29.847937 -1.651093 -2.325501 
26.612833 6.396751 4.794984 
-20.759476 12.067802 -3.438407 
-6.977732 23.207445 -0.108165 
12.289970 24.378698 -3.430153 
-24.573709 -7.381931 5.549140 
-19.153013 0.513560 14.984509 
-31.989388 -4.671091 12.947071 
18.385834 18.898561 -5.945533 
-17.059540 13.361584 7.112044 
25.411283 -5.242263 -0.870396 
22.657194 1.781239 9.399055 
-17.472200 11.263200 6.038878 
-21.224220 8.697970 -6.059875 
-29.952143 -13.042048 -0.938498 
17.549204 12.244184 0.026273 
31.923943 -11.905138 -5.116031 
22.312748 9.581693 3.075215 
-5.925571 24.101414 0.367396 
-25.426220 -8.040392 4.506833 
25.758465 -14.209302 8.103073 
-6.178268 24.205069 9.430773 
18.569012 6.343252 -0.264648 
-19.667719 2.257859 -3.499080 
-23.493317 18.150946 10.554905 
24.904383 4.407051 5.983722 
-22.797255 4.174532 -4.088968 
-23.964935 7.060514 -2.470292 
-3.509516 28.315266 10.068995 
-17.442690 17.460447 7.630685 
-25.302402 0.525236 3.583021 
-3.858380 21.214609 -4.745600 
-20.286119 7.544868 6.250723 
23.094141 17.826899 15.008580 
-28.298647 3.309383 -7.703896 
28.260685 3.502434 9.341142 
32.918098 -11.738441 12.599051 
14.034638 17.274298 0.172117 
-12.401937 21.260721 9.008292 
-22.150166 -12.063563 11.727555 
-27.295246 5.701901 -5.990417 
19.621244 -1.153854 8.371861 
29.290241 2.264614 3.087974 
-24.354134 -5.608469 -3.407850 
18.280025 1.194762 -3.866607 
25.442366 -6.006630 -2.382552 
-14.192780 16.605886 -6.108848 
-6.275716 25.555445 -4.322516 
-27.710806 -14.013873 8.427454 
20.396246 -0.414529 -3.011990 
25.070045 10.309341 -4.525611 
21.107113 11.030190 2.952215 
-27.710258 -2.644866 3.724096 
-2.523556 27.991533 4.591709 
-17.695776 0.978635 -6.150881 
13.570059 25.387024 -6.800264 
14.057467 24.137733 -9.669121 
-12.217210 23.237997 10.902667 
-19.548157 11.647183 1.101369 
-20.228556 9.183623 2.544846 
28.254873 -8.726569 -2.735354 
-20.051550 15.205840 -6.058989 
-20.637558 9.949177 2.094345 
-25.680004 5.412539 6.467598 
-31.635527 -4.913547 -5.131442 
3.982295 25.457804 0.287946 
30.391661 3.400176 9.036676 
26.360916 -3.821447 -1.151838 
20.123354 18.066450 -8.913925 
12.980285 21.212139 10.540827 
-18.466274 -2.313979 -3.863762 
15.376126 12.909157 8.568737 
9.535627 23.779627 7.979596 
-16.493483 20.469440 1.112216 
-13.684586 13.956582 -6.178449 
25.443819 -3.684549 3.444864 
31.814333 -2.783040 11.139612 
29.210573 -0.990508 9.864589 
32.356468 -4.699050 12.503579 
8.004558 33.562038 3.537891 
19.574266 24.775068 7.345262 
-29.937889 -6.453199 1.764185 
-24.750967 5.502252 3.544312 
29.672087 1.509190 4.050902 
11.457918 25.014206 10.974357 
-19.374517 -3.476110 -0.849500 
3.107317 28.021101 5.033143 
-14.066539 12.706008 11.255497 
29.325287 -9.168451 7.003351 
15.346178 15.820969 -6.696929 
-18.799404 18.195587 2.497340 
19.692535 -0.997708 0.706745 
-29.091772 4.985870 15.158009 
-14.044778 26.962189 9.843904 
16.138153 18.883694 5.639943 
25.960007 8.381510 -5.432003 
22.661444 12.724473 1.677351 
-31.339958 -11.233631 -0.445919 
13.971328 22.851002 -3.430307 
9.404183 20.336510 -3.330902 
-19.284292 7.460099 2.211568 
-32.564697 -6.786621 6.562910 
11.234960 17.635517 13.786474 
-31.051596 -9.864777 4.445880 
-23.089659 18.731276 11.025038 
14.398058 14.934896 1.656837 
-26.216114 -12.640201 4.235469 
-18.273342 13.165347 -1.620295 
-23.399521 -6.303730 5.709574 
-15.355853 10.797712 9.677108 
4.304368 20.620005 -5.319091 
-21.713974 15.217843 -9.512449 
-21.416418 -11.978589 -4.351538 
-31.577263 -2.625170 11.891291 
-30.479374 1.770093 14.112543 
-22.400238 0.702474 -5.999637 
24.528624 11.216032 -2.114902 
30.859709 -4.080584 -6.326128 
-22.337545 14.759761 -7.315532 
-26.091311 12.445829 13.711396 
-22.559914 -13.582652 -0.243678 
8.541622 25.721272 6.391360 
-21.704971 -1.933402 9.210016 
-20.633154 -7.206964 10.541865 
10.993489 25.643192 -2.559772 
-27.723024 -4.870238 5.301958 
-11.364485 21.331455 1.147910 
-5.664035 28.945486 1.815468 
-17.439949 6.574885 -3.157294 
29.970755 -3.282507 7.326443 
-19.357454 -2.720418 0.632701 
-10.158412 23.583149 1.481608 
23.769930 6.107064 1.846975 
-18.967096 1.059940 8.241761 
-29.416170 -0.551875 -3.875569 
8.409317 28.542379 3.727677 
21.932383 18.218000 2.186800 
-22.216862 -0.821586 1.500407 
-27.580145 -17.503691 -0.550463 
-6.153834 21.558485 -1.735347 
3.083098 29.258997 -5.921103 
-6.923199 28.638296 11.882201 
27.260969 10.675098 11.430434 
16.048328 7.837179 -2.622521 
-31.624454 -9.210348 2.247347 
11.809388 14.617403 -4.257466 
26.691023 -7.365887 -3.019453 
21.268118 -7.751359 3.109576 
-18.445793 25.659637 5.188384 
26.572920 -10.899976 11.877481 
-20.011732 1.909961 2.239127 
18.825277 1.505816 1.462843 
-11.235990 26.673119 3.261271 
6.075549 21.898159 -1.466133 
19.807968 -0.175355 8.464224 
-32.060993 -12.043979 7.527642 
-3.894161 22.704725 13.928633 
25.943600 6.889097 7.238171 
-23.600351 4.670468 -3.654080 
-6.374866 22.760435 -3.247151 
30.656637 -2.599201 -4.169421 
-15.561984 15.856178 6.955975 
0.641872 25.859982 1.129021 
23.358593 9.249019 6.837449 
24.074955 1.182235 2.872750 
-13.060542 29.296362 5.418207 
-22.659323 -15.469224 1.846294 
5.275441 24.429888 -0.393383 
-24.387999 14.810087 5.453396 
17.812399 0.367272 -2.449795 
16.500547 4.353317 -7.683828 
-20.822588 -7.202599 9.543855 
-27.996250 2.557140 10.145103 
25.852261 11.584497 6.869287 
20.572630 19.345243 5.814071 
24.739658 -2.113012 3.205023 
-2.696179 20.513508 -10.251723 
24.314770 -5.713882 9.193919 
20.801971 11.989795 7.661180 
13.911107 21.150980 -2.428549 
-16.336536 22.536320 0.067720 
0.508881 29.586613 0.960501 
21.808157 -4.818132 7.908976 
13.638425 17.645805 -0.973052 
22.144939 6.336985 1.261477 
10.922031 24.363382 7.844957 
-14.786901 24.785082 0.929041 
-18.354757 7.001780 1.140510 
23.875803 -11.557957 -3.047685 
1.638976 31.522474 6.345221 
15.056413 18.756489 -1.273516 
-20.727850 5.435728 1.531433 
-22.725090 7.651132 9.438933 
-15.598694 6.831095 -7.097826 
24.479225 9.193708 -2.729332 
-6.037447 31.402212 10.663127 
28.863573 3.863351 8.461921 
32.135624 -11.166048 11.448512 
9.023085 22.259699 9.114297 
5.977910 24.796791 -1.214908 
-19.241621 19.840017 -8.062185 
17.696203 9.737540 -1.951240 
13.650805 23.357395 11.201012 
11.603828 23.284925 -2.852314 
26.054104 -10.825980 0.014282 
2.373430 28.073193 -9.863066 
8.216010 30.685041 3.400562 
-12.965412 27.801781 13.158793 
-27.501209 3.645973 7.624651 
0.742494 30.304178 5.725902 
-17.920692 6.659888 -5.330360 
-2.990050 29.595303 13.556547 
2.180094 29.959013 1.620717 
-5.901201 26.449306 9.150650 
23.823057 0.197426 -5.982597 
-29.358919 -14.255032 14.756742 
-13.836892 13.420945 10.921010 
-5.354100 24.217617 -3.391891 
-27.193760 -12.706246 6.096826 
27.929977 7.888023 14.761405 
31.506449 -12.882174 -3.289952 
25.329649 9.345951 -4.020971 
19.371567 -3.987397 -2.681172 
-21.099276 17.306786 -1.218998 
0.904456 31.441591 3.995422 
24.917421 9.721461 -8.477088 
-28.875462 6.887407 8.986531 
-21.507895 20.402046 9.105911 
21.229931 2.337923 6.219219 
-15.233268 20.912466 -4.301490 
18.731812 9.248673 -5.748387 
12.546538 27.328821 15.292417 
-26.670988 -0.868999 -5.271613 
8.930617 24.878920 10.633863 
-5.399199 31.600843 2.198323 
6.700878 26.119600 -4.551752 
20.155231 -2.720022 -4.971005 
-14.190209 13.453633 -5.602518 
-15.342543 24.165577 -7.927911 
-25.293964 -16.391544 1.517384 
