-30.759361 -17.998446 -10.478807 
-3.066720 10.493408 -15.283735 
-4.380319 13.179026 -14.475969 
12.866018 -2.713586 -16.677649 
14.723383 0.975478 1.998621 
21.288202 11.229336 -9.232795 
25.666145 -5.777987 -8.295865 
17.245461 -2.143843 -14.532148 
-16.428930 9.163721 -20.181726 
-8.779132 21.912287 -10.579819 
26.111204 -22.318176 -4.952366 
6.490084 19.222109 -3.381025 
15.490817 15.767246 -18.513073 
-17.594477 17.182280 -6.311467 
32.498161 -11.464474 2.227078 
29.509268 -14.158451 -7.441847 
-14.991739 18.656858 -10.010224 
-26.640316 1.451307 1.375572 
-13.047031 11.873405 -5.916755 
-16.610435 7.748276 -3.010271 
-21.133951 -10.342104 -6.803939 
11.151391 23.998539 -3.622661 
24.547510 -1.798329 -1.928861 
-29.510557 -7.800270 -4.670780 
-14.691526 2.680159 -4.493215 
-8.664939 13.835351 -3.305465 
8.712246 10.146418 -13.898195 
-20.798697 -11.023520 -6.531586 
-26.719208 -1.397971 -7.172961 
-16.967468 3.406778 -5.642188 
-24.468948 -5.682501 -13.183166 
18.836756 18.606056 -9.176618 
10.274591 16.201153 -6.442176 
11.588033 21.109251 -8.901444 
-20.814896 10.748432 -8.056361 
-27.210768 -1.433227 -3.181463 
-0.165921 11.955983 -14.153971 
3.001708 22.771475 -5.641742 
-27.259861 -20.988943 0.797382 
-24.432220 5.065086 3.246887 
-15.870430 9.399225 -18.531631 
1.027485 19.670471 -17.054371 
13.419994 24.345203 -0.532885 
12.097737 25.487238 -4.399536 
6.823779 21.711187 -3.322755 
-18.768301 4.304938 -4.087856 
-11.633486 10.392413 -14.023544 
20.361403 -11.574402 -6.507597 
11.179393 12.008249 -0.527758 
-19.235537 9.436415 -3.918641 
28.467964 -20.839279 -4.269876 
11.714094 12.094323 -13.366092 
15.895596 12.381189 -13.136024 
-11.075818 16.947624 -6.754581 
-18.169949 1.473968 -16.929661 
17.361506 5.889555 -13.497144 
15.391273 10.446678 -13.855452 
-15.995913 5.621029 -16.239765 
-24.145594 -7.753600 -6.444004 
6.255720 11.126644 -15.367826 
26.788116 -21.319813 -1.162240 
12.358353 13.545211 -5.413657 
-20.077835 -3.346888 -8.940895 
17.216558 17.796944 -12.869714 
11.964196 17.460619 -13.673901 
10.583714 19.721771 -8.155693 
-30.939219 -10.952865 -5.111716 
-22.173120 -1.225901 -12.807956 
32.448792 -13.631027 -2.041192 
-6.863738 22.560202 -3.661259 
-18.512123 -7.066373 -5.996450 
26.355473 -6.738063 -8.973176 
17.805960 8.777035 -8.426437 
15.697906 14.358585 -3.074562 
-17.913898 -7.264249 -3.531072 
-12.830385 18.040722 -3.655672 
-8.779372 12.349892 -14.990588 
26.127314 -5.965575 -17.288836 
3.005194 23.455938 -2.075762 
-12.736277 2.186386 -11.088159 
19.810850 -7.666717 -12.135064 
19.890514 -4.356429 -15.616918 
-9.881569 17.026573 -8.602362 
-17.079773 2.173112 -17.052507 
-23.182278 -1.204505 -12.253757 
-1.611173 21.424088 -6.388605 
16.901541 3.134409 -9.156173 
1.814537 13.627669 -11.908013 
-11.393641 13.009782 -7.326728 
-19.257769 -0.362415 -1.863755 
11.825768 25.262751 1.019449 
3.938136 12.749493 -14.276965 
-16.664236 -4.358271 0.755363 
-4.837554 28.000727 -0.741431 
15.291870 4.382003 -14.074595 
13.170545 -2.193350 -15.034400 
17.653685 13.882349 -6.809489 
-1.808303 12.352000 -12.291608 
17.521980 -7.934741 1.312027 
-28.928726 -18.517433 2.436274 
13.651116 20.802349 -10.399816 
15.790099 15.143411 -5.550786 
2.483183 31.029770 -8.053101 
11.694499 18.399242 -3.492264 
13.442561 14.923909 -15.505523 
13.170028 8.172005 -15.412057 
14.959359 10.050582 -3.798201 
-19.073740 9.360074 -11.649150 
-11.083974 1.239500 -16.627377 
12.719719 2.092971 -9.832355 
-4.578273 17.786366 -14.798692 
21.036215 -17.124599 2.462723 
20.605549 -4.153136 -1.088611 
22.778103 -14.084883 -2.389297 
-25.364477 -3.048460 -16.806002 
-12.474070 6.018605 3.111573 
-24.455584 -20.427425 -3.465757 
17.060526 5.468574 -3.800228 
19.006462 11.290160 -12.654912 
16.039078 14.685695 -19.095257 
14.995344 0.137584 2.161617 
-27.929680 -8.577616 -12.173516 
-13.741190 -3.836793 -14.281267 
3.850066 24.321880 -0.993423 
-12.867013 5.503474 -6.193454 
-22.571518 8.953370 -5.221884 
3.465595 23.635662 -7.465120 
15.540205 -1.680855 2.023752 
-29.781359 -16.902388 -5.700080 
-13.541002 1.093136 -9.236381 
18.344355 19.358582 -8.641642 
-11.611751 19.540043 -8.496143 
24.742077 -19.546570 -7.082911 
27.013561 -7.503443 -8.489881 
21.410818 -0.292095 -3.735521 
-17.526657 3.099914 -15.973310 
21.069479 -0.593782 -2.978565 
-8.450431 17.017006 -16.657961 
-23.198309 1.847581 -3.359994 
12.042778 9.451715 1.236876 
-32.331982 -9.366892 0.417159 
22.763544 -19.266466 -5.596049 
-19.304953 -3.021738 -5.078785 
-17.105644 7.493065 -17.149176 
-28.909637 -20.847528 -7.786155 
11.787127 13.889300 -12.578671 
-11.278637 7.279598 -3.978110 
19.577841 -10.575638 -8.585963 
19.817822 15.528257 -6.247255 
-16.974335 19.185026 -0.295876 
-3.350462 17.300562 -16.406494 
15.056868 -9.099529 -17.795996 
25.957035 -5.061124 -12.514576 
22.754564 -12.602849 -5.894907 
25.395691 0.253353 -3.096299 
-20.568842 -12.500255 -8.211694 
-23.210300 -11.507153 -3.060062 
-28.472574 -15.246049 -5.702637 
10.071664 25.683693 -7.291689 
14.313673 3.592443 2.979492 
-26.663317 -15.223851 -5.436522 
-17.197264 -7.891582 -8.395593 
16.325823 22.464375 -1.839048 
18.433451 -8.812316 -8.647653 
-10.469033 14.287805 -6.515364 
20.116476 9.934146 -2.059812 
11.712651 13.105812 -11.529829 
-16.908480 16.325228 -4.130486 
13.173895 6.215763 -15.452665 
-9.862292 7.042304 -13.727283 
24.432632 -2.578702 -11.309499 
-19.681459 -9.029010 -15.307549 
-0.102640 19.182486 -0.285293 
17.990309 12.288386 -5.374985 
15.808473 8.423513 -18.068817 
29.284262 -17.603548 0.325799 
15.238717 -0.142851 -16.240679 
2.296293 24.405247 -5.825231 
-13.559745 15.762018 -3.271825 
23.459988 -2.812338 -1.371633 
-1.390152 20.035275 -14.116268 
19.053543 1.478754 -14.281651 
-10.766628 17.267056 -4.033227 
-21.328878 -15.638748 -1.265369 
-9.809925 14.898973 -9.365180 
2.937980 16.097483 -14.179951 
-19.151955 -2.409649 -7.145391 
12.744006 24.773363 -3.735012 
-17.158243 -11.795746 -16.315586 
12.106374 -2.764824 -13.448503 
-21.011564 4.636268 -5.304461 
-14.890407 3.965003 -10.140067 
19.631126 -10.465626 -6.147297 
21.809471 11.334775 -8.235424 
-27.015856 -6.600071 -7.532246 
0.252923 11.028954 -16.745344 
20.425264 6.202747 -13.358397 
21.310938 -7.143372 -8.971570 
-0.576238 18.616434 -7.470150 
-24.177408 -1.108324 -6.928648 
-7.210400 13.943888 -14.383036 
25.775560 -5.834166 -1.118998 
24.388182 -3.368436 -10.522085 
26.005266 -9.830126 -12.539822 
-23.836653 -5.647496 -7.651990 
-4.776361 26.677547 -4.684745 
-12.253236 13.556438 -15.303323 
-9.969595 10.324604 1.044301 
20.559204 6.964515 -18.190201 
-13.979935 12.588982 -4.306793 
20.924593 -8.937824 -15.803769 
-15.536690 -8.348817 -14.027854 
-5.328546 29.535904 -13.222620 
12.591943 17.948515 -6.650617 
-19.596895 -15.056435 -10.966029 
7.579371 17.858397 -14.362618 
10.381512 9.479278 -16.075253 
-29.923309 -19.790445 -2.576168 
-12.872873 8.610555 -10.564165 
-27.260271 -10.274195 -6.613396 
-24.458122 -2.333064 -10.552427 
-19.196436 6.138812 -4.617102 
21.883722 -0.962900 -12.419783 
1.734035 25.024719 -7.903408 
7.972783 26.493841 -9.253225 
-11.057748 0.821261 -19.084936 
14.991095 19.511890 -6.684234 
10.157322 30.142706 -8.198153 
21.913895 0.802840 -15.844697 
-23.578550 -19.178812 -12.294026 
-10.096105 14.568311 -5.561211 
-25.103701 -16.465843 -6.915433 
13.023541 18.767391 -6.305504 
-11.226523 7.682805 -18.528189 
-17.541248 -12.902810 -16.039961 
-20.917521 -13.905710 -1.186720 
10.292936 25.284256 -6.358215 
17.682972 -6.826823 3.342065 
-1.339815 29.753878 -3.755873 
-20.945644 -0.738152 -12.103459 
26.859560 -0.938766 -0.156779 
4.364902 30.406872 -5.936436 
32.612240 -18.106791 2.471435 
-24.191940 -12.534601 -5.347031 
15.545085 -5.157264 -14.125361 
7.300522 14.598433 -9.447645 
0.860939 25.672003 -8.412893 
-18.507923 6.581604 -10.879277 
-22.058916 -5.143691 -3.331269 
20.713717 5.270052 -18.422329 
-17.206902 -3.052565 -10.831704 
-17.727137 -12.947489 -17.262650 
-9.851557 12.628513 -10.420424 
6.818543 14.916265 -11.928206 
17.007002 -2.164109 -2.046070 
-23.372868 -8.788527 -8.136261 
-21.955677 -12.848617 -3.839459 
-16.770971 4.029065 -9.009624 
22.799656 -8.956183 -8.847978 
23.662117 -20.209074 -5.562777 
-8.054819 18.530890 -12.047646 
-20.423849 10.543742 -4.915105 
20.768915 -13.660531 -3.337481 
9.431209 15.723809 -7.327483 
-31.973745 -20.519815 -16.252220 
8.415355 15.287676 -16.490276 
-31.760204 -11.636169 -5.659125 
-6.634400 23.612419 -11.552910 
7.476398 15.733942 -7.882740 
15.809286 8.759883 -14.091836 
-27.794498 -6.726933 -7.728045 
2.000357 15.904553 -14.772104 
-12.725883 13.060151 -6.478567 
-2.283894 10.885066 -14.351698 
-13.098992 16.436609 -13.392038 
-18.483555 6.255516 -16.239738 
-29.103161 -10.306170 -2.706220 
-3.315490 17.384569 2.609198 
25.890142 -21.464640 -3.218328 
12.455518 13.333781 -12.848139 
8.313643 19.202768 -12.884770 
-32.732391 -14.725608 1.771839 
-9.617925 3.107267 -19.387747 
15.752849 2.155098 -1.523559 
13.095572 4.568005 -10.962241 
28.558903 -10.361674 -4.201963 
-12.370828 18.766682 -4.016585 
15.478175 9.638668 -16.893881 
12.403625 -0.586464 -17.342911 
-9.097802 25.154312 -9.650679 
-0.667225 18.999699 -6.731658 
-10.510143 17.076571 -14.864322 
-25.764956 -0.985900 -7.070920 
-18.842045 4.510943 -8.846519 
20.260513 -1.747673 -6.325618 
16.971916 9.859152 -7.944193 
-30.134041 -10.841024 -16.103868 
-5.423431 11.991924 -13.291506 
10.262028 13.943200 -9.541214 
11.233817 11.251910 -15.556131 
16.148190 22.352001 0.785358 
15.374707 13.957371 -10.877672 
-17.774355 -2.145764 -2.646549 
-22.849953 -18.747780 -6.574846 
-20.853262 -3.799125 -8.562043 
8.513152 13.342082 -12.353635 
-14.773136 9.966523 -16.584202 
-18.541500 -8.507794 2.742688 
7.620722 18.533405 -18.427704 
-27.235643 -0.613296 -3.976305 
-27.443920 -5.247727 -7.548316 
13.117520 -1.843287 -9.559289 
-20.681761 -7.508687 -15.737694 
-0.419924 27.464447 -5.982110 
-11.541599 22.608793 -6.713297 
22.545488 5.454364 -5.856154 
4.704665 17.789959 -21.336603 
20.563116 5.096429 -6.502442 
-18.895836 2.242592 -14.163079 
11.821877 18.695820 -7.766675 
-12.311567 10.907977 -14.558762 
-15.582753 2.866664 -15.321575 
-5.263911 18.702375 -4.840359 
5.646077 29.336485 -9.739618 
-24.819904 -21.302805 2.209624 
-10.820821 10.073991 -14.902561 
2.016307 19.331097 0.530885 
16.824560 14.427761 -15.451384 
6.462613 22.571503 -7.191136 
24.080549 10.122456 -2.163255 
7.019856 19.300257 -8.377617 
-17.040310 -10.200235 -9.909382 
-26.391312 -21.905371 3.161740 
2.165438 19.668489 -17.447989 
-6.801579 26.234379 -5.969584 
18.769066 -0.908430 -8.749691 
-28.894682 -19.153555 -11.482396 
19.623806 15.692247 -7.443767 
-8.716237 8.726369 -14.174549 
-4.887164 24.906252 -9.795725 
-12.316435 14.171149 -8.810905 
1.667550 27.954369 2.171441 
26.510347 -5.096839 -8.449177 
-22.407558 -10.080791 -15.081534 
-29.236601 -16.026207 -0.622761 
-5.145078 19.634520 -5.023572 
18.522171 -11.054119 0.112234 
21.600094 -17.094780 -5.394493 
17.923002 -7.920889 -5.120500 
6.663619 25.931627 -8.616408 
14.544681 4.673454 -14.300093 
-13.753991 5.644862 -18.452343 
15.252743 -1.103441 -7.577442 
20.661854 9.052633 -15.014719 
6.519951 19.647200 -14.654178 
12.965642 -0.358551 -5.779015 
-14.405158 19.490528 -9.911365 
23.791588 -13.233876 -2.159603 
-5.977724 29.118221 -7.354404 
-16.458702 -10.473063 -13.017267 
3.854230 30.057306 -10.909460 
19.116001 -3.626418 -4.428960 
-3.905135 28.853811 -4.616083 
26.824438 -5.858649 -4.467945 
-13.879718 4.269818 -12.378016 
6.410327 27.979187 0.401568 
17.503763 17.551003 -2.570733 
-28.682117 -9.787683 -4.008648 
-26.739489 -21.639118 4.267258 
-20.011703 4.697271 -5.434733 
23.525738 -0.173538 -6.060615 
-13.992909 9.327121 -3.222246 
-14.498632 18.648586 -3.886030 
-6.203860 14.618105 -12.788178 
-22.701401 -14.229251 -2.694915 
19.658497 12.142065 -9.256014 
-15.523016 18.783499 -4.148616 
-8.050182 17.630812 -17.338545 
13.646340 13.448761 -18.659174 
12.301304 15.253716 -6.100814 
-20.011599 -16.697887 -10.470994 
-19.952551 -2.746893 -4.692316 
13.609984 18.883627 -13.162068 
-24.941889 -11.309313 -1.031655 
19.095016 -7.571263 -9.738656 
13.150606 12.350853 -18.151022 
-0.545800 12.334793 -13.231919 
6.758106 10.027005 -17.258484 
-11.849405 23.206150 2.462000 
30.820280 -13.039090 -7.752003 
-18.469193 -2.349500 -7.665191 
21.709120 9.245907 -10.415026 
-19.914497 -9.087762 -7.734910 
11.146923 17.115112 -12.401666 
10.107907 15.448732 -3.263572 
-6.673694 27.354198 -12.331553 
-0.813145 19.194845 -11.339399 
-23.149536 -14.610511 -3.919860 
25.881441 -8.055728 -10.580726 
9.728879 16.623646 -13.559723 
-5.847071 15.376073 -8.965576 
-31.053879 -11.141469 0.139899 
20.958439 8.115908 -15.128589 
-25.042727 -19.766502 -6.724494 
-17.452566 -1.183598 -16.629196 
-16.045033 5.649790 -11.474909 
3.072078 19.459219 -0.415006 
-19.896450 -2.767651 -14.404435 
8.301894 19.199829 -14.629908 
14.703902 13.455338 -8.381643 
14.822671 14.892491 -3.051879 
-16.371433 -8.973507 -11.371905 
-25.059391 -20.272745 -12.302245 
16.825432 5.122367 -6.297075 
18.953390 -4.794116 -3.547431 
-8.764975 16.251188 -6.548313 
-13.024031 9.645997 -9.249615 
12.107995 15.709050 -14.249981 
-18.939484 -9.353983 -1.869197 
-19.008205 5.668530 -16.932467 
-2.460100 17.471607 -15.705423 
26.232960 -5.866436 -12.380320 
13.984340 9.999271 -5.930211 
-25.383814 -6.203508 -0.062077 
27.367905 -13.022302 -7.730702 
-24.167349 -13.718808 -9.519441 
-22.986595 -18.574945 3.176499 
18.697475 4.166561 -12.526777 
-18.292904 0.518180 -1.845659 
-9.696624 24.474348 -6.494060 
-18.949795 5.560151 -5.682050 
26.511665 -9.011717 -15.730057 
-17.895071 -2.500103 -10.809157 
14.198927 16.882095 -2.947488 
12.774053 16.385935 -16.075022 
14.502976 9.119355 -16.795074 
19.575642 8.930555 -10.886290 
-20.544170 0.360580 -12.849790 
-12.364847 15.548291 -10.496882 
-31.637501 -12.258739 0.864888 
13.614359 15.393266 -7.737010 
0.269946 15.719160 -11.266427 
13.826112 13.466412 -10.502672 
-23.416676 -13.337706 -7.749982 
21.203125 -16.776892 -3.497764 
15.206202 -7.925789 -13.123451 
-11.010645 19.280054 -7.350430 
-3.388332 23.087389 -3.049469 
-12.060918 19.417004 -9.978365 
24.436466 -20.283619 -6.075452 
-25.185276 -4.090043 -10.212322 
-20.541218 -2.714855 -8.536998 
-22.312782 -1.074635 -11.898935 
6.784667 14.961990 -13.157563 
14.406609 4.295932 -4.865541 
-14.786431 14.355091 -3.628092 
-21.413603 11.667425 1.270542 
-16.885977 11.138173 -10.844614 
-5.877342 25.985874 -3.704079 
-18.415276 -2.236077 -15.563216 
18.930429 -6.116590 -12.137075 
-21.679329 -17.957445 -6.539101 
11.115736 18.532299 -6.602935 
13.839480 15.480917 -5.691490 
-11.647949 14.982258 -5.959126 
14.676428 13.177476 -10.774259 
11.482798 12.822826 -18.037880 
-7.013422 21.831316 -9.888126 
23.712429 6.459768 -2.138944 
12.477769 -2.819157 -12.193996 
21.690836 -18.017532 2.588526 
13.203302 8.028067 -11.310523 
-22.542192 -16.973127 -12.164196 
-6.817905 19.661688 -8.537566 
24.359100 -6.912305 -7.900932 
-23.091179 8.285962 0.900821 
-20.767300 1.991206 -11.049032 
-29.972355 -12.088360 -5.655786 
15.703782 7.582089 -4.983356 
-27.678816 -1.684989 -4.256030 
-22.465361 -17.291529 -0.314223 
-3.026232 11.332850 -13.493798 
16.439762 7.094068 -8.364618 
1.006059 11.470540 -15.839657 
-17.060183 -11.612866 -12.371864 
-18.535320 -5.376864 -7.745592 
10.212084 23.778826 -3.906436 
12.730620 10.252741 -15.652999 
23.626219 1.055954 -5.311655 
-7.928104 22.957823 -3.191477 
-4.795969 16.156919 -13.089911 
26.844591 -10.808855 -6.199509 
-19.780043 14.725669 0.748480 
27.244215 -6.855557 -1.584790 
15.838133 5.463349 -7.441605 
12.545846 13.104207 -18.477133 
28.079458 -8.858780 -4.715677 
22.211308 -8.588384 -15.764700 
26.333273 -1.703613 -7.917783 
-11.752890 14.566409 -8.244924 
-5.009491 26.364809 -10.955630 
13.953122 1.937850 -4.741771 
1.199324 21.163725 -7.565902 
-12.947509 20.022905 -8.607292 
11.681470 15.525240 -17.862797 
5.981816 19.906958 -3.771980 
-25.477613 -14.186060 0.921252 
-20.254889 3.182391 -13.025098 
-13.346873 17.932085 -12.458336 
-22.470366 -20.813475 -8.352074 
-17.039770 18.188110 -4.524141 
19.343199 -12.254173 -2.036946 
22.707235 7.707151 -8.306493 
-12.461285 7.456477 -18.911581 
-13.286569 6.530220 -3.634188 
11.686397 6.027215 -15.356084 
-21.938686 -1.646819 -4.421289 
-22.601362 3.949960 -5.624683 
23.491703 -11.207897 -14.260462 
17.900944 11.942745 -10.607816 
-20.420013 -0.966197 -2.179376 
-9.471283 25.522982 -2.715548 
-20.710793 -11.373970 -10.198733 
-7.490819 20.537714 -2.738434 
13.272291 24.294115 1.211074 
5.283536 20.181057 -13.807077 
-9.108803 11.546190 -11.527651 
12.018005 25.486250 -1.034501 
-14.156561 12.153224 -13.224501 
29.375479 -19.672411 -4.721077 
3.863619 19.250101 -0.359183 
0.626653 21.206270 -6.363349 
-6.421598 12.677000 -17.107054 
22.433559 9.772909 -9.090316 
4.946037 31.100851 -8.048306 
21.079681 17.022781 -2.173019 
25.051620 -1.161707 -8.560391 
-21.819353 -10.556162 -8.135265 
19.268339 19.709999 -3.882347 
-15.602663 11.284378 -18.220306 
13.445964 9.523115 -13.739860 
-18.685165 -3.018841 -6.674206 
-0.720863 19.308006 -1.776836 
-3.026894 29.947708 -7.112167 
16.984451 6.851816 -17.929096 
-15.370231 -7.682175 -15.597363 
-27.790817 -4.708201 -0.928523 
20.856722 -1.052063 -7.870419 
-15.076167 -1.235417 -0.621534 
-29.738203 -21.764273 4.296917 
-30.997608 -13.469519 -1.058389 
4.610238 10.910132 -18.872704 
16.342598 10.191092 -2.036451 
-3.844187 22.946293 -8.236363 
-21.507376 -15.562454 3.995875 
4.247011 19.762728 -12.460433 
15.924063 5.170817 -10.312975 
-27.883230 -6.758783 -16.125273 
9.704441 26.790634 -0.417894 
16.680490 -6.334395 -7.874907 
2.596551 25.342075 -8.094386 
-25.545725 -15.677012 1.430552 
10.871715 17.538431 -7.013341 
11.746865 8.915278 -14.735135 
19.439276 -11.468979 -8.737202 
17.408895 12.100455 -13.354445 
25.317074 -12.753889 -4.911471 
-31.894508 -8.404900 0.207973 
29.012243 -5.263602 3.189129 
-9.209240 15.214741 -16.870155 
-8.443510 20.713434 -2.518278 
-8.206918 18.719650 -9.259314 
-19.643019 1.424083 -16.334600 
15.006290 -4.600887 -10.877697 
21.718908 -8.728814 -9.319458 
15.069818 20.452738 -6.969089 
-13.086383 17.156471 -3.396126 
-30.471443 -21.441681 0.416222 
-31.563454 -17.265253 -8.393792 
23.277838 -0.716196 -18.908764 
17.784134 9.598911 -8.396909 
-1.063890 18.268045 -10.551516 
16.291006 -2.893097 -9.842939 
22.224253 2.208003 -5.182868 
-25.512518 -18.468290 -5.888631 
-26.779808 -8.672379 -13.689556 
7.150622 18.143431 -15.333281 
-14.459423 3.434712 -13.957067 
13.185825 13.347962 -11.149140 
-29.115488 -1.956471 -1.120271 
31.257376 -18.279688 -0.149502 
-0.898983 18.387911 -8.271261 
-0.984093 14.129986 -12.433080 
-19.857574 6.488050 -5.082484 
16.872061 2.855509 -1.692831 
-20.514353 -11.856744 -7.682409 
-6.676074 22.453341 -10.598794 
-9.205437 12.355947 -2.270877 
-19.800695 -3.136760 -2.757395 
19.722937 -14.671204 0.724717 
-29.484669 -10.651445 -12.185387 
14.204942 2.621970 1.648014 
-20.724323 -18.115757 -8.689418 
3.924532 18.375374 -13.698162 
12.193174 13.936150 -18.675425 
-16.061190 -2.953554 -1.163647 
-17.303787 16.116497 -7.925328 
-16.957159 8.092087 -10.877207 
5.225719 19.176702 -13.591587 
19.385063 -1.426085 -13.023410 
-14.369758 17.666132 -3.533975 
-30.020554 -11.276990 -5.616406 
-21.466127 -6.662954 -0.246811 
-17.929577 5.223915 -5.152861 
-22.475872 -0.313562 -6.273254 
17.830109 20.170359 -7.596231 
-13.664574 6.530862 -9.355207 
-15.718798 5.014863 -8.129752 
20.586412 17.675901 -3.698184 
-13.602559 14.575513 -11.564847 
-19.997358 8.206567 -10.758595 
2.049502 21.023605 -8.541549 
28.856014 -5.262244 -4.751361 
16.945349 -10.843070 -13.722112 
-12.220369 20.455973 -9.739710 
-9.737310 17.684921 -8.094067 
22.783335 -15.997892 -7.317186 
-4.861447 18.699236 -6.625466 
-16.508329 10.362589 -17.009787 
-10.671114 14.771301 -7.151716 
-21.510973 -7.304182 -9.089450 
21.967371 -1.865142 -1.726731 
11.143441 20.147629 -8.674737 
-7.038498 11.970163 -14.033682 
-12.352363 18.837887 -7.345914 
9.547446 26.554386 0.842153 
-20.648798 13.341643 -3.592395 
-24.851774 -19.157883 -4.697094 
22.232374 9.089643 -9.673884 
-5.052615 18.771053 -10.065885 
-18.056561 -6.655997 3.633234 
2.771259 22.719555 -4.840888 
-12.655049 4.973884 -11.699016 
0.430713 28.143330 -7.156325 
5.376041 16.272306 -10.898973 
17.368645 -3.663481 -11.396529 
9.993375 18.289045 -6.134477 
4.280581 17.136265 -11.105503 
-31.701147 -13.669268 -13.808469 
23.833496 -7.182582 -15.531698 
20.918350 12.199677 -4.938009 
-16.240314 18.716747 -7.784652 
-19.513672 -16.307184 -11.669595 
10.544982 23.563156 -3.208273 
-21.553278 -19.614019 -9.938362 
23.607010 -8.091689 -0.738204 
-6.972689 6.155385 -19.792074 
9.880689 7.895169 -18.662792 
14.850472 21.317289 -6.682018 
12.667832 15.361150 -15.055465 
26.721746 -15.725240 -7.054577 
-11.855927 14.927277 -18.240103 
-29.555206 -15.280050 -3.588210 
-23.588428 -8.726526 -15.316944 
21.133093 -10.357605 -15.473437 
-14.740084 11.007867 -17.223469 
-12.414324 14.089642 -12.672045 
6.036609 18.390940 -0.807109 
23.437401 -14.191315 -1.907423 
2.170038 25.053049 -4.092390 
19.261595 14.114937 -7.766069 
-5.551992 21.644142 -5.743406 
17.202715 1.890571 -4.592453 
-22.458551 -16.885120 -3.190915 
3.548506 30.723452 -6.756412 
29.978809 -17.341362 -6.341002 
-21.107430 -14.542745 3.954316 
14.240573 -7.878911 -15.631742 
9.219898 11.687272 -11.066282 
-6.587662 15.316515 -11.889266 
22.211494 -11.255307 -9.175359 
-17.656551 -2.900734 -4.363976 
7.830637 18.640144 -5.001224 
-20.955999 4.682341 -6.265946 
17.505955 -1.522260 -9.781525 
-13.913603 17.335522 -12.741148 
-26.027428 -13.700801 -12.334389 
-15.472879 3.430667 -9.783035 
-21.995768 10.949929 -0.000167 
-23.185549 2.624685 -3.738206 
18.658384 20.017363 1.049728 
20.952827 16.221457 2.450742 
-29.490759 -18.981997 -6.270051 
16.704988 7.647295 -18.059601 
-15.972124 6.250967 -3.158495 
0.187164 17.920143 -21.350269 
-3.966582 18.928242 -6.613190 
16.574177 -1.211023 -15.471730 
3.056308 28.575193 -5.184352 
-15.457956 16.421955 -11.954130 
7.091746 19.867643 -15.355308 
12.066375 26.108536 -11.881203 
21.826231 -18.223900 -5.103612 
-1.381731 13.144926 -12.184353 
-17.516609 -3.550370 -9.124757 
0.138983 31.296394 -11.865836 
17.645947 -2.463458 -13.670145 
17.393391 -5.942232 3.311311 
-23.001034 -3.593573 -7.438906 
31.272318 -8.163980 0.426706 
16.741329 -10.657153 -8.875208 
27.785231 -17.716368 -5.789199 
16.427826 -2.795361 -11.096732 
0.650166 18.162008 -8.430012 
18.045092 -2.299447 -2.697639 
-31.344574 -15.080301 -11.244782 
17.884827 7.377447 -17.824181 
-19.584372 -12.237900 -13.226025 
31.546715 -14.384937 -0.528714 
4.069993 31.828295 -12.039067 
9.991310 17.975307 -14.289576 
24.303066 -4.885294 -9.101190 
17.527506 12.171437 -19.619328 
-29.098974 -21.229080 -1.591004 
-18.719225 -16.135927 -15.312657 
8.312823 19.832253 -6.252471 
28.462269 -17.560692 -2.137611 
18.077572 14.794210 -11.264188 
21.522842 -0.114459 -7.057079 
-4.874431 17.069597 -13.498824 
-2.589917 23.547033 -2.670574 
17.336231 1.707431 -8.983208 
27.871727 -17.789598 0.272749 
16.346184 13.180879 -13.264471 
25.599771 -9.889865 -4.998645 
-23.210785 -2.869845 -1.162709 
-6.368625 16.643908 -11.771389 
-14.943936 -6.455060 -14.517662 
-11.985535 20.410343 -11.557631 
21.463070 4.449178 -6.893109 
14.410989 15.725116 -2.970869 
-23.012743 -0.501764 -5.221644 
22.913889 8.504137 -8.050492 
11.695228 11.483655 -13.983349 
21.597273 9.597451 -4.679721 
13.014166 7.214521 -15.450260 
13.262499 12.524055 -11.485942 
-4.400718 27.202921 -2.532410 
15.036673 8.082395 -18.039207 
-13.789125 17.594376 -6.317953 
11.486491 15.865150 -12.946458 
-24.591137 -1.882940 -12.958817 
-17.712736 4.438864 -7.798007 
-6.209414 17.779324 -5.313169 
-22.134481 -17.419193 -1.606268 
-27.025396 -16.249912 -12.949297 
-7.403051 16.569559 -21.166121 
-15.541051 -3.004109 -11.638769 
31.282551 -11.737716 -2.407838 
-6.483945 15.027253 0.777340 
-1.228457 14.958040 -15.085160 
-5.633939 27.759542 -1.158791 
-21.492496 -7.986889 -8.059216 
-16.322420 16.878752 -3.898953 
27.193884 -12.270354 -7.952193 
17.756023 -9.085272 -0.753707 
-15.447071 0.612626 -8.090830 
32.194061 -14.321068 -5.885427 
1.464063 29.235809 -9.144189 
16.626892 9.697116 -8.769940 
-4.639001 14.338805 -12.217198 
-21.490608 -16.501694 -1.578465 
9.292051 15.119729 -16.062717 
-15.576538 12.479136 -9.306911 
-14.374987 4.949234 -5.191237 
-17.021082 -2.752721 -14.494775 
22.548298 13.789749 -0.549410 
17.990755 -0.500833 -7.963794 
14.020703 10.426515 -13.396486 
7.965778 19.646013 -4.096456 
-20.301088 7.526739 -10.107734 
-31.073391 -14.054543 1.827208 
-9.161630 22.950451 -2.964166 
-25.878210 -8.625377 -3.343534 
21.339037 -0.541408 -4.852565 
2.372287 10.516846 -20.374941 
18.712933 -2.901684 -15.027994 
17.791430 -1.877839 -11.606524 
10.961862 17.499964 -13.282962 
-33.655228 -16.259048 -2.463572 
-2.713215 29.180317 -4.502768 
-32.469246 -9.286042 1.462990 
-25.527119 -11.920930 -9.952295 
-18.732677 16.982224 -1.866020 
-24.635487 -1.875399 -1.689538 
2.896001 29.348333 -4.724159 
9.116306 27.363426 -1.518666 
-30.212463 -17.636173 2.519616 
-11.260796 23.881868 1.050123 
14.120790 23.879204 0.104179 
-16.872551 -3.418665 -10.102810 
-18.190046 3.142660 -14.167818 
14.289865 -0.505883 -2.362872 
3.439370 17.379429 -12.078902 
-23.114281 -13.210989 -8.539764 
-22.123823 -14.075903 -9.769461 
17.289141 4.688987 -8.598211 
-10.327436 7.489377 -16.510408 
-7.991822 13.168949 2.806181 
-30.602999 -15.381757 -11.742008 
-3.017009 14.818494 -13.047111 
20.199480 12.225985 -4.574741 
16.659410 12.394412 -20.633850 
-19.992638 -3.842842 -6.358818 
11.474462 8.207559 -15.371891 
-17.446260 3.641608 -8.128475 
-29.953878 -17.736446 -5.582484 
20.328775 -8.909980 -9.142555 
-24.353285 -5.048814 -8.169149 
-20.628517 -7.656677 -2.505058 
-20.984114 -4.600193 -0.862082 
-16.990410 7.423449 -11.398023 
20.080156 8.175754 -1.965874 
-22.328058 -5.239216 -8.196696 
-8.321095 25.255714 -7.914866 
20.837862 -17.306606 1.351885 
4.366113 21.385363 -5.549470 
13.247081 14.170482 -18.853235 
11.909925 22.876192 -9.365143 
2.135732 18.649511 -19.923647 
-30.173077 -18.434246 -11.305079 
-1.244550 16.416561 -9.556222 
19.364996 19.470430 0.111144 
24.741514 -22.060734 0.275980 
-6.526335 28.461687 -6.750274 
11.626986 10.541437 2.741339 
-3.357906 27.566999 -10.120525 
21.971895 -11.918148 -2.907257 
27.728931 -18.686113 0.239496 
13.986061 -6.761761 -15.627237 
-21.791325 4.273394 -3.814635 
19.924152 7.472548 -11.522670 
-0.179918 15.372614 -13.854176 
-21.031658 -15.886664 0.772144 
-19.276930 1.218637 -13.814570 
17.750105 -1.826796 -6.739916 
6.439828 11.682703 -13.742828 
18.724316 0.446922 -1.490550 
31.748049 -9.199622 1.859725 
12.284077 15.870925 -11.816442 
24.655937 -18.610254 -0.551980 
2.322319 31.296711 -10.279655 
9.255985 20.357771 -2.532726 
-17.586279 4.488597 -6.699462 
14.100521 18.551659 -11.654002 
-23.892809 -12.062568 -6.140208 
12.900166 20.429214 -9.939085 
-2.095289 19.567791 -11.352981 
-14.795545 11.064557 -7.191090 
0.146889 25.987312 -9.054992 
-1.039610 29.853153 -4.569580 
-15.345663 10.641397 -20.377584 
-22.681013 -2.410033 -5.309783 
19.933338 -13.048582 -2.473486 
14.150563 1.448696 -16.366102 
27.654535 -21.836187 -4.006614 
13.375245 -1.181331 -16.218779 
12.585798 -2.719999 -15.844470 
-26.159468 -17.765594 -6.193786 
-7.168568 10.686971 -13.079161 
22.265551 -8.150695 -0.693905 
-28.687737 -17.227764 -3.627198 
16.787767 4.298208 -13.464808 
17.645071 -0.983511 -1.455589 
3.982927 31.057690 -7.599721 
-12.226372 13.013841 -12.953898 
-19.747637 4.368442 -9.370657 
-3.954740 30.232285 -9.306594 
-32.086052 -9.470411 -0.527939 
-13.051052 13.184837 -9.478632 
8.335454 30.391598 -6.808701 
10.494699 20.630150 -8.313395 
1.883011 28.013288 -5.899909 
19.497511 -3.658113 -7.400929 
-14.184164 8.187390 -10.106892 
-24.244869 -14.858663 -9.817475 
-2.663213 12.173896 -12.858676 
-24.679831 -6.666667 0.056163 
20.119427 -13.253782 -17.251692 
5.329230 27.566984 2.155476 
-28.728996 -7.110672 -7.243186 
-18.484324 10.498194 -3.954247 
21.031324 5.431695 -5.880679 
-21.878387 -2.576879 -7.472148 
14.373259 -1.929372 -3.613480 
-17.816950 0.515698 -13.491111 
16.784744 16.937696 -4.892255 
-15.270980 4.672014 -5.603173 
-11.222996 11.557960 -15.334932 
15.473115 -0.462932 -1.222015 
-1.236645 13.137660 -13.252793 
-14.451634 0.493187 -0.934342 
-15.450071 11.476668 -17.431240 
-9.403289 24.215824 -5.671889 
14.221004 14.319841 -15.725167 
23.597113 -9.616244 -4.292250 
-6.088680 27.075367 -4.488003 
-16.325544 0.402105 -8.677475 
-2.141637 24.945137 -1.919851 
-26.832079 -21.721823 -0.801018 
16.847153 -5.523224 -7.446454 
12.596924 13.095635 -11.734951 
13.007052 15.241644 -21.006763 
22.262171 -6.649078 -3.545508 
20.376284 -16.473515 1.137381 
-22.538544 2.733235 -9.279045 
17.063713 -6.083673 2.032145 
-6.858377 16.208124 -11.162099 
17.876646 -0.641487 -9.694481 
-17.258110 -1.668410 -11.846616 
-19.151323 12.323175 -7.505404 
-5.664002 11.599743 -14.440560 
24.292799 -2.542230 -14.471850 
2.423971 16.896057 -15.061939 
-22.784601 -11.103668 -14.605689 
-22.992050 -6.792679 -15.707817 
17.156218 20.924931 -5.771875 
17.174503 -6.086075 -4.657214 
10.242718 28.594772 -7.146430 
-5.576073 28.436615 -12.624814 
20.164772 -9.476216 -6.558706 
25.116945 -9.278911 -14.719169 
30.129345 -6.361058 -1.729651 
10.853480 26.911037 -9.424612 
-14.180275 1.902744 -15.031942 
-16.299282 -5.355423 -8.133342 
7.557841 29.344122 -9.904170 
-25.401154 -19.272583 -1.698965 
-1.680004 11.229301 -13.923887 
8.515181 18.628851 -8.059566 
5.860915 21.633587 -9.921416 
-8.653014 25.790020 -6.738591 
-12.106896 5.422609 -2.432713 
-21.085611 -11.777016 -6.544488 
22.662695 -0.395733 -5.618386 
-14.190412 10.075386 -18.620163 
-24.152239 -1.716743 -17.619074 
-22.449337 3.912425 -7.707808 
9.201109 30.008677 -6.576098 
10.292249 19.534178 -5.961462 
20.391472 17.441093 -4.476143 
-15.723774 4.638324 -7.376139 
-11.374093 12.065978 -16.859636 
-12.045868 6.386447 -6.182365 
-14.160218 -0.548748 -9.468696 
14.149232 1.724342 0.732778 
1.844136 15.157028 -10.685616 
7.024463 21.222580 -10.259197 
14.191010 10.222220 -7.732550 
32.297165 -11.505918 3.395807 
-31.163202 -19.394968 -8.276114 
-2.461219 19.565794 -8.988110 
9.656700 17.774527 -11.959087 
13.721807 18.569172 -10.901715 
15.792499 -2.632809 -14.952379 
-7.531186 16.794189 -10.275942 
-21.628004 8.721263 -7.294980 
-23.331264 -8.135228 -2.859932 
26.723209 -19.841555 -2.703966 
5.094820 31.995096 -11.810003 
-19.799517 7.382698 -10.976075 
-19.230612 -0.867704 -7.853816 
-4.492562 13.213864 -13.627865 
21.349625 15.392118 2.478531 
19.201508 -5.814797 -8.631532 
-27.831726 -1.778812 -5.131702 
-17.784674 18.595861 -3.297316 
-21.157494 -15.266090 -7.911506 
-22.586756 -6.792364 -12.743598 
-26.053865 -12.596158 -6.342656 
-25.715099 -13.343338 -6.469125 
21.743885 10.991681 -2.801707 
20.543949 4.577458 -5.522675 
17.008202 -2.886972 -4.384463 
18.062563 -12.009124 -8.921692 
15.621325 1.850663 -7.859039 
16.372869 -10.776011 -10.563091 
-32.757664 -16.952406 -11.368455 
27.179928 -22.117483 -3.424661 
19.991114 -6.506825 -8.331837 
23.315132 -12.134881 -3.569311 
-18.592443 -0.044615 -7.874562 
7.491240 27.925217 -0.623657 
32.660007 -12.695683 3.437391 
14.901882 -2.387600 -1.920624 
16.855394 19.993011 -4.014056 
20.825617 -12.187968 -4.555508 
-25.749056 -8.216544 -14.750859 
7.994419 28.038008 -3.361016 
13.004217 1.458476 -9.305953 
-18.087053 -14.054777 -17.116238 
19.188034 10.899817 -16.488548 
24.888168 -12.112371 -13.554649 
-15.948523 -1.968621 -3.899443 
15.385333 9.992483 -9.926826 
30.258312 -10.750027 -3.685750 
-19.207140 3.615295 -15.051974 
14.130868 24.838003 -8.362679 
16.071003 16.343462 -11.786992 
22.702490 -1.378553 -8.038066 
-29.128180 -3.804882 -2.769374 
-31.747091 -16.348925 -7.514211 
-12.586958 18.613697 -11.928459 
-15.006615 21.240660 -2.488859 
-14.256457 -0.180507 -16.289200 
3.444467 27.589748 -9.627124 
-31.636816 -13.864517 -14.762301 
-8.006331 17.806646 -6.830480 
-22.738613 9.485270 -1.966776 
2.305164 26.028885 -3.618424 
0.797919 26.880436 -9.722050 
21.036081 7.508864 -14.395601 
13.606228 -5.543805 -14.750225 
2.466591 23.309748 -2.670938 
-11.600612 8.919565 -7.681086 
-11.498238 11.595128 -6.635301 
23.773508 11.139397 -2.550824 
-31.818449 -12.472936 -6.095039 
7.073427 16.823677 2.543727 
-20.680830 -9.335893 -15.343293 
-7.263532 28.099079 -12.244885 
-29.477884 -14.655673 -5.065954 
-16.406895 -2.681900 -5.568778 
-2.774534 9.718959 -17.421543 
-22.730721 -1.376772 -6.615697 
1.051049 25.672245 -7.255704 
12.723207 7.294561 -2.508594 
16.229099 10.997226 -10.168284 
-18.946674 -8.210927 -5.769815 
-16.691647 5.094507 -11.093222 
-12.926200 -0.544979 -12.974242 
2.818396 13.009966 -13.276567 
-27.054840 -19.658777 -8.002343 
-29.667181 -13.547079 1.673165 
-10.862075 11.337677 -5.632874 
-21.084328 -15.858871 1.704298 
9.191795 17.903395 -18.070307 
-24.380211 -1.216962 -2.137252 
32.549862 -14.995296 -4.456738 
16.208935 10.705316 -14.175000 
-31.660002 -14.990814 -9.138028 
16.153488 -2.886552 -4.768060 
8.408731 20.574369 -7.084902 
4.658863 20.635017 -4.925492 
15.455742 20.721445 -7.961028 
3.959252 16.084389 -11.644547 
8.580021 22.064598 -4.042374 
-1.773613 16.710598 -8.886727 
16.518917 3.857307 -9.455480 
-17.890955 -13.895994 -14.546885 
6.283179 27.714319 1.226711 
19.494469 -3.205556 -8.282577 
-29.287601 -19.050966 -12.262089 
11.071330 16.681076 -14.972143 
-14.356752 -2.361149 -10.852174 
19.212181 19.364721 1.171250 
-8.106123 16.862494 -6.592497 
-23.644196 -1.227198 -14.903743 
4.177597 15.291125 -11.236679 
-11.126758 15.811357 -7.997333 
19.745363 -13.324230 3.568485 
14.715161 24.673742 -10.250844 
-24.701445 -11.421562 -5.792861 
-31.840265 -18.751469 1.565427 
17.439613 -2.964465 -14.742401 
17.377415 12.948511 -5.403701 
20.034101 2.858887 -2.287781 
-26.016378 -0.831107 -5.786585 
-15.549675 -2.185758 -0.838355 
-23.215082 -18.393631 4.116237 
23.069021 -11.198061 -11.775194 
20.224155 8.616988 -17.848209 
-15.453505 -7.927719 -12.869682 
17.415390 -5.221878 -3.978129 
-5.730331 9.842915 -14.625381 
-29.933165 -11.122586 -17.493982 
-6.876887 18.237610 -15.528417 
-3.350342 25.467947 -1.676694 
14.267140 -4.926010 -11.326498 
14.063986 5.477508 -4.786917 
13.479443 14.999631 -9.871297 
-30.521820 -12.923952 -10.528499 
-19.867207 5.328274 -8.808119 
22.175207 -0.883322 -11.271669 
-5.357222 28.281872 -3.743155 
-25.087397 -21.125153 -10.802755 
-18.480659 -0.103342 -8.693902 
11.940899 -1.853152 -13.163527 
-11.037607 23.686619 -9.502955 
14.744238 16.087406 -18.592096 
21.733919 0.117384 -4.469249 
-25.953905 1.824893 -2.870246 
-2.286405 17.510452 -7.520351 
-27.686623 -24.674698 -15.707229 
-2.902881 10.091572 -16.277617 
27.378527 -22.806858 -1.667257 
21.434612 3.912788 -6.180748 
5.523054 18.439665 -9.686278 
-15.228283 -2.869436 -12.376882 
-29.143423 -2.878979 3.583942 
-2.180735 19.680586 -7.015894 
14.825581 13.456815 -15.803324 
18.911161 10.689834 -2.087080 
-0.944932 9.849443 -20.284279 
-6.153187 12.334467 -13.036663 
-17.178900 10.497976 -11.368910 
-26.447981 -8.583039 -0.125998 
13.311108 -4.598559 -14.943905 
-21.479139 4.546292 -7.361679 
-30.539261 -19.198112 2.391132 
-19.390131 0.204292 -13.238197 
-28.027853 -0.656081 1.757814 
-17.853289 -10.858102 -8.520065 
6.831344 10.251078 -14.472109 
-17.350920 -11.827528 -17.410746 
6.306750 21.172705 -4.058629 
21.786999 -7.565599 -7.637327 
-0.949166 16.351727 -12.080592 
-6.914940 16.075745 -16.080204 
16.183163 18.050608 -12.642487 
-21.801367 -1.834155 -7.987365 
31.166481 -11.296498 -3.479710 
-10.149817 22.779091 -13.731264 
22.082113 -19.537504 -3.503633 
18.211693 11.985666 -11.355244 
-20.984955 -21.294136 -12.842287 
-5.085630 15.175554 -9.524359 
-12.067139 17.063658 -3.542974 
-6.524210 8.454435 -15.911041 
-21.666731 -5.046804 -15.804090 
14.648225 4.484540 -11.992771 
13.627082 5.405568 -14.177354 
13.247564 19.094116 -8.445430 
-17.902637 -3.017841 -6.923390 
-20.247375 -20.368084 -13.847619 
-5.233319 26.735571 -3.019301 
-23.833534 -12.331005 -12.277216 
-33.475647 -17.645073 1.102192 
-22.935255 8.739046 -2.319656 
1.364285 27.037996 -7.386488 
10.287171 14.023266 -15.300112 
19.290648 -1.100208 -10.439587 
24.164724 -9.877449 -6.394317 
17.044462 18.310904 -2.642828 
25.380291 -2.994514 -14.852304 
-21.521460 -8.234798 -9.063025 
-10.276374 16.358473 -4.141998 
15.518688 18.927477 -5.723193 
-30.501711 -10.491673 -0.396982 
14.927332 20.645378 -8.712741 
25.098246 -15.107807 -7.938422 
-14.343278 21.768904 -1.023394 
22.303614 -6.317720 -6.888149 
-2.537926 12.746110 -14.331430 
1.064191 18.993643 -19.002476 
24.912701 -3.506934 -1.353698 
-12.538266 4.792006 -1.882876 
30.143080 -12.207097 -1.315676 
15.457762 -10.029753 -17.673544 
-17.637405 -7.573054 -1.660221 
2.196688 20.015665 -16.402508 
32.560280 -12.516603 -2.891356 
9.296992 27.486168 -2.582505 
14.350467 -0.711567 -9.256383 
-25.542910 -19.120886 -5.185711 
15.519794 -1.229728 -8.329412 
-23.786480 -20.242256 -2.590052 
-29.321465 -13.046939 -7.258007 
22.841127 9.343154 -8.223722 
-13.825491 10.276935 -4.241402 
-9.139794 17.217339 -17.301973 
-15.073668 -6.895058 -16.715925 
32.291927 -11.224953 -2.765687 
0.084709 19.815660 -12.757097 
24.989975 0.240708 -4.049145 
25.308062 -5.060246 -10.491727 
-26.337688 -12.882195 -11.983829 
2.925231 16.796101 -10.931578 
-18.326340 17.747589 -2.651907 
-23.416710 -7.729163 -6.925476 
-20.973972 -3.008292 -7.338668 
-22.746887 9.343433 -3.235344 
-10.794808 19.934563 -11.858041 
-22.629143 -9.147723 -6.830095 
-16.787424 8.836482 -11.370873 
-22.471031 0.597914 -18.005415 
19.235023 -3.486754 -15.309291 
24.046310 -2.721858 -8.662458 
4.143809 12.096603 -15.722193 
19.649025 12.577796 -5.693139 
18.026482 9.668729 -17.071772 
-10.275133 19.469055 -11.360259 
20.698967 7.031490 -13.269233 
-7.900017 25.798359 -8.532149 
23.875458 -4.884146 -0.864472 
21.678064 -4.532690 -15.642885 
-8.601418 18.568874 -6.783231 
-22.286682 -0.576531 -13.514346 
-29.337606 -7.596627 -5.724041 
6.986575 16.458206 -10.875395 
-21.716457 2.422566 -2.760373 
-10.774565 17.679438 -12.344100 
-6.350055 24.432793 -7.789578 
14.573897 -8.979155 -15.642905 
26.558382 -1.216731 3.057839 
23.028698 12.147183 -4.484957 
12.218945 0.591924 -14.891098 
16.624132 7.955639 -8.390896 
-33.132595 -17.852222 0.327026 
-18.975857 1.458026 -9.197639 
13.624791 25.550364 -11.696123 
22.773623 -2.253154 -1.550397 
17.346226 21.461710 -3.989759 
16.177248 -4.363303 -0.512831 
-22.973682 7.793158 -4.042860 
15.537590 10.626532 -10.786945 
17.220505 2.544573 -8.676950 
-10.676820 19.791407 -4.322738 
-18.558764 6.567441 -6.772219 
-26.030172 -9.889228 -14.174694 
33.199516 -15.777793 -0.521722 
5.990455 21.991289 -6.708086 
12.604311 5.834733 -13.540762 
29.921545 -20.559919 3.755027 
11.704482 -0.990415 -13.574673 
7.687500 19.684177 -13.453885 
-0.877318 30.974949 -8.709330 
-11.631886 11.416287 -12.798563 
-14.993183 8.906406 -18.844955 
-16.694216 15.435277 -4.065648 
11.142557 11.535274 2.708113 
-22.996931 -4.618165 -8.070273 
25.173132 -16.493309 -0.438896 
-8.797483 23.337536 -6.055276 
-11.083926 23.132288 -12.831782 
-30.809980 -6.008223 3.715135 
22.933956 12.948335 -1.547663 
9.774284 22.015326 -1.868354 
-31.944387 -19.682234 -0.932471 
18.585348 18.389206 -10.294899 
18.791611 3.058057 -5.962512 
12.555220 24.788311 1.118562 
-33.025444 -17.067394 1.456922 
-28.012249 -19.649878 -11.602184 
-33.103085 -19.569389 3.251127 
-24.632183 -12.603040 -4.616858 
-25.603296 2.929731 3.336693 
17.794182 13.737559 -3.809777 
-34.118320 -15.433086 2.766546 
15.932748 -10.926034 -16.566158 
19.529505 5.235698 -7.854176 
-15.513228 -7.837411 -16.688049 
-13.373826 10.557076 -17.458298 
17.435873 9.054903 -7.690115 
10.356527 0.293025 -11.406939 
-16.403118 20.163984 -2.930537 
21.429470 -13.563491 -15.915173 
-27.205420 -8.278632 -12.575306 
-17.024349 6.597603 -13.887883 
-19.097279 -8.841648 -7.846941 
18.808647 2.232177 -5.543853 
-0.026426 29.342396 -1.709718 
12.855207 16.020882 -7.512222 
14.537639 21.950335 -5.316136 
-13.305381 13.239758 -3.932059 
24.345671 -9.041120 -15.217647 
25.016628 -22.438913 -4.599451 
-11.300050 21.777203 -4.926016 
13.270620 2.210928 -8.694037 
-29.330954 -23.882381 -15.810512 
16.477665 -6.253363 -15.096480 
-20.032316 -6.156415 -2.882906 
33.280022 -14.002114 0.385159 
12.801542 17.328094 -9.769920 
-25.705297 -8.861307 -11.842849 
24.594303 -4.604876 -7.508281 
-34.082207 -15.261209 4.089282 
2.142544 10.853817 -18.757528 
-27.805092 -22.279591 3.146498 
-23.970327 -8.070593 -7.938092 
15.998379 6.812819 -13.784150 
20.234179 3.262978 -6.551740 
-22.978680 -16.750082 0.046985 
-25.230524 2.286523 -4.530453 
13.947912 3.441273 1.470177 
-25.721302 -21.937199 -7.794003 
10.131803 17.491028 -6.149298 
-8.971843 18.250488 -8.675207 
-17.642141 17.427284 2.726884 
-16.797832 19.015205 1.101866 
17.882673 5.496319 -3.347327 
-3.117895 21.439711 -4.876257 
-20.062073 4.777078 -6.507069 
10.921618 15.418003 -15.106340 
20.530237 3.695367 -2.873452 
-2.238427 18.158781 0.573655 
28.657827 -4.644063 -2.490188 
13.256362 5.929344 1.382523 
-8.847989 18.002523 -4.831348 
13.639501 24.363319 -5.956969 
-27.425299 -15.720209 2.077965 
-23.319481 -12.789371 -3.190594 
-1.906935 28.897163 -0.928897 
-13.412499 4.384045 -13.209737 
-20.005226 -19.628153 -16.379211 
-14.560472 -5.814553 -15.654259 
-29.572540 -9.831886 -16.286142 
-11.770793 6.391595 0.631320 
-23.056992 -13.474571 -2.076943 
24.617847 -14.184610 -1.282229 
-5.292523 20.870119 -5.995026 
18.969963 4.204468 -8.974608 
27.046873 -7.534470 -4.679649 
-18.483116 -14.747683 -13.021990 
-14.528320 0.596426 0.965176 
13.507921 16.171675 -9.558481 
-12.455387 5.032738 0.318103 
16.247387 -2.399932 3.188050 
-27.064434 -2.018512 -7.799895 
-19.534019 6.585611 -10.987964 
7.730416 23.705999 -2.010870 
-24.586660 -4.482955 -0.424232 
-20.309818 -19.489809 -10.721194 
-27.563883 -7.060518 -18.031908 
15.328653 -0.457876 -8.484682 
-6.798983 22.262030 -7.420799 
-17.981417 -12.552102 -11.106610 
18.127689 -11.488814 -14.370505 
-28.580345 -14.763006 -4.653578 
-6.848604 16.901102 -10.693482 
-21.808281 -8.451329 -0.096074 
13.612397 18.909891 -12.239794 
-1.704341 18.441818 -19.650984 
-9.072417 12.722348 -11.093301 
-18.509644 14.611085 -6.780243 
22.452724 -12.249497 -13.207851 
-20.591476 0.776945 -5.562050 
17.854555 -8.840971 -11.738161 
22.760235 -1.072194 -13.109297 
-27.696497 -15.329586 -4.711733 
12.159895 16.447004 -17.382868 
-24.478519 -12.308580 -9.336569 
1.664964 27.506674 -9.056488 
-20.599895 2.557585 -13.392132 
-22.263258 -17.627081 3.045952 
-19.747219 -2.246554 -8.871316 
-10.398587 9.847036 -14.162769 
19.115322 8.404715 -9.448314 
-16.668409 -9.599850 -12.057245 
-16.910143 -9.466873 -8.873163 
18.156649 -8.203866 -15.586235 
19.564892 15.770230 -4.095776 
-25.692888 -19.822165 -12.542566 
-18.347830 17.689495 -3.593135 
11.375614 26.122141 -2.299737 
26.630491 -0.659293 -2.552153 
22.038874 14.613304 0.899332 
-1.492137 13.242117 -14.326185 
-30.588797 -21.585861 -11.917608 
-11.616879 2.121028 -14.112817 
-23.164457 0.803131 -3.930117 
-14.807961 12.093897 -17.334515 
6.071868 32.003323 -11.048048 
17.538668 1.234842 -15.386602 
11.934974 25.392353 -0.057357 
5.100698 18.257589 2.506395 
-13.010267 22.869005 -2.021884 
-21.747379 -12.883041 -11.456470 
-6.962198 27.161772 -2.162669 
-29.458698 -17.662846 -0.269009 
31.900433 -19.127953 -0.647186 
-12.293100 0.359379 -10.921995 
13.376574 -2.949133 -12.956764 
17.110994 10.013821 -1.892954 
-19.601564 3.086093 -11.034593 
2.655822 28.825840 -0.155669 
21.728212 1.924707 -19.256084 
21.771683 -9.514693 -0.933116 
8.247748 24.759125 -6.647197 
28.857254 -6.288486 -4.398492 
27.185095 -20.113190 0.000371 
22.431515 -4.840367 -15.614599 
-21.064322 -4.010677 -15.674849 
16.255312 -4.273098 -1.528744 
19.855942 9.986382 -16.706541 
-22.348791 10.253244 -0.244657 
-19.409025 3.849315 -11.982804 
-31.292208 -14.366660 -17.064798 
-18.358994 2.952502 -5.932726 
23.090368 -12.579598 -11.783369 
26.879675 -5.921713 -8.695361 
14.402483 10.638271 -6.836943 
16.480131 17.317635 -12.903481 
21.852304 -1.347129 -7.715362 
13.914576 6.882563 -4.833682 
-12.784482 1.233752 -13.375350 
26.982336 -2.019490 -6.828298 
18.917995 -9.425241 -15.546838 
-6.154409 6.869175 -19.886911 
-14.181789 3.469725 -10.482341 
7.633058 9.470004 -16.516428 
21.022079 -2.752130 -15.145653 
15.250583 8.215437 -1.929906 
21.247665 16.298340 0.985587 
18.810106 -11.907890 -14.003016 
31.880383 -12.496204 -2.282606 
-27.580982 -16.206711 -4.750793 
15.048792 -1.544061 -1.988968 
21.270840 6.934997 -5.917109 
22.506327 -8.162910 -12.292859 
15.398254 -6.245995 -14.610822 
14.094349 9.323805 -15.935845 
-23.929098 -1.359790 -15.715722 
29.671135 -5.445025 -3.038123 
-26.910460 -12.968324 -5.898008 
-15.699871 13.465022 -10.178316 
-7.017754 27.318951 -6.379082 
-17.000809 -2.423490 -9.922817 
29.235250 -20.101852 -0.246797 
-22.071077 -17.756609 2.127541 
0.947628 30.293503 -8.634117 
-25.208378 3.373805 -2.560830 
16.551022 11.869532 -6.086299 
21.528694 15.124293 -4.172029 
-22.856232 8.537631 -3.651400 
-11.646689 0.117065 -15.961938 
17.479315 -5.298195 -5.033856 
-8.797589 25.987061 -5.220258 
27.515362 -10.468451 -5.574530 
-19.562876 8.243380 -3.962490 
-8.833623 26.022352 -4.258080 
-9.167970 15.287867 -5.837403 
19.743689 -4.645425 -7.558780 
-10.302710 6.342474 -13.243084 
-14.529480 11.972605 -6.482089 
22.173132 -19.127129 -4.432496 
9.436967 25.379021 -7.730021 
-23.088829 -0.040198 -8.772405 
15.940420 22.222857 2.267479 
-8.295896 23.375181 -3.899213 
13.349154 5.537627 -3.005195 
-30.924086 -9.073645 -2.350375 
12.955359 14.173878 -9.092502 
-21.535795 -9.311702 -11.570034 
-19.883284 -3.410460 -15.478011 
21.037655 16.905367 -3.021123 
-14.637174 13.602686 -11.495670 
-18.631550 5.695765 -15.389260 
-23.483610 -15.419143 0.142522 
-21.047459 -2.160506 -4.563661 
-12.225490 7.121925 -4.714723 
-16.554808 16.023275 -10.100910 
-19.753189 -7.562087 -0.698269 
-19.256788 -17.359730 -16.679165 
20.122730 6.711936 -9.267920 
12.934466 20.008558 -7.032146 
24.822424 -16.822950 -8.237907 
22.401163 8.628058 -2.755283 
-14.154643 20.045321 -8.402234 
5.199412 13.896714 -12.568798 
25.301435 -2.747771 -4.790415 
25.020296 -8.981013 -6.534285 
11.135220 25.441744 -5.970652 
12.279015 18.964384 -3.428387 
17.791378 13.003471 -16.558210 
19.742359 4.846449 -13.832396 
-20.574451 -17.172743 -8.378197 
-27.592813 -20.957129 -3.317385 
-27.697880 -9.475645 -1.113036 
-13.177674 -3.124965 -15.508868 
-8.531554 23.042316 -12.301154 
15.374264 -7.957343 -14.110365 
-14.789561 5.054371 -8.211961 
3.607599 17.128832 -13.884203 
-18.759748 -9.674136 1.758223 
-8.177632 16.431530 -17.327066 
-25.820793 -18.677782 -7.296266 
10.320604 21.046053 -5.293595 
-4.704779 22.925449 -7.883454 
11.528844 2.124067 -12.912483 
16.777313 1.503207 -7.391654 
-17.890478 -0.282080 -16.833183 
22.023869 -0.630081 -6.412887 
-5.426226 25.335543 -2.629673 
-5.518346 12.685324 -16.493250 
17.575396 19.058702 -2.830992 
15.064591 14.992830 -18.714104 
-6.565255 29.516741 -11.775926 
28.425837 -7.672405 -2.782736 
10.041965 17.763174 -4.611199 
-18.897556 16.196671 0.869243 
-32.985142 -13.385276 -4.814939 
28.572680 -2.784970 -1.220239 
11.662773 1.670686 -14.581451 
19.193251 -11.409869 3.501312 
-24.699303 -10.749062 -3.315600 
-2.291019 15.221869 -12.519686 
13.310491 8.985906 -14.750854 
13.431868 19.724997 -6.445465 
18.211309 5.498776 -17.053246 
-13.117186 3.748579 -0.046992 
15.780907 5.133229 -6.190678 
-6.095913 29.312807 -13.093177 
-31.011786 -6.026031 2.369576 
-26.771799 -19.127892 -7.238687 
22.460859 6.519209 -5.748525 
26.579206 -5.655450 -1.393840 
18.929886 -12.016150 -0.199625 
-19.485723 -18.362642 -15.081019 
