-6.295032 30.027277 8.755028 
-19.313120 14.686838 5.347575 
-6.659745 33.492863 10.263060 
16.374556 5.505192 -3.293416 
-30.619068 -9.874740 2.474253 
-28.100040 -4.819998 13.006797 
12.316778 20.591999 3.024446 
-23.535688 -14.964046 7.013841 
-11.161272 28.558338 17.719627 
1.802148 29.571571 3.121346 
-22.545105 -4.255260 5.269300 
-15.136512 11.423661 2.105219 
-28.306149 -10.210865 12.912215 
15.003868 28.117258 15.385152 
32.576939 -14.437190 2.010256 
-25.899719 -3.605842 1.256612 
17.300476 24.047548 13.118062 
-14.947966 15.901448 4.097824 
-16.419218 -2.953584 2.984914 
28.522533 -0.335747 5.309710 
19.672680 24.976622 9.836582 
9.653737 27.258419 -5.746365 
-8.651323 32.683937 5.152788 
24.437008 -13.135715 12.467425 
-23.412725 -15.849540 0.056221 
-23.171150 -15.833636 2.139972 
-21.175240 7.272820 10.499665 
-3.693779 32.886436 14.703291 
31.207075 -8.220002 9.710863 
16.473225 6.581190 0.003377 
-21.527872 17.765543 6.075292 
16.956020 20.479141 1.815558 
-15.663436 2.542072 3.642544 
18.980145 6.073412 8.658779 
-26.814909 -13.040973 13.825743 
-28.752701 -3.342567 -5.032784 
27.261126 -5.023634 3.208148 
32.884045 -11.101399 3.887033 
-19.607210 15.866850 2.048306 
-10.061236 20.841482 12.052427 
20.501207 -10.779110 2.362498 
-11.444323 30.017952 12.549004 
-2.431396 29.107059 7.523208 
19.296324 -4.584620 10.474320 
14.504331 16.302866 2.828515 
-16.587315 6.303024 -1.551442 
12.328525 20.725889 10.969297 
-5.111316 32.519154 5.672467 
19.900915 -2.505360 -1.875789 
-8.767506 22.637726 1.119118 
-14.409753 20.596731 1.500697 
5.399298 24.906193 -0.290867 
16.090412 24.293116 1.153685 
22.633610 18.363358 13.012383 
-15.939342 25.494434 16.008486 
-3.913387 35.144119 8.056184 
7.706159 37.041275 5.632930 
18.962234 6.496026 -3.684790 
3.007975 25.185360 13.246494 
-28.839235 -10.240430 15.909375 
-30.209051 -10.367340 1.817245 
-13.648867 26.048981 13.251342 
1.860548 30.292831 9.052016 
-14.355463 7.049844 17.614401 
4.872818 23.119251 18.256535 
-13.097394 22.783894 -1.265110 
-19.479307 -8.576560 0.641574 
-19.319496 3.306967 -2.624778 
-15.479574 23.073088 -3.537800 
26.520817 6.483463 -3.292697 
22.217348 19.697548 7.218113 
16.891840 13.172690 -0.178873 
2.725820 30.830999 5.478438 
-5.716406 28.629435 5.449981 
-0.426323 32.805359 16.313108 
16.025780 13.023151 0.324802 
23.492001 7.192975 10.122488 
16.344614 11.000764 3.631082 
-2.407150 30.357056 13.333822 
17.063017 21.708878 4.292191 
19.336550 -9.640210 10.462876 
25.190056 4.368630 -0.243795 
-17.985142 11.530662 -1.649751 
-17.250637 -3.844672 -4.426167 
-1.047893 23.792810 -1.095479 
28.435413 3.701037 -0.545898 
-24.854523 -16.282303 6.927694 
-1.115049 35.795025 4.770561 
16.649395 26.242399 17.340355 
-18.407990 -3.663983 8.126819 
-18.623371 -9.012730 -2.103374 
-27.389229 -16.148695 5.649197 
-15.468606 13.804311 -3.170806 
-17.209106 -9.703049 14.733163 
-25.862631 4.792001 4.403091 
21.115110 -12.818819 8.586979 
24.897430 -17.146200 3.940647 
-18.297260 15.405684 -2.516300 
3.630101 31.581652 12.746731 
19.619442 25.078650 10.856935 
18.697226 0.654519 4.693066 
-29.370642 -5.829957 15.599657 
-28.534111 -9.721601 0.462451 
-26.667793 -1.709810 -1.835328 
-8.730387 27.291315 0.837335 
22.640484 -7.099213 4.698056 
-21.424198 1.428996 -3.989448 
-26.348255 -0.614754 -2.192781 
12.173437 29.114986 14.828240 
13.359118 26.639101 12.962313 
-11.651462 25.338310 14.382777 
13.874042 21.946066 4.618684 
-20.380770 -4.287328 6.063267 
-15.264599 21.486641 13.717068 
10.695110 33.165764 6.469851 
5.660887 20.195583 -2.559821 
-8.858374 25.438421 0.852074 
-12.813317 17.640276 9.870758 
-15.020009 22.573261 -7.949850 
-17.162622 6.280597 3.652146 
20.413826 -10.925605 3.212519 
-28.777634 -4.318289 7.409459 
-7.847204 22.776779 1.122169 
-22.195299 9.256495 1.337818 
-18.877039 -6.370078 11.740589 
17.526918 2.079365 3.560408 
28.451729 -5.107378 5.812015 
7.106808 26.442163 6.513236 
-19.400097 -0.176671 12.487228 
2.870335 23.635878 1.933671 
-12.406882 15.578517 -2.381081 
-25.268967 -2.744138 11.354318 
-2.040258 25.721369 10.711760 
-11.192333 27.259123 11.240122 
32.025192 -6.083888 -4.817186 
25.617861 2.443491 13.269526 
-13.558239 6.588982 1.064641 
-24.568245 -4.733017 0.455595 
-27.933157 -5.381336 0.470457 
17.475437 2.809736 -5.798520 
22.397276 13.510389 -6.351206 
-1.001362 35.642467 7.324281 
-20.514812 14.110950 8.506136 
-22.798607 13.306803 5.709647 
19.296581 -10.051289 16.544029 
22.032539 14.712473 7.782463 
-19.872923 6.388352 7.887216 
-24.664631 -0.670747 -3.072806 
-21.351704 -9.550480 0.111716 
24.214273 -0.226637 5.857669 
-4.621592 34.017944 12.325465 
25.536535 -1.047172 -0.040457 
22.069294 12.779073 -1.576474 
-20.825300 -5.553126 4.321937 
-22.511768 10.346222 -4.943783 
-19.804863 -3.934316 9.445889 
21.080759 8.366340 -0.971992 
-14.007104 20.598452 7.483790 
-15.388749 23.115171 15.265634 
-21.903587 2.321321 13.050153 
-26.530500 1.142741 2.385599 
-16.243935 20.498814 0.578611 
-16.865738 -6.325029 13.065989 
28.691986 -8.995893 7.206762 
31.393324 -3.683848 -3.305090 
-16.794304 -0.046184 -2.108688 
-19.440847 -13.504533 4.658862 
29.079571 -14.114849 3.574657 
-16.112421 1.677934 4.124325 
-14.048538 14.790339 4.955931 
18.796124 24.051117 13.542460 
17.968971 25.689342 14.652163 
-19.378130 -3.267547 4.390191 
14.501841 17.791805 -2.159838 
11.648170 29.088644 13.407034 
-25.131771 -5.469580 2.593148 
-8.206112 26.602884 -8.159511 
24.036167 -4.906454 -1.022919 
-23.447397 8.431267 -6.181120 
-12.573024 9.745449 -6.013935 
-15.251417 9.171777 10.266013 
-29.848421 -9.691784 7.898728 
-24.087355 10.523184 16.564764 
22.098372 5.080946 5.588108 
9.689852 27.174145 8.585199 
21.073700 14.987648 -2.697215 
8.730303 30.504116 7.456895 
-28.920303 -6.623318 12.050132 
14.231697 16.370556 -4.058484 
-14.679854 14.976419 9.433516 
11.975378 26.341370 -5.567760 
20.776119 10.188507 12.188417 
16.076317 20.863981 0.440073 
28.212559 -5.049496 3.819111 
20.613533 -12.454299 14.279067 
25.392788 -3.897615 1.395891 
5.820169 28.917439 8.394316 
-12.450130 14.038796 0.610636 
30.297325 -4.655255 15.825080 
-17.613306 -0.880870 -4.022547 
6.526869 32.710377 15.452452 
-12.702095 15.592218 7.586775 
30.907749 -16.376753 -1.721273 
30.962259 -10.483887 9.991311 
19.062801 14.019354 11.301950 
-23.536112 3.839766 4.055695 
-22.277409 13.649055 5.113141 
-24.984558 9.162940 13.731047 
17.911222 18.438541 -2.506737 
15.150236 24.393871 -3.995651 
-11.051105 26.816549 14.052543 
-13.742705 8.832958 12.784759 
1.888619 25.678038 3.367551 
-28.709795 -11.689212 0.728505 
-16.883766 27.645756 8.751808 
21.895041 -6.490148 5.110524 
-13.888389 19.437420 2.596650 
15.169171 29.154013 5.938041 
25.279394 -1.631893 12.743756 
-11.146507 26.950296 6.832920 
-16.186592 15.463665 9.974027 
-4.605558 27.726671 -6.533052 
-9.932446 17.871164 14.500809 
-4.556468 26.963875 0.652288 
-26.505484 -13.022491 2.895323 
-19.451904 -10.455089 6.185572 
-13.058896 18.019979 3.507879 
-22.713816 13.015980 10.536279 
14.569723 14.671478 4.152506 
-16.523428 6.389288 8.259836 
-9.258032 26.713734 0.044758 
-20.546188 3.412396 12.799602 
-17.246395 -3.434397 -0.827245 
-12.153915 20.023205 -2.677752 
-12.865381 28.355894 14.764243 
7.984578 21.784245 1.812879 
-14.492891 18.213018 4.049828 
-28.150471 -10.662940 2.776271 
12.699511 19.704918 9.759611 
-9.521345 27.077164 -5.324008 
23.667818 13.794623 5.085216 
-28.805166 -3.503826 14.164325 
18.616140 -2.270710 3.624660 
-16.044716 0.170144 17.292696 
-12.926151 17.489712 -3.965308 
-19.812073 16.177984 0.192482 
22.264345 -3.630290 11.382961 
-17.867105 15.133315 4.750144 
-16.287607 8.392632 11.348149 
23.002029 12.602468 4.190901 
-22.636089 6.589262 -0.405344 
-16.172640 16.915052 4.571978 
-27.453722 -0.107268 -5.699846 
26.210909 -13.112910 11.980824 
-18.731361 -10.531215 -4.069308 
15.735052 13.594211 -2.645643 
-11.471240 25.976650 -0.371241 
-14.924363 5.975158 -1.509111 
19.912735 -11.017649 16.492737 
-22.426590 -13.410509 16.679436 
20.626324 5.918461 7.912529 
19.945141 5.300824 7.333818 
6.625598 25.054836 -2.845291 
-23.077829 -2.002714 -3.473019 
-16.519964 10.144630 9.320600 
-16.252214 3.810851 9.593190 
29.190554 1.952781 -4.857643 
15.195850 21.541323 13.187936 
24.300390 7.606352 4.865881 
13.878100 13.203005 -1.166330 
16.810747 10.245989 3.993970 
-19.792953 -12.589447 -6.235215 
17.993103 6.837110 7.006273 
33.065071 -11.192986 -4.643765 
-17.549061 -9.641336 16.827425 
-25.603909 6.237398 9.421745 
-26.880825 -10.322491 7.583202 
-6.688270 30.789965 7.908110 
19.206371 16.096943 10.296206 
23.088272 -1.437943 10.277094 
24.215120 9.143043 -0.226354 
11.295162 25.463440 2.813058 
15.246331 21.648462 6.615072 
16.803434 17.639235 -2.002383 
12.482913 27.187998 11.548568 
-15.402890 1.705875 3.483906 
0.632536 28.536652 7.871721 
-23.480619 -9.082444 -1.474686 
13.618048 22.111023 9.660060 
20.710897 12.692187 3.598958 
-8.805482 23.094343 -0.879999 
-7.172462 28.349247 10.556758 
-18.422657 5.480770 8.705496 
-5.706849 25.139492 4.858840 
21.510294 -12.944956 3.243581 
-21.220909 15.562583 6.701543 
-0.822378 29.630383 6.289277 
-27.250763 -9.866006 -0.304046 
5.219230 28.225323 8.802893 
8.665924 22.901052 -2.056332 
-8.112568 25.883089 7.454240 
20.855747 -11.332492 6.855525 
11.370331 26.812830 6.246256 
17.830521 0.823771 4.392214 
21.519773 -1.040148 4.636207 
2.153850 33.949173 12.509586 
-18.355928 18.563416 11.742258 
-11.422150 24.447460 -2.710420 
-26.548679 3.916015 11.080369 
17.264585 18.796036 12.632924 
-29.584068 -13.979683 4.617000 
-20.495829 -8.062679 13.115376 
16.286892 13.068968 8.270420 
19.408642 12.974470 8.448176 
16.209393 6.249026 -7.224096 
31.245449 -9.140239 9.988312 
21.155470 8.617373 -3.666803 
-10.518222 15.787953 -1.534743 
-23.945278 -9.820992 6.021512 
-9.385761 26.304722 -8.142579 
-15.329852 2.927531 12.298204 
20.873373 -9.961856 12.544978 
-26.270327 -5.894860 4.785950 
-7.969981 29.348898 7.824279 
-25.285265 -13.605224 15.448287 
-24.592442 5.887653 -3.626598 
-5.792297 34.563942 9.414377 
32.492798 -6.775506 -0.849590 
-2.361528 29.301430 6.655838 
32.913849 -8.237949 -2.089536 
-16.910650 -4.147222 17.089418 
19.185671 24.685873 4.796523 
27.455782 -1.779397 5.823864 
20.416256 17.395048 -3.878683 
-27.987528 -1.625356 11.569480 
5.224019 23.884281 -1.596349 
-28.453329 -14.588119 6.887314 
-19.454155 7.138987 -1.327292 
17.518358 13.592131 8.718301 
-24.526428 2.821969 -2.892657 
3.377835 20.962328 -3.238428 
16.556416 19.465448 11.243849 
13.484782 14.513392 -0.166150 
-21.317202 12.545563 -6.320407 
20.813744 11.888370 9.238336 
-19.357306 -12.748904 -3.365304 
-25.888931 3.714294 -2.123216 
24.946590 0.059762 -3.023873 
1.145087 27.352472 2.736446 
-16.611607 -4.247523 14.265464 
15.522801 21.889925 5.114085 
-5.493447 27.778004 -0.311997 
-22.413437 0.682628 5.070006 
-13.750371 20.063864 6.215575 
16.889530 21.463579 -7.963091 
18.957771 25.659231 4.740808 
-18.679565 17.414822 -3.007113 
20.666534 -6.055323 9.368351 
18.452160 0.214008 11.747925 
29.383774 -7.885129 7.275530 
3.941249 24.543064 14.281315 
25.789394 -11.885799 14.016261 
7.001122 24.006630 -2.774474 
25.053488 -2.866590 5.537343 
-18.363611 20.398552 10.769259 
15.399642 29.715773 7.932521 
-19.907902 -13.935044 -1.414796 
-15.661409 20.333748 1.356833 
31.955105 -14.602699 -6.246332 
-17.152382 -7.545531 16.926270 
8.675908 36.557072 6.795018 
3.303097 20.363405 -7.881214 
14.177110 13.381101 10.271854 
5.854806 25.809349 -1.449341 
29.366140 2.090046 -3.076567 
21.134024 3.327734 -2.974616 
-0.578944 20.473356 -6.399481 
4.361907 36.783688 8.115930 
-4.793569 23.028139 15.251734 
22.789200 6.589231 3.520003 
-10.356622 23.683413 10.809898 
-3.495661 27.741207 9.005116 
0.477569 21.841049 -0.569982 
1.718969 31.828079 11.843476 
-20.330921 10.974133 -3.859827 
24.485785 -14.401754 8.516942 
-20.471529 -15.546751 2.189256 
0.225223 29.838226 13.109982 
-18.457546 4.633263 1.193194 
-16.642721 10.522818 -3.467116 
-15.861977 -0.692639 2.598359 
26.660986 -11.704820 1.035762 
-20.665169 3.805506 -0.532446 
18.420767 7.667951 4.874688 
17.251699 6.899669 -2.818060 
27.301203 -1.131761 5.279701 
13.002757 16.436716 -0.595623 
29.301676 2.033900 -3.918089 
22.347403 15.013387 7.068594 
4.810230 32.817036 15.571120 
-0.197692 24.300079 15.479774 
23.901484 -3.807903 10.526718 
-8.315901 19.142397 1.045867 
-5.737661 23.676029 3.610527 
20.626398 -12.260523 9.166653 
-22.195097 7.400609 -0.140714 
-16.142286 -2.072451 14.709625 
-18.701454 5.163271 11.257874 
27.699141 -3.304480 1.005551 
-14.991092 25.196522 18.499378 
21.258339 -10.482284 0.402913 
10.131094 26.759596 -6.830901 
-14.098811 24.291050 -5.825913 
-5.794166 27.316183 12.078567 
14.058876 16.883179 10.061797 
-25.903679 -6.314797 0.839426 
16.478209 5.404971 -6.040997 
25.877831 10.312487 6.969522 
-24.037233 10.808080 8.984912 
-7.842720 17.727892 -1.729025 
17.084185 27.194981 4.082552 
-17.941807 20.600050 9.964028 
-13.114751 24.311571 -8.038122 
-9.689892 32.806828 4.772822 
-16.835440 -7.449527 13.329019 
-12.529896 25.510685 1.255194 
16.503689 9.167029 7.121567 
32.608120 -8.540590 -4.873190 
-19.542364 -13.435461 11.010397 
19.710245 -11.083329 15.500710 
0.063537 29.604815 4.101740 
-4.892980 30.159040 15.395755 
19.761778 14.028600 3.619125 
4.641137 29.183067 8.422763 
26.980272 0.292060 -2.357638 
18.732325 14.097721 -0.977978 
21.417992 -3.394813 11.737791 
-17.779453 -4.955971 0.947921 
-6.637188 32.559212 11.233597 
25.863239 10.713683 15.174282 
15.253217 10.165374 -2.721639 
15.033516 24.833721 -1.756361 
-9.924475 15.178700 -3.436253 
24.992493 5.979267 12.583951 
-18.351963 19.481794 4.266043 
-20.462351 18.597513 11.918338 
24.137316 -5.805689 5.371590 
-23.403748 -10.343408 -1.496180 
-10.274800 26.006138 13.623891 
20.908545 -4.232271 8.407362 
14.354106 17.859104 6.152760 
18.882359 -9.551963 11.291507 
13.181778 24.701468 -8.112268 
-5.890053 30.608431 7.124453 
-4.940524 28.376408 4.102520 
-19.070337 19.021910 13.214983 
-6.718782 24.007206 11.239976 
-23.523216 5.549159 12.540683 
0.466791 29.313644 -2.501428 
19.527712 15.739283 5.886166 
26.918356 8.286264 14.607328 
10.616319 18.559841 -1.107182 
-4.624020 28.791519 -2.374480 
23.280420 6.941018 1.669660 
-26.043329 6.512414 11.843904 
-15.745536 13.839105 -0.957516 
-26.510221 -2.131109 3.087839 
14.279490 23.578751 10.695823 
22.318214 -12.835706 12.282948 
5.669063 25.763317 -0.047909 
-25.933628 -2.538814 6.627132 
26.317970 -3.880813 -1.034926 
-16.057798 28.189596 10.268277 
25.246307 -17.574560 1.088764 
-12.069782 13.309624 13.561625 
19.353716 24.894524 5.613136 
16.293781 5.508685 14.426783 
-17.346895 25.737099 12.159564 
26.738317 -4.271242 4.248199 
20.987156 -8.212741 5.122086 
3.413914 34.750290 13.193883 
-12.309204 23.699499 -1.077402 
-8.342071 29.745024 14.054788 
21.144562 8.521357 5.270819 
10.986062 28.260414 12.372703 
-27.758568 -13.879020 0.716324 
-14.378837 20.165569 2.728883 
25.959354 -10.590471 11.890979 
6.608856 31.205767 7.972068 
19.149103 -1.883407 -0.534141 
-15.183017 22.274675 14.931862 
7.493754 29.107349 13.741911 
19.545706 17.832224 12.998309 
25.517630 -17.287601 -1.545115 
21.023561 20.901047 15.517863 
25.334568 4.259483 5.386456 
0.175859 33.789574 11.647656 
-0.098740 29.745218 6.811385 
21.316916 -0.801942 -1.701007 
4.272741 31.552822 7.581646 
-9.028152 27.392035 4.002225 
20.132568 -10.168561 3.490219 
-25.685888 -5.378190 3.323600 
7.188249 28.792166 9.202443 
22.054325 -4.420703 8.309103 
26.329489 -3.250785 9.492651 
-0.519758 25.323143 0.867863 
-26.429123 -7.646757 6.678288 
25.914972 4.061712 11.159010 
-22.295086 -5.762134 -0.310521 
-21.482441 -10.001383 4.565697 
-10.803732 23.821684 -2.785413 
24.855600 -10.421534 14.110643 
4.055492 37.325985 6.001612 
0.384602 20.535089 -7.883406 
-19.043701 -10.504466 -6.337864 
-14.213120 24.437178 -4.918766 
16.162163 6.364030 12.531681 
-5.651040 27.415014 -1.327786 
-4.007200 27.312462 2.990317 
18.738995 14.729843 -4.165412 
0.312538 29.361547 3.302413 
7.917253 22.741270 0.820183 
22.503698 18.079020 15.895154 
-12.037941 28.423336 16.726624 
6.087043 30.467148 12.989066 
33.189762 -12.591067 -2.632095 
29.314289 0.687401 1.130542 
-2.969445 26.438435 1.028707 
25.777647 1.442714 -2.743911 
-24.534681 -2.810315 12.006639 
28.920118 2.032634 16.125135 
-5.333812 26.034687 -2.371588 
19.208675 -3.562243 1.514607 
-26.141312 -8.068686 7.456472 
-3.975846 22.590080 18.294142 
10.746350 24.272665 11.457143 
-17.010422 19.516262 5.548154 
16.033781 13.747025 10.936221 
26.622272 9.138116 13.723656 
-20.249907 -4.429932 -0.899164 
11.129141 25.463079 -1.828204 
18.217249 24.944277 13.755613 
11.511497 17.892763 -0.442211 
14.199164 15.350039 10.976269 
23.735283 -16.619570 2.647546 
-13.260989 27.184641 17.523142 
-29.309752 -9.177830 16.086040 
17.395954 5.490947 3.792011 
-21.587757 18.273907 8.187192 
18.070887 0.861557 10.889951 
18.143353 20.599934 -2.834842 
-24.707447 9.922305 14.043892 
-0.123438 31.201302 13.892895 
14.479512 11.370570 15.836946 
19.622307 10.968652 -2.659247 
2.979565 24.759426 14.284430 
-23.264801 12.730256 15.346304 
21.876154 -0.954971 -3.327209 
-3.624507 34.219948 4.045709 
-18.586798 -9.864585 6.948150 
4.820179 25.104467 -1.650539 
1.591373 28.929205 6.211167 
22.341791 -1.010598 12.778700 
23.744001 -7.992052 13.883262 
-20.503769 20.007339 5.396875 
-25.403881 2.966742 2.446194 
-22.085392 -13.462649 10.273253 
18.763578 -1.334212 9.299053 
-22.371380 10.356707 -3.232024 
-16.852720 10.351758 -4.328813 
18.695013 3.946782 8.869596 
-15.509950 19.484243 11.450711 
27.600792 0.524375 5.023295 
19.546644 -0.794600 -3.146580 
30.919798 -14.849189 4.997667 
-0.670281 26.765676 5.342899 
-25.578115 6.570505 17.671402 
-25.248035 -2.775921 0.646386 
-9.364665 15.314816 -4.632761 
-5.062800 30.486490 7.349260 
28.488281 -2.084787 2.929980 
20.583712 18.259352 0.780010 
30.021454 -6.718191 12.786552 
20.780846 6.261955 4.867445 
-1.440073 26.287920 0.042078 
24.049084 -8.594552 4.925209 
3.162681 37.232132 6.591351 
-22.491537 3.018709 5.116439 
19.923935 13.910632 1.662634 
31.510948 -14.081807 3.292214 
-20.815825 2.319086 12.934858 
-30.268122 -13.882697 -6.150516 
-17.220617 14.194917 5.181612 
-19.795046 7.761259 11.682458 
19.167456 19.086845 -3.597602 
30.032730 -16.120043 -6.168736 
18.675201 17.762846 -4.763159 
21.140345 6.038359 7.263310 
18.165844 26.861549 12.048215 
-11.067842 26.256386 8.826286 
20.091175 16.270723 -1.776694 
-10.819333 32.358147 5.438204 
-4.847882 28.602091 1.538398 
-0.006289 23.359077 2.119064 
5.815038 31.306543 17.998697 
-20.421736 9.567300 3.999081 
19.360029 18.685696 12.891034 
6.637899 25.930540 0.605506 
-7.300373 26.715717 10.151457 
10.258830 26.460213 8.861622 
21.430367 -10.987997 -2.779908 
-15.975782 22.399769 -5.271389 
-20.570473 13.298139 8.887346 
-29.287315 -13.748221 6.253421 
-8.425400 25.237944 -1.390720 
-21.526100 11.805714 3.652815 
-14.562734 16.897203 -1.020901 
27.195217 -12.446528 12.707079 
24.930359 -0.814626 10.510000 
-0.567411 24.530306 -1.428035 
25.497046 -3.975014 -2.089181 
-26.907511 -5.913326 14.116460 
11.851412 26.159088 5.699094 
-23.391739 8.992625 8.624730 
-30.200232 -7.306074 -1.072846 
-30.365950 -14.501369 -0.342447 
17.864386 17.344139 -5.015681 
11.632590 26.479376 0.155423 
-22.011820 9.861355 10.003835 
13.741212 17.729534 0.251202 
16.017672 6.383273 -4.339407 
-8.784019 23.164619 6.079195 
18.282785 1.431733 6.951313 
24.980757 -13.379433 9.498299 
25.363466 2.619985 5.817583 
17.943548 -2.528226 13.626190 
-18.184996 2.622116 -1.019737 
-7.003452 32.113205 13.631809 
-17.087223 -4.249068 1.507745 
-16.503889 -3.250154 12.422390 
4.154849 37.041187 7.127502 
-17.719070 -1.676491 3.999726 
-26.920938 0.268665 9.219010 
11.218567 16.530405 -2.422258 
-20.793058 0.186609 10.262679 
19.212461 11.089993 4.641899 
-7.247100 28.123055 6.337720 
17.370192 26.635677 12.715279 
25.972486 -2.086832 5.675690 
-13.799233 19.040354 -0.723661 
5.777623 30.361572 4.089846 
25.987663 -8.981269 7.065559 
-28.192982 -2.393843 -1.864982 
21.665478 0.072542 3.775987 
-18.277607 -5.207480 0.322665 
-29.801586 -14.864658 4.815009 
-16.932949 23.141834 12.912503 
22.836332 -0.365157 -3.335918 
-12.398959 27.065504 5.721542 
-24.102148 -13.521459 16.686035 
-2.467196 21.262032 -1.155346 
-14.409836 23.182020 -7.980643 
2.970771 28.852924 13.945677 
27.394493 6.966975 12.527161 
28.959072 -1.436484 11.583862 
10.858193 29.668625 12.976968 
-19.902418 11.790457 0.387237 
23.271940 -6.425621 13.498700 
-26.556721 -9.260301 12.946408 
27.633127 -15.663653 7.175431 
12.871626 15.206759 17.815435 
12.120503 28.622692 6.144550 
-14.326045 21.843430 14.677160 
-22.031855 9.897118 -1.729153 
27.524866 3.333390 5.105911 
33.386398 -11.109664 1.655881 
-26.120434 -0.756414 10.271413 
-18.875547 19.285084 1.048046 
31.419500 -8.968925 8.149724 
-16.750813 25.710968 3.859559 
-8.607593 31.439188 12.624794 
-8.503658 30.368099 16.915064 
13.907593 26.203556 10.182982 
-27.977188 -11.345057 13.519292 
25.559925 -14.399452 -1.013165 
-29.309696 -7.896255 3.241069 
-17.086185 8.458773 11.614298 
-24.320381 5.960814 -2.718612 
-13.286568 24.604765 -6.950761 
-22.207941 -6.537808 1.072969 
-7.633063 27.134151 -7.025599 
1.772440 26.430372 3.907767 
-9.893446 32.780045 9.677531 
11.570684 18.977615 12.514320 
21.592913 -7.411146 1.338944 
17.523436 24.853859 14.266504 
-23.884554 7.279255 4.489353 
-7.984559 28.267385 14.510739 
-21.305738 -1.253878 4.238595 
-12.943936 19.632744 5.969294 
3.215398 34.183414 13.772527 
8.879805 26.285784 -0.627436 
-16.047949 -1.642084 1.181685 
-15.568940 27.623100 4.394761 
2.291402 28.817259 13.413290 
17.894150 -0.053112 3.323663 
16.879055 13.548337 3.647603 
8.225632 34.245319 5.755039 
32.228371 -12.735465 2.022924 
20.218596 8.731343 4.818983 
20.034655 6.941296 -3.653499 
30.338608 -8.365508 7.218842 
-17.754141 4.293292 11.559387 
-27.205429 -0.434745 1.234267 
20.865162 -11.121758 4.526412 
2.057674 24.214478 1.972033 
29.305655 -12.284986 13.821465 
-17.631243 24.055294 4.556763 
31.920534 -8.930437 3.951563 
10.976954 22.899858 4.408278 
22.984447 6.733287 0.805602 
-25.165609 -13.841139 -0.459494 
27.924868 3.437804 -7.112428 
-16.193583 -2.116658 2.453195 
-23.131947 6.860702 9.598344 
3.264833 30.106518 7.465853 
-4.637509 28.553928 -3.622828 
-13.936102 6.490247 -6.276762 
28.624269 -9.977674 14.645257 
23.710770 10.698229 -0.805720 
18.688622 12.722275 1.700526 
27.326885 4.934570 4.851924 
-25.397297 6.791509 5.316670 
8.962742 31.246622 11.636353 
-5.884480 28.338184 0.765283 
-16.094746 0.375429 -5.882517 
7.529349 24.194960 12.233135 
-11.031268 14.946016 -1.617883 
-17.102497 4.972893 -1.257298 
17.298256 9.508851 -2.011352 
-22.956799 12.598722 4.053782 
-12.984176 19.248365 0.749020 
19.925726 -0.015229 -3.240310 
21.600864 -13.818884 12.106180 
-1.656998 28.795214 8.518845 
-10.849603 28.909447 14.540286 
-9.774580 21.259029 -2.864394 
21.837843 18.221811 11.917274 
17.553223 -0.262372 15.019604 
-10.852499 24.795153 12.629149 
-16.746799 3.429095 10.356169 
6.210258 20.379051 -1.177765 
-21.685640 6.840404 -1.270795 
-18.969387 -8.452292 -0.693061 
10.637294 27.749304 14.324728 
10.564956 23.709919 10.078024 
-20.539951 14.050508 -6.314987 
-11.908691 12.202383 -3.328237 
-12.227003 21.456226 9.817739 
-15.704043 1.705261 17.364738 
-18.323891 -0.440905 -4.128902 
-11.586245 29.283491 13.054457 
-23.105980 -11.310308 6.019819 
-7.259346 24.566715 4.720420 
19.131880 2.887167 -0.800192 
-16.412676 2.698912 -1.092244 
16.638987 10.470023 6.179798 
-13.345076 8.122458 -5.464842 
-28.002190 0.457337 14.948750 
-16.441721 3.179444 7.028343 
-21.148521 6.303618 2.199186 
15.475478 8.826577 11.899568 
18.429859 1.829557 -0.264970 
-16.126760 24.248663 14.603503 
22.882336 4.865692 5.897595 
-12.385392 18.752348 3.667032 
21.611162 0.040874 4.802070 
26.254803 5.616530 0.417732 
19.683262 -7.275568 10.438934 
-4.198665 26.812405 10.551028 
18.015108 1.131536 -4.861667 
-23.880976 -7.065007 1.436400 
16.931082 17.686907 10.034090 
10.169162 31.483360 5.243471 
22.170471 -13.445202 15.085889 
9.106948 25.699001 -2.735017 
-19.688328 3.870171 -1.972834 
-9.490467 25.318060 9.643636 
21.445286 12.514085 3.044894 
20.149067 14.227250 2.761555 
-11.387738 25.454954 10.886679 
24.168314 7.143286 5.648880 
-21.073307 19.120970 4.772686 
-21.791656 11.201935 -2.955973 
19.465864 23.455805 16.292273 
-17.926201 -9.508525 11.747075 
-24.911148 -2.280067 9.298064 
-25.823215 -13.945123 13.598845 
-16.562422 19.623722 3.466017 
18.389734 12.356209 4.155220 
14.211727 30.761011 4.807134 
-28.652998 -13.805586 7.197978 
-18.088036 20.109112 -0.254149 
28.521942 -1.015576 -1.505670 
4.990268 26.507627 11.481919 
24.925175 -15.670804 -6.179784 
-14.764931 28.212038 4.977205 
12.317360 25.961916 -2.353595 
7.459702 31.310007 7.678840 
8.988569 17.270304 -7.743212 
22.429003 0.815269 4.094879 
13.625139 20.243307 9.312036 
-2.964678 32.113003 17.205517 
25.607546 1.629435 5.449196 
16.938828 9.142537 10.341597 
26.513834 -18.159969 1.531819 
-27.815107 -12.416713 9.718834 
-30.959204 -10.011150 -2.221527 
14.482702 10.369780 -4.702693 
25.162914 12.563031 7.732028 
23.940445 10.464170 1.945136 
-29.392479 -8.449895 1.194336 
19.177853 22.184799 10.631537 
8.039867 30.103243 8.722874 
9.180865 26.579933 9.057766 
-26.446112 1.820414 -6.919795 
-25.600895 -13.050536 -0.572312 
-12.813133 20.749393 -0.818391 
-25.086674 -18.311907 4.537183 
16.077253 8.232469 10.458387 
-12.793251 26.433851 5.104008 
-12.373977 16.658962 1.687242 
0.312851 22.863092 1.504074 
-28.986134 -8.528966 13.689514 
-12.731729 25.872805 -1.898941 
23.297293 16.870226 13.408799 
26.766993 -17.874338 -0.731326 
23.972528 -14.559864 -6.231638 
-27.407881 -14.974832 1.001333 
10.513161 26.153503 0.675384 
12.322730 16.187582 16.130816 
14.090561 20.864344 -1.381471 
-2.018784 29.259460 11.765740 
-26.597513 -7.417459 2.016899 
20.633642 14.039082 8.966720 
10.411811 29.427647 14.575004 
0.306632 29.124573 9.852607 
31.312611 -4.679106 -0.677153 
13.832304 26.273815 0.056388 
-27.978340 -0.654899 17.338009 
-17.120371 9.759412 -1.660757 
-21.413261 -12.973271 6.052091 
-12.017261 13.305564 16.265421 
19.185684 26.815233 8.661038 
6.830343 36.034756 4.320231 
-9.482470 26.505011 3.856162 
29.729403 0.850415 -4.512789 
21.249218 14.896001 9.949854 
-16.704319 3.823034 8.759938 
-16.688383 26.975849 4.931844 
19.333561 -8.758303 10.060500 
0.489926 26.335026 -0.240142 
-15.770165 1.406015 -5.837584 
29.496758 -0.149910 14.945684 
-20.753370 11.700423 4.174797 
19.126316 2.245136 -1.485811 
-20.859659 11.872909 -2.126865 
6.768791 31.180744 15.780937 
-18.255098 0.444885 4.098993 
-24.397291 -4.671367 -0.719585 
-17.888577 12.048944 3.804080 
1.778247 23.752787 18.309402 
27.444489 -11.777143 -1.086316 
-19.844254 -11.527677 -0.348755 
0.007461 30.233580 13.910465 
31.110649 -8.257326 7.570881 
17.366997 16.608591 -2.215021 
20.579603 -3.687625 6.690103 
1.672150 31.551693 10.998428 
30.073652 -6.527115 0.790375 
-10.405369 18.503784 -2.278925 
30.177906 -0.622737 -0.388737 
3.396828 27.911489 -0.796803 
22.786053 11.926774 11.568955 
17.886654 9.549504 -1.088845 
23.909721 1.653036 13.297227 
23.672850 -1.757653 -3.093742 
-6.765807 27.627134 -1.739112 
12.899236 25.423082 11.055960 
-1.955362 31.320841 18.703287 
-23.688375 -4.042948 12.942525 
-6.621556 31.075157 6.825974 
-23.355873 -12.124705 5.460730 
-16.055510 19.400370 -1.505358 
11.446799 25.932156 -1.214573 
28.576006 -1.894382 0.139351 
12.473471 19.351223 2.043600 
30.016367 -9.217917 0.119316 
18.052500 6.978336 10.822101 
-21.927456 6.423034 0.166353 
-20.127415 -5.481849 -1.516545 
22.464228 -2.739611 12.226662 
-9.587830 25.785975 4.316937 
-26.287106 -0.266855 3.797284 
-27.035362 0.045079 0.378930 
-13.475736 14.187596 -4.188705 
19.294847 16.464342 12.955222 
23.753029 -14.741940 -5.011924 
-20.018269 -11.203455 6.276831 
3.856899 29.283422 -0.463838 
-17.571102 19.817276 2.006177 
-24.096506 8.974566 9.803365 
11.935951 26.038448 8.252814 
-18.486063 22.195711 13.984994 
3.248328 29.992857 8.363018 
21.803822 -13.304686 4.888076 
-0.096659 27.943954 10.931713 
-17.093904 3.960959 0.947729 
-3.389999 28.973198 3.189538 
18.787853 -9.839912 12.261573 
21.062607 20.077705 11.013794 
18.303988 24.517639 17.485710 
29.184263 -3.356028 1.273389 
20.748985 -3.240650 5.364765 
-17.176386 0.778087 4.840816 
-5.719334 35.281017 5.816734 
13.969993 22.160702 -4.120537 
13.966900 29.149118 13.760674 
-20.758007 3.777485 4.899529 
4.581095 30.425924 3.715255 
-23.027100 9.800970 11.314092 
20.901564 -12.296792 11.305427 
21.568401 -5.120514 11.356766 
12.959620 29.304031 16.266306 
-16.379614 7.994861 -5.143610 
-28.226206 -0.566402 14.772617 
33.350227 -11.144746 -1.627784 
-19.950151 20.814154 8.926167 
-15.450356 28.104317 5.504827 
-17.209570 4.317918 9.493436 
14.492658 11.410704 14.289379 
25.535389 -4.248624 6.015899 
-23.607454 5.562819 9.949010 
-25.808676 6.335377 6.312823 
24.031057 8.104689 1.443011 
2.420062 29.647552 0.989928 
-0.991280 35.656357 3.925995 
-20.917898 4.715095 12.616166 
-22.832752 7.028694 8.831594 
18.814779 15.011236 5.734972 
28.226927 4.722339 11.611754 
-18.020760 6.720453 -1.450751 
-12.855583 17.246878 11.720043 
28.934290 -12.654215 14.817818 
-17.272291 10.537949 11.798038 
-19.847115 1.617185 12.765663 
12.863543 22.429125 7.473656 
-12.619461 14.646620 -2.279454 
-28.215071 -1.693879 17.289293 
10.834202 24.792856 2.086906 
30.022261 -3.507154 15.767207 
7.684367 32.937809 6.909207 
-22.624880 13.072811 17.965757 
18.783091 21.599409 9.878935 
-23.226871 -14.535850 8.864413 
-1.628669 28.150000 10.442270 
27.978455 -9.192637 1.735086 
19.723909 22.977140 5.645344 
22.372177 -12.007574 -0.351334 
19.586691 24.724337 11.727136 
13.409998 30.013159 12.286607 
-6.569839 28.514200 3.453097 
6.933681 33.253593 7.234042 
28.245237 3.711123 11.711709 
-3.345223 29.109909 5.442014 
21.240168 -7.273643 2.992911 
14.366167 21.733183 -3.421585 
11.276354 31.316944 4.769241 
25.373087 8.549363 7.248491 
-8.499303 21.706045 3.847219 
-7.090427 20.541742 0.918965 
-16.524130 21.746063 -5.273715 
-16.976578 12.230255 9.397067 
-11.032250 16.040993 12.457633 
5.439714 26.740120 0.055838 
7.366914 36.422215 8.020421 
22.025074 11.089638 -2.916412 
-27.220894 1.670906 5.746076 
-11.290142 17.546980 10.869209 
26.399088 -0.867978 5.444869 
-18.105152 17.342783 13.760701 
-13.390079 27.483114 16.525845 
22.591362 18.463951 6.749109 
24.931534 -12.726111 5.596824 
-7.461129 31.177094 10.694418 
21.451281 15.129244 -4.392005 
23.870468 8.914828 10.106421 
16.622225 21.589737 13.488819 
17.582933 27.417284 11.485406 
-23.823822 -18.353785 3.739133 
-29.926708 -8.593645 9.416934 
28.130625 -6.687785 6.519404 
28.299295 -6.425272 -0.136938 
-24.379793 -2.838820 7.418345 
-15.854724 9.358672 -1.711852 
-27.010698 4.857975 12.094494 
13.990163 31.247347 6.948062 
-16.772032 10.402377 3.777099 
-0.401481 31.415220 18.696754 
17.048782 2.461040 13.322401 
24.134962 -13.579851 11.231005 
-8.423268 15.744237 -7.632653 
-17.418009 6.748730 5.461541 
-4.852972 27.215117 12.011029 
-14.253741 13.932334 6.481628 
1.741300 29.457346 0.100765 
-21.418146 5.824283 9.041126 
-24.328936 -9.336711 14.502515 
0.399770 26.971281 5.384796 
15.349537 25.028151 5.596561 
21.112263 -4.365618 -1.223335 
16.545759 8.406691 9.643676 
25.094265 2.300870 -2.823587 
-7.723837 30.330902 17.717350 
10.493317 26.695120 6.784508 
22.545446 13.724612 8.092263 
-27.903847 -3.483213 11.016615 
-25.397161 3.659722 1.771783 
16.220673 23.066402 -5.080906 
21.323111 13.210429 -1.229888 
-7.437876 18.307613 -1.285401 
-21.061657 -8.675694 13.465745 
5.856438 26.786270 1.921785 
2.665203 24.909443 3.219574 
20.988188 -5.009943 3.983438 
-10.725887 32.175774 9.693886 
-17.267284 -9.098783 11.001368 
26.768232 5.871880 -2.233108 
26.224268 5.704873 1.781919 
11.763525 27.699787 12.099627 
-19.663960 -5.499946 7.195931 
-28.590212 -16.672319 -1.398357 
24.696970 -14.787235 -1.021130 
-22.400948 -2.519895 -3.544481 
-22.547016 5.105363 4.940147 
-29.386196 -16.051491 1.768764 
21.748060 -11.164582 -5.284946 
-18.588249 -9.158364 12.175398 
-21.600634 -14.326014 8.670322 
-15.606075 21.942776 -7.918054 
-19.767521 6.463696 5.264629 
-16.997740 8.207783 9.478645 
-14.418856 19.808840 0.165993 
-18.388922 -5.263906 3.559293 
26.463957 -2.505599 9.991817 
21.768692 12.311245 10.922104 
31.445936 -5.101380 -6.705865 
0.422315 33.249706 15.045504 
15.633970 8.258841 -2.976623 
24.223627 9.659889 1.575030 
24.205864 10.358474 -6.487453 
-28.612993 -15.214477 4.496171 
-20.355591 6.620699 6.176520 
25.476088 -8.877886 6.097750 
28.709209 1.601283 10.867243 
27.286489 -11.173385 7.708743 
-19.224518 -3.608941 9.984017 
3.588762 31.059340 7.056861 
8.526382 26.063190 -3.308280 
-22.433611 5.570130 0.718369 
-7.760679 26.123398 -0.407016 
-14.624715 8.351262 -1.996029 
19.546398 2.044309 4.637914 
-31.144321 -11.536217 -0.388678 
-20.294096 -6.268254 0.780997 
-19.618544 -2.039855 3.939245 
24.679573 2.035632 13.315623 
19.767347 -2.986534 7.154038 
-24.398777 7.791778 9.776484 
16.050667 25.425863 4.842789 
27.286043 -8.649860 -1.072464 
3.159855 27.250277 12.103377 
-15.352739 3.814822 -2.596682 
-13.919994 26.662445 17.521215 
-13.616192 24.413782 -1.950588 
-15.311910 18.251837 -4.478985 
28.430885 -12.686521 16.350849 
4.079046 29.678589 7.501222 
29.147446 2.126969 12.731416 
23.365820 -4.240542 7.207080 
-17.221043 20.358391 -1.036826 
18.191763 22.233379 13.852572 
-24.132969 4.788559 -0.351095 
16.399019 7.354294 10.288599 
0.250440 28.784224 10.809237 
-14.134759 20.868713 -1.330374 
10.531604 26.119066 -8.175422 
23.581356 3.660343 -0.554437 
4.500947 21.656044 -0.329307 
14.312473 25.634287 10.906531 
26.512642 -8.225883 -1.229928 
-0.332971 35.120049 3.935762 
25.886541 -8.973465 11.994318 
-24.150469 -4.658366 -1.611881 
-28.399126 -2.248079 -3.968739 
26.903469 -12.498938 -1.156890 
-24.377319 -1.341971 5.281597 
16.217470 18.506798 -1.468454 
-10.523246 25.889919 -8.120080 
-8.813539 26.032152 10.032883 
21.355219 -8.307494 0.800420 
25.347321 -14.134480 0.651118 
-16.927496 17.288668 5.263030 
3.798260 29.734131 15.013983 
-9.238432 32.233990 10.783054 
28.889252 2.032902 6.073614 
26.639421 -10.964226 14.357602 
-19.217369 11.754182 -0.311579 
-14.669978 21.861212 2.244948 
-8.243063 24.433317 -1.650974 
16.082808 7.258126 11.319998 
1.411443 33.851131 7.559893 
8.961957 31.783901 7.793329 
23.683468 -6.229900 10.659982 
19.083338 -2.029626 7.786730 
-17.534988 -2.476117 4.437924 
-3.853288 28.261259 7.370155 
-12.466874 15.145436 1.418429 
-28.500088 -8.822591 7.036202 
-12.979301 24.982845 2.481962 
32.312744 -8.707140 -6.532887 
18.452515 16.447701 12.965294 
-4.604172 31.610607 6.968592 
-29.164919 -13.030421 6.804541 
18.967043 -9.079704 16.593525 
13.818906 13.361980 11.638109 
-29.506649 -15.855414 0.245841 
-16.108318 19.695118 5.395751 
-21.213257 -12.607932 13.422770 
-19.318113 17.693201 2.296987 
19.570911 26.172371 9.780975 
16.358965 19.038958 12.292850 
14.978188 28.193649 9.647280 
-15.105894 3.499434 -4.920732 
-27.217161 1.068880 8.722411 
24.781147 -12.469585 0.136793 
30.155396 -11.328006 10.893710 
-22.451797 5.183324 12.641325 
28.928123 -15.867810 1.081563 
-6.150227 35.170475 5.001363 
-8.685462 25.070774 0.059231 
-0.202232 35.801479 6.721643 
23.085615 -16.002348 2.590738 
-4.180317 21.043550 -0.327643 
-14.164731 19.768759 1.793249 
6.612655 37.215382 5.619055 
-15.500503 2.381062 -6.969969 
-8.354604 28.223763 8.541813 
-25.946350 6.870031 14.665850 
-6.497228 24.159136 -2.302702 
16.541935 17.173313 12.707792 
30.636354 -1.450480 -3.797530 
-26.895021 -7.098257 6.181410 
18.387747 20.575485 -5.034136 
-24.565416 -9.845154 12.226583 
-1.551658 32.585323 14.926613 
-11.184532 20.366728 -0.774245 
18.471836 -4.655568 12.980649 
19.892239 6.833553 -0.407097 
17.123075 3.737539 -4.668543 
-7.110113 31.802118 7.129712 
18.008499 -1.307935 16.977448 
-6.678282 17.721195 -4.976343 
-18.949583 18.357405 3.794149 
18.257263 -3.537318 15.530277 
22.277134 1.322156 10.861253 
18.833063 18.905573 5.093484 
-15.400230 24.101048 15.513125 
-23.403477 -16.054304 6.775026 
-20.686279 7.937441 11.688741 
4.318665 28.477926 8.760980 
-30.592390 -11.525922 -6.264085 
23.187786 -13.506714 11.049036 
27.355167 -13.484355 8.975194 
-20.067339 -13.825341 -0.231042 
-5.005373 29.937313 12.086164 
-19.109713 18.253321 -3.340432 
12.997031 31.227663 10.168899 
-15.043377 4.279532 13.007504 
14.637141 25.785376 2.939513 
-16.779226 15.271412 4.633439 
-24.463617 9.759391 16.418556 
-20.797377 -12.854218 16.694773 
-27.888596 -11.665205 14.804955 
-27.268322 2.616079 9.166598 
-4.152033 28.165539 6.213078 
22.511189 19.156660 9.824876 
-23.205257 5.296837 0.061600 
-22.595985 -7.544856 0.966493 
-21.786343 10.152432 1.677335 
-21.807508 15.990173 13.315924 
27.858126 5.637092 6.665184 
-2.730601 35.296261 8.278936 
-12.563893 22.192406 7.166252 
19.657143 -1.737382 4.664006 
-20.719130 13.308215 -4.245553 
-12.561526 16.669436 -3.359002 
-11.620338 19.381207 9.471450 
26.001678 -12.694814 -1.351211 
-18.541912 -3.815090 -3.130779 
5.693426 26.141870 2.474129 
15.193014 9.290896 15.995074 
26.811485 -2.970455 5.353482 
-19.608320 16.729425 2.158249 
-5.226709 31.698122 6.362232 
-25.879591 -17.024294 4.410909 
21.067335 -8.768777 12.704167 
24.709423 -8.150628 5.637030 
27.879229 -3.114052 2.760395 
18.590221 26.038046 4.085813 
28.763184 1.931228 17.057690 
-25.493736 -13.851767 7.750616 
-18.395302 10.164371 -1.596713 
-22.071068 -13.795774 15.448480 
15.324240 25.281681 3.562869 
-20.770464 -6.941493 4.641951 
-19.250574 15.886516 -1.330901 
7.233143 22.277605 16.809311 
-13.250836 22.158920 14.638569 
-18.904055 -9.745020 -1.045640 
13.926304 16.963833 -1.346648 
-12.394636 16.449856 9.313424 
20.257282 0.659825 10.582255 
-15.548262 19.099884 -4.088024 
-17.878702 12.272029 0.720489 
-22.222692 6.637516 4.753279 
18.381842 2.322403 -1.072743 
20.279751 6.123284 0.192722 
24.951805 -14.758693 13.291957 
-3.932008 24.690920 1.502242 
10.135956 19.005894 -0.070557 
-15.028089 5.091981 11.909926 
9.468349 20.967623 -1.540726 
10.825183 19.066177 15.091166 
-26.264914 1.492808 -1.760187 
-17.745634 0.762362 12.094522 
27.657881 4.498146 -5.762925 
6.219447 22.590727 2.147411 
-19.961599 -12.404514 12.473969 
25.463037 10.457260 17.494953 
16.492825 15.389932 4.466073 
-26.627718 -12.695057 9.186614 
-30.120726 -14.815684 3.349460 
-20.023716 7.496781 4.352920 
-3.176145 24.423204 13.545161 
-30.551441 -8.382205 0.574779 
13.181823 17.293413 10.483488 
-6.257211 17.750519 -7.734464 
-20.659317 -2.075469 -3.928157 
26.074245 8.309468 10.279691 
-4.398383 19.247059 -6.154338 
12.936267 26.190985 3.075843 
-7.294881 33.490925 5.612629 
-12.855656 22.940025 11.179798 
-18.520885 -8.539907 4.851116 
-2.570947 23.362783 1.249842 
-12.305366 13.214686 -1.388224 
17.223701 22.513573 3.138610 
0.915975 27.556768 -8.224917 
-22.768133 -10.992573 4.609576 
4.134494 36.957779 3.998784 
-13.075875 17.954485 -1.713438 
-20.305809 9.992486 4.833213 
14.819634 20.879406 9.309562 
-21.218527 6.572057 9.758070 
-21.435898 18.804001 7.549160 
-25.566257 -13.327896 9.301215 
7.239051 27.017372 -8.212052 
17.915571 0.491553 9.571813 
2.270172 30.827110 6.977493 
23.948095 -13.758585 16.330894 
-27.759150 1.496938 15.127593 
13.620516 14.177424 10.690056 
2.185391 27.115067 10.871955 
11.457662 18.208906 14.637345 
-18.391073 14.598518 5.531233 
26.482780 -2.802244 8.277341 
-21.301950 -7.365707 13.340411 
22.658319 -3.863852 8.799534 
-12.955593 17.002964 3.197326 
0.551659 35.408588 7.724243 
-15.067746 19.572157 5.208080 
-0.639564 26.477343 0.344927 
-18.076244 19.408108 13.170507 
30.413305 -12.538874 8.073994 
14.681719 21.343561 3.757838 
31.699862 -10.770222 6.122599 
-5.167628 24.980175 -2.219344 
31.138016 -10.262666 6.615860 
5.564301 34.483284 6.318531 
17.039274 12.513133 1.288330 
-18.057047 22.757547 15.402509 
30.158884 -10.592453 13.653658 
21.938816 8.267761 5.172550 
-15.887104 12.176908 0.502885 
-2.433611 27.659883 -2.284427 
-22.241646 3.702274 10.252487 
0.563392 25.119381 13.702735 
19.772203 15.228199 -1.302154 
-21.265627 -12.335324 10.339167 
28.198671 -2.564701 7.390485 
-25.315893 -8.140878 -0.963559 
-24.833227 -11.552840 7.698364 
25.461292 -11.476675 5.981661 
-3.274498 19.827738 -6.231621 
-15.423373 1.060499 13.950301 
-16.371235 19.223310 13.309521 
7.501851 35.534710 4.755755 
5.780565 27.239511 -8.219758 
-20.071621 -14.317314 6.115091 
25.667179 6.002436 1.027800 
-15.778754 13.840450 5.091890 
-26.773956 -11.908072 8.791102 
-16.780861 4.656659 3.050277 
29.426001 -0.489164 1.766653 
26.920860 -2.617970 7.163251 
2.996510 37.138878 4.253986 
11.027749 27.258194 -2.294544 
-3.533905 26.429558 5.136522 
19.751053 14.442215 8.901104 
28.939732 -1.699611 1.382609 
8.286748 28.112839 7.232023 
23.925636 -12.318578 5.517177 
24.421034 -15.375191 -0.094516 
-1.357302 31.088932 12.747038 
-5.777357 28.583254 4.063187 
-14.119165 24.958696 15.432788 
30.845253 -6.871290 9.805097 
19.816259 1.264388 4.330734 
9.880957 34.828529 7.741757 
29.094585 -12.776767 -0.229971 
-7.356534 22.315495 1.798514 
-19.165516 -0.755624 3.011984 
-25.395102 -7.227674 14.368761 
2.046656 25.169947 1.800540 
-15.628547 7.706302 2.980352 
-17.150198 7.462137 11.276692 
26.939680 -4.738914 6.164370 
8.339392 23.408087 12.215754 
25.802555 10.090573 9.676891 
-14.714690 9.505006 -1.546289 
21.865789 2.915288 -3.093397 
23.140488 -12.970205 12.583405 
-31.016169 -9.955989 -1.113625 
21.748516 -7.013398 4.284530 
17.899033 1.547772 10.176413 
27.261059 5.381564 11.579130 
-19.222534 0.868328 3.306501 
-0.386168 28.099575 7.854172 
-20.501549 -13.111953 15.535978 
18.616159 -9.073126 14.354390 
-8.398623 24.168629 -0.266959 
-19.252447 15.239654 3.705002 
-21.266382 5.669020 1.253001 
5.491940 23.607176 1.713272 
16.423008 24.900824 13.106640 
-6.871808 31.899319 14.616562 
11.750174 25.444349 -3.069537 
-26.745325 3.450921 17.528397 
-15.358671 3.751328 11.941536 
-29.075268 -9.904662 16.897079 
23.193213 -0.116065 -1.195591 
9.845267 32.158844 9.365664 
23.114223 15.837140 17.772770 
13.164864 20.734325 8.813131 
-21.194445 11.643157 10.090527 
7.232217 32.196655 14.772247 
32.531986 -6.933505 -1.980223 
-24.263819 -4.961277 13.493631 
-14.077246 10.020653 10.069734 
20.520952 17.043638 2.380939 
-21.899330 -11.656630 -1.471087 
-14.508441 23.171087 0.050904 
0.463303 24.047096 2.239281 
6.212527 36.412209 8.792284 
20.082247 -9.566675 12.085130 
15.903692 15.816521 12.427073 
21.957047 2.365888 4.513365 
28.823448 3.094043 -3.832567 
-4.637410 29.653780 8.075677 
-0.085851 25.703003 -1.688807 
12.340481 13.661683 -5.258988 
21.158676 -5.358336 10.549622 
19.503067 22.311066 7.937726 
27.297441 -16.473360 1.467370 
-2.361799 28.839077 -3.729001 
-25.001650 -10.822514 6.922451 
22.411224 -10.605828 -0.905164 
25.668770 -17.065163 -2.834679 
-24.915422 8.098665 17.740807 
18.156267 14.690109 -1.285618 
-16.657156 -1.644122 -5.245880 
32.909939 -7.986708 0.026571 
1.687306 28.189512 -0.190634 
-1.285778 22.628107 1.182629 
14.601789 11.359305 17.616392 
25.011232 -0.564669 5.790385 
-27.979969 -3.399849 9.259829 
-17.883310 11.497769 9.055023 
12.213862 24.674196 6.222271 
-24.570890 8.857407 17.775156 
-14.248966 23.710810 -1.395743 
8.306239 27.203503 -7.071693 
27.533440 6.840011 13.516496 
18.776995 25.350838 12.896386 
-18.529303 -8.006974 -2.171972 
-22.120058 -16.365450 -4.516703 
-20.063580 -7.547301 4.721231 
19.289030 7.322514 9.360824 
20.758921 0.747612 -1.643511 
-16.628384 -2.174976 -0.655718 
-27.144997 -1.510621 1.472756 
11.643036 24.150728 -4.098762 
22.877171 12.335154 -1.980490 
-5.279181 22.271669 -1.116841 
18.309042 12.870155 8.353906 
-22.594713 2.251723 10.479509 
30.684086 -2.787477 -6.816437 
26.978592 5.206860 1.430636 
23.483593 2.456041 -3.093618 
-15.475253 20.429525 -0.019160 
19.536503 23.551609 11.651910 
17.807640 25.752079 3.983012 
-20.365934 9.689378 -1.863708 
16.794718 13.592893 5.753163 
27.099867 -14.803452 10.279400 
22.343424 8.383371 9.872018 
26.142019 4.768989 3.742021 
26.079681 9.776785 16.147202 
22.508421 -12.199581 -6.342985 
5.528819 36.642372 8.232676 
-26.278261 6.096338 14.874233 
1.378947 24.739323 14.804663 
-25.487259 -17.086599 5.412914 
-21.878979 -15.755757 -0.114096 
1.687887 28.738077 0.823196 
-13.773043 12.490612 1.589494 
-17.347837 9.399397 11.841990 
-12.259398 29.484858 11.093396 
-23.240688 4.173949 4.825731 
-14.099669 16.785339 13.013309 
-14.444163 13.672687 10.715005 
-12.156817 27.298595 6.967405 
2.883276 23.637882 18.295925 
22.524284 0.868124 -3.354389 
25.022047 -11.004438 4.590355 
-24.726589 9.949081 13.053858 
-27.636383 -3.142457 10.102310 
-26.350077 -1.099007 5.764517 
17.737871 10.422491 -1.519804 
32.076576 -5.789433 -1.897235 
1.222108 23.775051 1.923233 
-12.825415 26.432156 13.116102 
20.510712 11.988235 11.151237 
10.673050 26.624332 1.705785 
-17.178072 -3.338036 10.333598 
-17.610977 10.947852 -3.571258 
-24.365904 6.603245 -5.875819 
-4.062623 27.300137 9.447912 
6.639203 36.990704 6.680321 
6.472610 25.880287 5.090271 
23.220718 7.224896 -0.534488 
-21.078987 -13.766107 6.449479 
-13.712678 9.720906 11.487239 
17.461002 20.832537 -7.933702 
-23.675087 -10.465831 0.794026 
-13.638643 21.729612 -1.092804 
-18.097610 23.830692 9.356125 
-19.132668 8.586555 -5.130124 
11.017329 18.471130 16.321196 
6.495680 28.597633 9.928308 
19.293310 24.221291 14.678931 
23.311766 11.953426 -6.416112 
19.674353 6.610163 11.002658 
10.206285 31.130074 14.329939 
-25.268957 -15.704409 7.594780 
20.919819 21.113180 13.441981 
-21.114832 19.354023 5.621176 
-15.445692 15.377543 13.202665 
-11.891232 24.856441 6.019496 
-13.140274 19.860960 9.351650 
20.430187 -6.399659 -3.241331 
19.786306 -3.999808 -5.742977 
-27.266096 -17.135124 5.828033 
17.190897 12.620960 3.226971 
18.040855 2.963934 2.407446 
-8.174713 20.996120 -1.836994 
13.490850 19.028547 9.622447 
-18.342264 7.214447 4.569220 
15.491553 21.338842 4.113502 
-24.787663 -4.090670 -2.191474 
10.950017 18.493015 -0.207520 
-17.149900 18.873402 -4.217245 
20.283104 15.159882 -0.178915 
-7.205279 32.352345 11.857567 
15.239569 9.962658 2.662426 
-14.467319 21.160282 4.214330 
24.507315 12.329455 3.692472 
18.391909 16.623703 -4.973503 
27.215429 -7.634891 1.586717 
-18.591677 -12.198899 13.060140 
14.836699 14.689872 6.143118 
-18.123762 -9.159959 4.280676 
-13.025409 27.829197 11.498297 
24.562881 -15.221298 11.050483 
8.256345 18.376501 -4.591594 
-19.190025 7.506431 4.814150 
18.815742 -1.208118 7.767736 
-23.670687 -11.419416 -1.367596 
-3.283119 24.408300 -0.719930 
27.266005 4.667884 2.471131 
-7.308560 32.348366 10.491731 
-20.513519 0.528413 -1.766810 
-24.689175 9.945639 12.191242 
16.048006 6.338408 -5.199194 
11.849253 17.141026 16.026758 
-9.845621 17.877901 -0.955032 
-9.952675 29.901434 14.267043 
4.757934 32.880497 7.596872 
18.099684 10.830857 8.868159 
15.843878 7.165593 2.966577 
-26.751858 -16.507532 6.088961 
5.206465 28.987358 -3.121985 
-10.943936 25.307587 -0.424032 
-22.173218 -13.280276 12.764559 
15.024044 28.256605 13.712043 
-3.429234 31.108627 18.703531 
19.978178 2.100003 10.310136 
17.081200 21.916847 10.806494 
-12.263949 14.842772 0.160696 
-19.057764 -10.581456 12.533755 
-4.614340 27.581083 1.644560 
-5.177796 33.370682 4.623905 
-29.681303 -10.887934 8.758928 
-24.249983 -12.164512 1.172810 
31.327900 -10.141595 8.525966 
-9.020073 16.887753 -1.691155 
-12.603724 17.108135 -1.115748 
8.767746 22.285728 13.545971 
-24.605228 -11.406379 12.089501 
-1.280523 27.986893 7.906097 
28.934637 2.088471 10.192565 
-18.323093 -6.339404 9.796382 
-22.790962 7.368402 -1.058101 
-21.277884 -14.907912 -6.119700 
4.704193 25.814089 3.473581 
17.266405 23.166773 5.121703 
-27.569292 2.574052 14.356648 
