29.249346 -1.178281 13.220176 
-33.407734 -4.407432 8.756868 
-12.458332 24.837996 9.751507 
29.240419 -5.817638 5.736230 
-23.097757 21.022150 12.486466 
26.231134 3.765478 5.891011 
29.169413 7.454062 11.504111 
-27.292530 9.400195 9.009388 
18.561224 17.485901 12.640422 
-27.997211 -8.046371 14.038692 
-20.492111 -7.667140 -1.160971 
9.510558 35.816059 4.441707 
21.534769 22.508583 4.823328 
26.306574 19.386686 15.942529 
-16.166679 28.617977 3.572657 
-19.359478 19.124210 -1.926662 
15.251908 21.623844 4.084358 
-20.289488 -9.658037 5.026572 
9.436481 22.710339 -1.414805 
-15.906084 24.590784 13.093684 
-17.802275 20.658510 -7.932008 
-17.580469 -0.123672 3.347683 
-23.888294 11.951000 -3.335958 
-15.115484 25.814619 2.988462 
13.237101 27.410666 6.008915 
16.464327 26.790588 9.788273 
37.355564 -6.428357 18.202097 
3.795702 34.160099 2.469601 
-20.428307 18.058949 -4.119596 
0.608013 29.120865 2.960360 
15.630610 21.051964 0.366869 
-6.602927 33.326534 17.323589 
-19.165693 6.495257 0.117421 
14.397964 23.235607 9.772002 
19.520290 12.411006 7.677466 
-23.370377 3.030480 0.729091 
-21.786535 11.380857 5.925476 
-16.600170 10.089296 1.438711 
-1.610465 37.313450 8.852547 
-25.489847 -1.141360 12.641768 
-14.058575 14.943715 11.682963 
20.270954 15.465129 12.026859 
-27.479952 3.031477 14.049502 
-30.162649 -9.520609 10.672896 
35.493340 -1.212431 10.759182 
-26.281778 0.869261 -1.709730 
22.189480 8.475574 4.782356 
-29.390808 -7.013376 11.486096 
13.870659 23.312874 6.654090 
-20.715618 -9.513881 -2.294670 
30.698828 -8.959776 1.319159 
-25.421261 -8.305923 -2.069552 
1.689445 28.116020 12.593893 
-21.907438 1.877167 5.901313 
22.908373 10.998993 -0.070549 
-19.651035 7.638386 8.955276 
-0.570683 35.048431 15.819695 
-32.431488 -6.300101 7.810388 
-21.015305 13.870895 4.373096 
-10.793210 26.903790 11.262674 
20.754309 -14.639718 1.656960 
22.033890 27.152142 11.393125 
-19.120590 19.928482 3.890216 
19.581465 26.395929 2.605686 
3.759829 32.801575 4.850926 
10.313626 33.508659 2.502906 
-14.209432 24.483494 6.403607 
24.298166 1.209594 5.253160 
18.685053 24.471169 5.134264 
-25.192566 16.539351 16.432978 
24.798000 -7.266364 18.326693 
-19.482113 16.230352 -2.893044 
-25.155546 9.513845 11.050384 
-6.442534 32.051403 5.310348 
-25.321638 10.188641 7.281115 
17.488459 0.554102 -6.548828 
-26.980646 10.115456 9.442286 
-12.100935 30.390205 7.726665 
20.515186 29.563082 10.775109 
20.502090 16.259348 -2.715621 
-0.994773 31.622604 2.417313 
-22.447130 -3.157326 2.618154 
26.174511 8.848232 -3.136122 
-11.968781 32.387188 13.545611 
34.392090 -8.408048 7.842694 
-26.531172 4.329221 -1.141299 
-18.665535 -6.490431 3.894529 
23.424879 5.973695 -2.400594 
-24.079866 -0.321362 1.032620 
-25.434252 12.340045 5.533643 
-18.115253 5.578914 3.794648 
-20.092081 8.467672 11.877570 
26.796297 5.154382 10.044711 
-12.047633 30.202505 8.635830 
-14.851031 24.163517 5.788773 
27.497997 2.310304 5.438312 
-31.848642 -10.080226 13.413037 
-33.687874 -1.329812 13.594745 
25.998631 -14.766768 5.979539 
35.392544 -6.398530 8.678687 
23.481972 -7.390443 7.112538 
-2.887551 27.374846 13.020440 
-27.250036 -1.584415 4.208371 
-20.335323 22.829048 7.895673 
22.432859 -6.356106 -1.237689 
-5.514425 31.557232 13.214767 
24.277569 11.533717 4.908758 
-30.064495 3.640458 7.782771 
2.507439 29.883549 4.698492 
-6.227158 19.826313 -5.918798 
-6.439164 24.345339 2.216376 
21.057047 6.032137 10.111562 
-5.539212 20.712214 -4.252820 
13.498674 19.928082 2.070453 
-4.597298 39.399384 4.636511 
-1.156706 33.621029 11.599098 
15.508831 25.053644 3.931563 
18.532236 21.194883 8.416996 
26.385498 -14.348538 6.823400 
23.262054 -1.735045 -1.776011 
22.083742 25.787498 9.855156 
-6.913874 31.622972 11.882345 
7.256681 35.949112 12.566924 
25.311935 20.172237 7.867315 
24.842497 -16.503393 4.252538 
6.270275 27.583660 11.659143 
1.132000 30.367950 8.058548 
19.116098 8.115708 13.486419 
-26.260765 5.605941 -7.211918 
34.735054 -10.509532 18.348396 
24.813929 12.579382 -4.101889 
-19.798853 -1.726930 -1.572178 
-17.763905 3.770929 1.839983 
-3.880750 37.946381 8.927560 
-16.158733 3.827897 0.127459 
-19.344223 15.450297 1.953769 
13.001956 23.195894 5.548110 
22.025400 -15.693129 1.608284 
-23.307922 12.442863 1.936677 
4.129095 35.959431 10.599156 
-0.411033 38.181686 3.795954 
26.363373 6.448051 4.060576 
-25.499790 -12.444490 8.115494 
-15.565090 15.628554 11.784712 
22.024763 -15.616920 0.633844 
20.783878 20.147886 -3.930371 
30.509823 -12.116745 1.691307 
20.488939 2.145424 12.677791 
36.197147 -2.480752 13.858418 
19.740534 5.353877 -1.962229 
-13.451092 9.822266 -3.902939 
27.087830 -9.694796 11.882367 
21.274471 13.453867 6.499274 
29.105183 -12.717273 14.176934 
21.140820 1.064538 10.700879 
-4.135032 30.485670 -1.586936 
23.177971 3.933375 12.850121 
15.527413 32.198757 9.680845 
26.854172 -14.291653 4.633262 
15.436932 20.251097 -1.133462 
26.675247 6.845769 0.707416 
15.417028 26.402472 5.873579 
-20.373037 -2.205705 2.373062 
17.255272 -0.528361 -0.719654 
26.440567 -8.620901 -1.089639 
19.420719 0.467990 6.032717 
27.257868 -2.596304 9.633467 
-18.045092 28.819452 13.585784 
-1.451475 29.707975 10.367661 
-12.359073 21.410547 -3.104854 
-16.282169 7.142254 2.598161 
21.574202 -13.337537 6.980108 
27.538567 -7.456177 2.060101 
-18.002573 5.111885 4.839045 
18.955074 5.683059 5.711231 
14.448421 26.472868 2.825765 
6.924816 35.012550 15.282141 
17.835501 18.454000 5.868006 
-28.469284 2.048749 -3.090098 
22.356783 4.417515 4.098974 
22.466469 1.293053 -2.586371 
-18.356058 4.458330 6.081555 
-16.294558 23.066748 -5.428117 
-7.446352 31.854809 10.561178 
23.408066 1.415653 4.638540 
-20.063688 14.649659 10.807425 
-21.678341 13.998205 5.010980 
22.295410 13.360413 -1.096027 
-25.845688 -5.808718 -1.003361 
-23.836895 8.256616 12.828308 
-8.406613 25.515633 10.499997 
19.476210 -10.771021 1.819628 
-14.622124 11.829771 1.908044 
-25.002630 8.650805 12.722840 
4.766637 36.080158 11.308424 
34.492176 -8.687183 10.661776 
13.462157 26.909966 1.228620 
32.266930 -6.674043 7.225100 
23.466722 10.322931 5.122634 
-3.045903 36.422176 5.210929 
-6.879076 29.698204 -0.188249 
-29.827660 1.861773 8.877254 
26.255526 -4.297338 8.412387 
9.842100 34.928368 10.978564 
-20.650057 15.081487 10.321971 
19.458332 21.416523 5.021488 
-25.022282 -11.800579 8.576753 
-22.847309 -7.372538 17.433035 
-12.867350 17.549150 0.292545 
-14.478868 13.329787 1.863410 
-17.949762 18.361294 6.382209 
-16.134260 10.479559 16.923048 
26.132982 -6.854875 -0.983467 
-0.823604 37.495239 7.232677 
2.811321 29.599264 3.777077 
-28.888443 8.304930 12.452683 
22.553225 20.583513 3.094432 
-7.676092 32.544247 3.866729 
33.954632 -0.191708 9.836737 
26.302738 6.443327 12.376579 
-24.403528 11.551970 9.442587 
-12.014012 32.364044 12.504545 
-14.202527 22.991184 10.691306 
24.243561 15.201576 5.072671 
32.941128 -3.413982 6.146251 
21.508802 18.146318 -0.695165 
-16.098721 11.483364 4.985995 
2.721088 28.495335 -0.338087 
29.082180 10.073928 9.467820 
30.220961 -12.123712 -3.879066 
5.652845 30.181448 0.913947 
15.782904 29.482948 10.003325 
5.915153 30.958282 2.939384 
-17.120796 13.773861 0.095212 
-7.589517 33.419304 16.338446 
-12.828046 18.270622 0.932921 
-18.355278 15.729621 11.702534 
22.502617 17.044935 4.987006 
-12.972063 16.905474 -0.604369 
8.322000 19.044769 -7.610296 
25.230579 7.416945 0.229327 
-24.758539 7.631258 13.217295 
2.794641 29.245378 -5.213838 
-3.471561 29.554874 -0.516174 
30.417479 0.732761 4.943264 
-18.055052 27.841465 16.471848 
-8.824829 26.746609 8.875368 
22.053766 27.507280 13.317539 
5.288280 35.209038 15.455923 
-32.115948 -7.396527 13.220955 
-28.140896 -7.861423 4.858629 
20.435858 -13.966306 4.948354 
15.810949 16.334404 2.049197 
-11.628802 26.521877 -6.872297 
-21.411861 17.580286 10.648649 
21.686375 12.482826 -2.235701 
11.317558 26.416227 7.958252 
20.009218 9.172743 1.347509 
12.836635 32.417110 17.198669 
-7.526766 36.186306 5.739577 
-13.084284 16.151613 15.475906 
-6.590372 34.428017 3.414654 
15.942890 31.198780 17.211754 
-22.078405 -14.647589 -1.211546 
-19.759247 -3.683315 3.896971 
-31.687819 -0.298974 12.013389 
18.345070 0.530980 4.366887 
-9.018257 26.331320 6.611355 
27.370775 -6.124907 6.554573 
-23.190012 19.706284 10.808820 
13.041011 14.718790 -0.557452 
30.098240 -0.920692 13.269915 
-12.671636 24.232149 -3.427467 
-5.388984 20.254278 -7.798330 
-22.974897 9.913310 9.255800 
20.667143 2.492131 4.641243 
-19.337343 4.045468 -0.691304 
22.947857 -15.366047 5.147870 
-5.686469 30.279621 -0.821343 
18.481321 10.227028 16.719650 
-4.320982 26.444603 -1.753119 
6.636579 28.689514 -0.790828 
26.973661 -4.920304 0.278399 
-16.987925 25.010687 3.324499 
-20.663282 15.721159 -0.583588 
29.170502 -2.271890 7.321179 
31.938061 6.000074 10.598753 
-10.268920 24.554989 8.021976 
4.796767 36.770313 6.773874 
15.858781 20.922680 9.971494 
6.146600 28.362368 10.387326 
35.859749 -2.334340 12.858850 
14.726239 18.518650 -3.535454 
-15.967072 25.973526 13.521310 
21.168242 28.360348 10.033267 
27.424515 -7.739570 6.717825 
35.486301 -4.525142 13.596321 
-20.698946 6.723997 -0.916689 
24.157564 -3.185895 3.459635 
18.301884 -7.522076 -1.900518 
-24.156839 9.730727 8.559170 
29.561491 -2.033503 -2.031425 
29.491224 -11.704151 5.305648 
-20.329557 1.621072 8.647406 
21.972471 1.384000 18.082516 
27.329128 -15.635610 4.719588 
3.694683 36.446968 3.774859 
-12.020424 20.452541 0.196441 
27.254614 8.086471 8.542169 
15.270506 28.023289 8.352100 
27.438305 8.384431 7.632508 
-2.755263 27.077229 3.261753 
22.706402 -14.898075 5.846194 
17.728163 12.109080 16.307457 
21.405704 -13.787018 1.479222 
-24.561638 5.052200 0.687385 
35.046043 -7.909216 10.268919 
23.739338 9.386421 1.245814 
27.643440 -15.556682 0.939881 
21.638777 25.371115 5.452065 
7.843382 26.072046 13.268317 
-32.525768 -9.919187 15.608232 
-26.420250 5.275075 6.155684 
-17.464642 14.955556 7.119706 
-26.552725 9.455846 10.394078 
24.087402 1.232439 -2.592930 
-16.473934 18.098465 6.686339 
-23.535807 -6.473805 8.740468 
6.267438 32.672585 12.867140 
19.151697 9.377069 9.661837 
2.431992 23.286537 0.978395 
21.417395 26.737913 10.905416 
10.788688 26.991941 2.198858 
14.567684 10.370442 -7.094742 
-20.515791 1.714968 12.569196 
2.563094 25.730524 1.276329 
-10.990127 20.813911 3.042689 
-12.422689 32.018841 14.551435 
-2.476839 23.678272 -0.514665 
12.423314 21.733421 0.505236 
-26.614742 9.751614 6.851443 
29.360363 -9.704817 13.856095 
-12.782589 31.607397 11.574537 
-13.090951 18.949133 3.207273 
-9.559265 30.219402 5.979674 
-2.388659 26.300505 17.506813 
20.088221 -2.196724 0.036237 
12.238060 15.651081 -1.677147 
6.147764 26.534033 3.344176 
-16.933306 25.987309 13.274513 
-17.453524 7.482241 5.377801 
20.290733 28.003750 3.315192 
24.897598 20.662018 7.003349 
-17.096849 25.012655 11.361994 
-3.495942 38.168198 8.126801 
-26.188553 -11.934884 12.717300 
-23.864014 -0.621377 10.695211 
1.506912 35.152409 3.370582 
21.829294 -15.088953 4.809111 
-13.684763 29.495871 13.154387 
19.009491 11.699864 7.710359 
-28.763964 -13.296701 -6.234208 
6.724507 31.585627 4.486473 
5.493156 31.492584 4.052913 
-17.946722 20.221983 4.835583 
-15.872816 30.453072 8.022268 
21.336416 16.393072 5.670229 
-18.757189 -9.369370 -5.218279 
-16.886648 14.723310 -3.464196 
-17.347616 20.733477 0.493481 
21.232212 1.681081 11.820706 
22.780190 7.621654 6.791362 
26.796982 -14.350600 5.521201 
-29.155966 2.976438 5.346106 
-4.751205 36.602531 5.833667 
-24.486712 17.878004 16.164145 
-12.724397 11.781472 -2.268533 
-5.455063 39.517448 4.735362 
-21.196400 16.584467 7.766106 
-4.140774 35.386509 13.353581 
16.148796 26.879341 4.842425 
14.866681 10.452628 0.056031 
-29.110971 8.361671 6.291382 
-16.686909 9.622500 7.496903 
14.490393 22.095242 5.802561 
-20.445095 0.604035 -2.263797 
-29.861441 2.140407 6.910511 
10.369442 23.013222 -1.918090 
-26.695795 -8.786418 13.653850 
21.739841 -9.492921 5.976008 
-3.299820 30.507143 1.771284 
-24.231882 -15.414236 3.021343 
35.066780 -7.718027 11.123147 
-10.237845 21.904255 12.911149 
7.698992 25.746960 14.489309 
13.873151 17.143028 -0.093964 
-17.587931 29.325771 10.078804 
-25.612097 -0.384558 13.068512 
-6.716678 35.700588 5.849987 
-22.565279 21.190531 16.482744 
-20.649502 -14.912433 -1.909651 
-19.757965 16.594656 -2.145532 
15.653526 24.892504 -5.549521 
-10.349510 33.393570 3.419558 
30.228060 -10.873787 -5.828810 
-22.470716 -11.793190 5.598322 
24.939232 -9.746414 7.949679 
33.755199 2.055815 13.963265 
-14.620081 18.789894 3.795289 
-23.138449 15.249590 4.820529 
-24.924435 10.736959 10.932667 
-11.572341 22.480576 5.665891 
-0.162638 37.932678 4.641142 
-16.599527 10.701636 6.636749 
-22.248716 8.083057 1.034459 
26.857265 10.856746 3.983394 
21.246494 27.127106 5.646422 
-20.883667 -15.507209 4.862840 
28.538420 -9.708858 7.160299 
-9.440817 17.084444 -2.764788 
-30.989536 -8.368498 12.936313 
12.565760 29.583242 5.197605 
-30.810257 5.065828 18.384363 
-21.854074 4.833080 4.611864 
27.802597 9.854284 5.557654 
-32.897758 -2.168996 5.951026 
-11.446904 29.059015 6.725639 
-19.639242 -6.396241 0.835773 
-10.728411 30.450981 4.294879 
20.637251 25.144381 11.555288 
-20.036911 2.551820 8.436015 
-22.904690 -16.688545 2.192717 
-28.145115 2.329706 4.788619 
24.603342 -1.381747 5.799318 
-9.947127 22.582125 12.282984 
1.029651 30.659742 9.100193 
-14.781756 19.592638 0.922835 
25.469320 4.883046 -2.409813 
24.890089 20.144913 6.283587 
18.000643 15.548174 10.769090 
29.954926 -1.128199 6.707029 
-17.035494 18.585239 13.210835 
0.764138 27.708117 13.963814 
13.707423 28.764738 10.930989 
-22.620352 12.936708 -7.566943 
-29.361866 -2.799049 -3.424050 
19.139425 11.587253 8.705157 
-2.990119 29.889700 9.092679 
-22.362370 19.925249 8.364584 
20.274067 3.359287 12.296685 
-12.949927 29.650602 3.045938 
-23.059538 -4.384607 12.018321 
20.988020 12.318179 11.537883 
26.468496 -10.004221 8.813302 
-27.317478 5.215689 -0.624014 
1.514455 27.556868 5.524025 
34.131268 -6.130112 14.741028 
14.535837 16.807579 4.888597 
34.032150 -6.591258 7.218027 
23.418621 13.647888 11.611322 
-2.285456 30.071617 -4.486443 
-13.442711 23.034071 11.466311 
-21.337940 7.003861 3.006869 
25.068323 21.416445 17.441229 
29.721020 -10.375008 10.748351 
29.437389 -7.723788 6.343653 
20.219343 18.710745 6.118851 
-13.865673 24.545221 4.260194 
-14.217158 15.165830 7.227889 
-25.520504 1.200378 7.495049 
-28.496565 9.804443 11.441753 
26.248571 -1.163108 13.094957 
15.918640 6.687006 -6.887590 
-6.069587 22.480278 0.198186 
-25.319311 0.175262 -1.924598 
-25.043900 8.620438 4.854115 
23.122133 5.470004 0.489942 
-20.135284 22.512823 11.787866 
-10.911742 20.805216 13.361651 
-23.432808 -8.679423 8.819324 
-17.558367 19.041912 -0.982733 
8.925636 25.641727 12.861451 
22.041048 7.672470 11.052460 
-15.126530 30.715456 8.983478 
-3.906659 26.730835 0.191142 
0.138880 28.216944 0.964287 
-2.358874 29.065775 9.840588 
0.389858 33.464523 2.977523 
-9.994191 27.760077 5.230369 
0.527506 36.441647 8.535500 
-33.666298 -1.063217 12.395918 
-29.923187 -9.584492 9.761200 
-27.257210 -16.026257 4.263929 
-18.593937 8.857500 5.782180 
-21.788321 -4.313044 4.749533 
-18.132263 21.184818 -4.449782 
-26.852116 -4.834379 5.827487 
-23.521585 9.415831 -1.420393 
-33.320488 -4.911084 9.511594 
-9.623989 21.671154 -3.130691 
12.611970 27.401552 8.943011 
-13.483463 15.613112 16.524950 
17.706356 2.376446 1.914611 
-19.461494 15.327614 2.959461 
-20.047907 -5.201565 2.969611 
26.082088 20.880829 11.488901 
-16.706673 29.809603 7.734546 
27.673275 -0.267667 5.873217 
32.279816 1.265835 10.555021 
-12.885179 26.177139 -4.556143 
21.344364 3.580255 12.467532 
7.184437 38.022381 3.478151 
5.061702 30.722414 3.929102 
24.460978 17.743286 3.976721 
-29.429844 -4.014289 -4.877455 
29.880583 -4.580427 -6.165007 
-17.536806 15.650492 6.475948 
18.956535 -3.841290 1.509087 
6.300197 37.661343 2.478228 
19.410917 -9.612045 5.666741 
30.856157 6.546020 7.843632 
-2.917904 30.286694 0.001741 
-17.338963 28.463596 16.585867 
21.846523 -0.413601 -2.133705 
-21.005684 24.377848 14.959525 
23.770205 -3.333853 18.213669 
-17.280777 18.276340 -3.698991 
7.593315 27.656109 4.792384 
-11.672322 30.732309 11.823409 
-25.008167 -9.568592 10.700668 
26.685698 -4.500690 5.994386 
11.092486 16.688854 -3.579253 
-28.475107 -13.105018 4.948282 
34.858688 0.190674 18.017891 
-11.207790 27.731300 11.978026 
18.303093 9.407386 5.758252 
27.855543 4.113382 12.863713 
22.533001 13.574444 8.943181 
15.562447 25.195890 5.259970 
-13.002211 16.800064 3.820740 
24.798534 -7.077737 -1.423583 
28.582802 -3.128868 1.217077 
28.192356 -8.966068 14.078615 
29.680788 -9.712668 5.299057 
-22.343565 15.077394 9.143826 
14.903087 30.292789 8.429491 
18.806541 15.429979 4.784122 
16.438042 4.152565 -4.869872 
-23.747536 19.206238 16.145472 
24.340593 -6.353996 -1.363364 
-33.382336 -5.366960 10.268997 
-23.702518 14.686547 11.713531 
-14.452555 29.002695 2.430821 
-18.739141 -5.343991 0.907898 
-24.244772 6.159657 -0.013874 
2.335012 32.598457 3.511411 
-16.909222 12.481230 8.643508 
-27.137428 3.589313 -7.113126 
5.383294 30.074354 -0.632113 
-16.403751 29.465498 5.838935 
-1.133613 34.478756 12.786054 
19.818909 0.358062 -1.853115 
15.404358 30.962172 5.491823 
11.047522 22.082451 3.533475 
26.419380 5.777404 5.087366 
20.908421 27.941866 5.426272 
29.291853 13.349930 13.594871 
18.463287 -6.068568 -0.383320 
-15.558768 11.749850 13.173187 
11.098966 26.299646 9.431313 
20.960344 17.478500 6.164186 
8.087303 22.826916 1.425804 
26.614265 7.618795 -5.429725 
13.830230 28.302309 9.022951 
23.977943 18.715351 9.096356 
-16.533297 21.638885 -0.611057 
-18.868732 6.045789 10.788926 
18.692810 12.975721 1.645549 
-12.045298 25.848644 -8.154601 
26.694088 -3.968686 4.485918 
18.450230 30.538733 6.485876 
9.571851 28.154757 9.578195 
-19.278152 -3.136809 5.150151 
21.305103 -6.954650 6.418658 
32.470860 -10.102928 11.685744 
-28.626352 -13.479084 2.230792 
-20.905056 0.826750 5.207662 
22.406628 5.437202 12.340327 
25.495005 -10.267773 -1.345318 
-23.330690 5.336372 -1.502851 
25.932941 -14.351245 1.658224 
-3.707355 30.729860 3.700697 
-15.463296 30.553793 7.264317 
21.402994 -2.488051 -1.225648 
-4.489596 25.926249 2.290194 
30.585493 -3.693337 6.653820 
30.241331 -9.588865 -5.896690 
-1.102119 27.287596 14.848295 
30.484604 -7.751733 7.232527 
-26.254335 3.085067 14.195771 
33.111404 4.142442 15.216331 
17.408293 30.425344 17.224043 
-13.374947 14.447021 -1.740145 
28.572075 1.246535 1.228623 
6.345321 23.593769 0.025246 
14.028921 16.443701 -3.271702 
-22.310545 0.378348 4.776951 
-8.401313 34.543617 7.840676 
11.131284 33.161175 2.527714 
23.299244 14.228811 0.980732 
-3.426638 29.730387 -5.219619 
0.262131 34.485271 17.233896 
-17.110275 6.683076 2.504346 
16.222448 20.682816 -1.443337 
25.030264 22.758163 11.721323 
8.387991 28.398911 -1.798472 
16.698826 2.483572 -3.658147 
12.906081 30.544420 9.208457 
32.554192 5.003383 11.718099 
-8.399344 24.526276 5.933047 
-25.391123 9.472473 12.242761 
-7.605586 28.360931 -2.235983 
-16.168745 1.519807 -2.601478 
-4.701866 24.285801 -0.015938 
19.975769 30.053564 9.121347 
-3.464762 28.758850 -1.580278 
-31.524689 -7.616986 13.901828 
-33.038292 -1.858211 17.367275 
-28.936054 9.793303 13.147907 
27.035244 -15.380439 6.043162 
-18.960274 13.474577 6.949208 
0.983215 23.397745 1.147985 
1.578416 22.824486 0.605092 
-29.619999 -4.727400 14.382897 
-6.553755 25.770849 3.132561 
23.961573 24.179741 15.802376 
22.543806 17.005369 12.030902 
17.730621 -0.588418 -6.486174 
31.927784 -0.233458 11.171856 
-30.367926 0.274594 9.992993 
21.488749 11.604345 -2.321466 
-11.831154 25.731661 9.524465 
-19.854513 12.911551 12.488688 
-25.447264 8.126961 -2.039545 
10.106194 27.338814 5.123323 
-17.450737 21.609461 -6.614677 
29.213022 6.401807 3.939677 
2.985313 35.369366 10.560565 
-21.299559 15.890583 -6.202935 
-17.248159 19.338720 -2.882986 
3.612754 26.839890 -2.106001 
12.655649 21.846741 -2.006185 
-24.164333 -3.889180 6.140625 
-10.175229 26.543629 3.032324 
-26.399351 3.187887 5.940447 
-0.625131 34.379391 4.024551 
28.693146 11.904952 8.075265 
10.262539 28.818382 11.033983 
-29.048252 -2.859945 -0.914549 
19.237671 25.448772 3.625311 
8.447098 28.855820 7.991327 
9.157130 34.961323 13.219264 
31.283100 1.774882 12.168966 
-24.083088 7.211742 5.386353 
14.529651 21.421198 4.951997 
21.017281 -2.768512 0.677782 
21.415625 15.342151 0.994061 
21.741850 -10.491977 1.431820 
-15.660155 29.535042 4.645205 
21.341513 19.271900 -3.630812 
-21.549149 -4.282930 1.627364 
17.801374 15.204081 4.845402 
-27.690002 0.604468 12.921056 
-8.529885 33.367573 15.544637 
16.907568 5.104084 0.085620 
28.291927 -12.747573 6.954138 
37.080769 -7.362060 18.233013 
12.480792 27.594576 4.663218 
27.484594 12.322334 4.962854 
19.627352 29.824745 6.277061 
6.032697 29.024118 0.590305 
27.103434 -11.857891 13.368636 
-19.914953 2.442435 10.279023 
-5.630959 32.986366 12.911339 
-23.361595 5.161707 13.866831 
-18.848877 -4.504691 1.606882 
-29.912828 0.004524 6.640375 
23.437073 13.837879 4.331494 
17.691854 8.822377 -1.568457 
-11.310398 22.522188 10.235999 
-9.626445 21.580320 16.295650 
-20.797070 12.091599 -0.945329 
10.077563 23.719442 4.079422 
24.778681 -15.180733 4.497884 
-24.249588 -8.316089 -2.558350 
24.396334 4.287447 -2.633061 
15.510924 19.013493 -3.660892 
16.679743 13.474365 2.305936 
20.475458 5.027315 11.746989 
23.250286 20.387259 11.920704 
18.369568 17.652050 10.399373 
19.564308 21.634121 -4.592530 
21.060835 -9.103456 6.413043 
-16.419867 13.520013 -0.405139 
14.474337 23.310989 -2.185936 
-17.565117 7.007569 14.014063 
20.714308 20.603556 2.626039 
-17.239111 -2.595613 -3.828984 
34.692719 -3.375727 6.134787 
19.139406 27.265842 13.266928 
-18.293083 27.977674 15.449938 
-26.404385 -7.598342 13.938592 
15.411998 15.340427 3.833855 
19.945887 17.899652 6.874132 
-25.835983 -16.720810 4.943424 
-25.005835 -5.364515 10.968328 
-14.883253 6.281903 -2.816423 
31.330538 -3.318716 6.882123 
18.490440 -8.680977 3.513739 
-4.787782 30.919073 8.871186 
9.495342 25.371740 5.399606 
-17.964529 24.411821 6.869349 
-14.888378 14.930297 9.076632 
27.216671 6.458425 4.592752 
-7.218423 33.401257 9.707685 
28.332195 12.541904 10.480107 
-17.282738 27.078304 13.338783 
-13.082664 25.635836 -1.312126 
-0.639586 22.411518 -4.490314 
12.086981 30.983780 9.529968 
18.143398 15.614082 -3.281177 
25.658520 -4.471299 0.956616 
-21.433569 -8.249742 5.719794 
-19.029753 27.285252 14.085905 
23.610407 -5.028163 0.079265 
-21.015182 8.371354 11.315746 
-27.993252 -13.257341 5.856384 
13.324327 24.902163 -1.035648 
33.544319 -3.305347 12.338676 
-24.967867 11.646709 11.623171 
29.831097 9.770109 10.841255 
20.946701 28.600424 8.092788 
8.854393 35.522480 10.384293 
23.759613 9.393981 2.192143 
15.185133 8.469707 -5.428337 
6.483057 25.163559 2.927001 
21.372961 -10.616042 5.738489 
-16.319603 24.585707 12.208490 
-24.363352 8.167462 5.198051 
-3.307287 36.413715 11.965107 
-11.045508 27.558285 8.959542 
-15.748270 20.247734 5.953241 
21.978691 -13.759442 0.677237 
3.454314 30.350616 11.423293 
23.921608 10.332243 4.275968 
20.048632 5.716772 16.397434 
26.513063 14.126884 10.776639 
21.105844 11.826899 12.371634 
24.894285 -3.350507 4.357172 
10.080970 27.962399 -5.138723 
-28.944611 -13.941044 -2.240088 
30.828133 -9.088734 -0.134024 
-6.777345 20.281240 -2.154973 
-22.256842 -1.970896 8.161338 
-2.205077 29.251350 -6.825953 
-11.258404 32.629715 14.070242 
-22.569603 -12.453642 -3.113121 
30.133644 9.924568 11.780565 
12.480877 23.208357 12.255483 
-33.665794 -5.453726 11.328448 
19.973093 15.541839 -1.021380 
19.509640 7.258992 13.063991 
-19.770260 0.823502 5.543217 
-19.499279 26.612375 14.896204 
5.720174 30.576868 6.826104 
-23.613142 -4.526754 8.519170 
24.311657 6.339549 -2.268280 
-28.106649 1.692912 -5.884888 
12.660368 27.481995 3.529632 
-3.357994 32.927582 12.244075 
21.311121 25.186346 4.624052 
0.091792 27.857386 4.089630 
18.126377 23.059784 -1.866612 
20.859964 20.834015 4.010423 
-7.714323 37.607765 6.094434 
-26.973425 -3.630822 14.090177 
20.712664 0.624893 -2.175846 
-24.486801 -10.990508 8.283070 
-18.266615 -7.959705 -2.796223 
-17.456547 9.306910 5.675401 
28.553911 -5.538315 0.664971 
30.530743 5.592126 5.552398 
-13.001220 18.782160 10.610601 
-28.240562 6.421543 13.378300 
-23.494207 -0.370324 6.261203 
17.059879 30.452072 4.331161 
28.513355 -0.897749 5.751260 
-28.121193 -9.586770 8.942389 
22.060852 22.617996 9.131023 
21.873119 24.512691 8.430876 
27.010431 -0.545873 6.992395 
14.506360 18.671787 -2.207176 
18.069220 30.691803 8.858007 
14.592508 21.756708 1.040875 
28.274178 0.336057 0.249320 
-19.680794 16.061543 -1.245402 
10.047338 26.342073 3.001229 
-3.682741 28.073954 2.051945 
5.812773 28.779074 9.678577 
-5.091768 30.723391 3.728215 
-25.096596 8.779883 -5.844680 
-10.605074 15.011227 -5.843794 
-18.092089 19.918879 3.988326 
-12.724351 16.019009 0.449637 
-30.183577 -11.491081 -0.381647 
-21.520250 -11.927735 -2.896757 
-21.006992 18.908142 12.344813 
-14.963724 13.265105 0.863909 
27.393169 -8.210995 7.457688 
1.229913 32.331223 4.930485 
13.910830 15.320436 1.998031 
8.367904 34.801445 14.718184 
19.270079 27.424635 1.810927 
8.665147 26.342358 4.575325 
23.535883 20.477346 3.513535 
-28.210020 -13.981753 1.396938 
35.239128 -3.619253 6.816198 
0.630350 33.174461 3.972031 
22.576908 9.198054 0.477005 
-6.377430 35.816273 10.365848 
9.049278 29.154896 -2.808505 
7.741016 19.817205 -4.111941 
-19.873058 9.133417 5.899409 
-8.018120 21.749823 -0.259956 
-24.534821 -5.805306 -0.891308 
-20.036959 18.969278 -2.850275 
14.142016 22.046785 0.149796 
24.243769 9.400480 5.983243 
-19.238941 18.106253 -3.227479 
19.309404 -0.979301 -1.258274 
-33.415234 -2.592160 6.861845 
-16.794931 10.587186 5.798965 
18.002428 7.842942 1.250237 
14.239670 23.965178 -0.968915 
22.743225 -0.603824 -2.169081 
7.122828 24.084406 -0.810937 
-18.275358 0.112665 -1.623839 
20.993534 25.916809 3.631364 
32.137344 -8.414993 7.517355 
-12.523110 29.365414 8.624503 
-28.731863 -1.708223 6.188340 
24.696459 21.820330 9.058853 
-6.428208 30.809742 7.205629 
-20.604593 8.035842 6.276528 
-18.256975 -7.111940 -4.975965 
-23.807007 10.514206 3.147992 
1.921572 35.022530 16.189533 
-14.609869 23.952072 -8.077431 
10.577494 28.059708 10.680115 
2.276164 32.917126 11.127784 
-31.422901 -8.664746 9.230217 
-20.759079 14.018308 2.678448 
-7.327699 26.522049 -0.256812 
27.723297 -15.104085 -3.094183 
15.777957 28.799322 8.565037 
28.088524 12.219370 11.556643 
-5.548905 32.525913 7.435570 
-29.573483 -10.115594 -6.409879 
-30.427507 5.397460 10.506095 
23.014835 7.532483 10.962268 
18.597542 21.072451 -1.784502 
35.534698 -5.132855 10.778823 
21.371210 -10.441984 -1.727924 
-29.251955 -7.536250 1.868442 
-1.676790 30.619705 -2.103069 
22.429564 -2.384494 5.456092 
-30.114967 -11.457657 -1.636041 
18.831717 30.904556 11.412447 
-26.409582 -9.079816 12.894712 
7.536742 34.422844 5.356829 
27.365492 12.586926 11.878057 
27.691206 -9.114776 -0.505576 
24.117085 6.981054 9.819461 
31.942169 -6.102423 14.868869 
17.446114 30.880743 5.859264 
20.648102 3.931077 16.573944 
-23.804409 -12.484691 1.076002 
-19.234287 22.578505 11.878068 
20.490816 20.452871 4.840325 
-20.152887 7.676390 -2.135466 
10.305930 24.425091 4.838556 
24.322582 17.090372 10.324833 
17.632132 23.484383 9.049126 
20.889801 16.644461 -1.046577 
34.413387 -8.905344 9.655325 
-21.466476 -2.128040 11.920427 
-26.329821 5.648856 0.579505 
12.149289 23.638220 5.698058 
30.313793 -11.179254 9.602320 
2.777557 25.375702 3.868144 
-28.255962 8.396003 4.943162 
25.852779 9.528279 -5.602023 
-6.577702 28.564806 10.016216 
-22.196651 18.477964 9.656774 
10.617951 23.470980 15.668426 
15.243934 8.688083 -0.792659 
-1.388125 28.423876 3.768464 
27.682772 -0.634469 2.602346 
25.894053 9.747288 -3.411480 
-9.398301 33.372074 13.503966 
-31.818508 -9.043895 11.854812 
-25.683928 0.263080 7.528884 
-7.227495 29.772526 0.840110 
-26.712463 4.602619 -7.162908 
-19.908325 17.756510 -2.141555 
-0.112204 29.743320 0.851954 
21.077454 -11.622269 6.358580 
-21.805714 18.763277 4.693538 
-30.510632 -10.994278 13.105248 
13.780381 17.435825 1.915294 
9.669591 18.135826 -2.949612 
-32.166519 -7.358076 7.869691 
-0.271692 29.881569 -4.872363 
-25.661570 4.368040 7.163918 
-23.557009 -8.057614 11.568291 
-15.507440 9.275665 0.932650 
24.404974 -9.194044 6.728735 
27.575392 -3.196524 8.002116 
15.688572 12.697556 2.260373 
18.233356 15.905607 11.885898 
20.799789 -13.634480 2.179569 
17.706657 21.197519 6.203007 
-27.465658 4.723537 2.958210 
33.162354 -6.212118 7.330152 
32.268547 6.164583 13.314790 
24.721426 -7.593883 11.615336 
-29.402971 -9.846787 10.405465 
-27.961267 -6.376542 3.993657 
17.450365 11.624804 1.913353 
21.050648 12.134934 10.002386 
-24.613714 -3.448427 7.588448 
-10.629030 15.083677 -4.325872 
-29.606705 1.084165 9.691721 
-20.193514 -14.334402 0.531462 
-23.822586 2.801871 -2.395570 
-28.015587 -14.108334 -6.184484 
-7.982065 34.880615 4.750906 
23.022209 25.890173 14.508392 
-19.505938 15.626251 1.054519 
20.751610 16.359921 -0.208734 
21.905960 14.908487 4.943000 
-3.904699 23.439842 -0.124864 
37.480392 -5.481854 18.171967 
9.694997 26.279535 0.361748 
-11.112240 26.821926 5.586022 
1.059919 35.624004 11.201960 
29.344482 -0.889620 -4.966287 
-3.830693 28.546942 -8.223093 
-0.359888 31.406469 9.469276 
-25.546394 11.314071 5.428311 
-9.985370 16.056929 -4.016015 
1.371891 35.100060 4.381593 
-33.200359 -0.724529 9.828884 
35.446491 -0.745756 16.808739 
25.591509 -1.975258 -1.040773 
22.731916 9.092104 12.566381 
28.377085 -7.934719 5.803837 
-3.160510 26.707693 -1.887847 
11.725655 26.848236 0.113656 
13.426352 20.065561 17.574417 
-11.687395 13.571298 -2.076048 
11.768516 21.899012 -1.993895 
18.724567 3.627756 5.582314 
-26.215244 -7.522955 7.338783 
-14.193731 14.337280 16.327644 
11.517208 27.976555 0.460938 
-15.394798 21.168390 1.812771 
28.477947 14.891161 14.755994 
9.180943 29.613562 10.368379 
17.055262 31.536833 14.357589 
-15.501799 20.874502 11.459846 
1.460897 31.454447 5.154607 
22.143702 -1.936338 9.893926 
9.311985 26.563293 1.836388 
25.687052 1.705544 13.296091 
-6.443169 38.950756 7.133234 
-28.395144 10.438254 12.610196 
-18.999588 2.904400 13.596242 
20.712244 29.261189 14.248354 
-22.350439 19.939373 10.803102 
-20.036655 3.577440 6.812048 
31.545397 2.222368 9.177525 
-16.615005 15.235778 11.189679 
33.573307 -2.212451 6.197417 
-3.686214 38.510242 7.307683 
-20.148197 1.592175 10.874933 
-18.207125 -7.754964 1.051059 
12.323083 33.070930 15.917702 
-13.390140 16.755331 -2.194624 
20.556547 3.379549 10.742694 
-24.090881 -5.757850 7.503919 
20.209074 20.452906 5.851056 
14.001104 31.866945 2.806667 
1.808717 27.767105 -1.281039 
-8.946876 28.561707 9.045075 
-8.951387 26.977571 1.080394 
-14.758106 29.573839 3.569324 
19.949911 23.459604 9.281230 
-30.291746 -8.557875 -1.078972 
0.352971 32.484455 4.820676 
-29.087418 -0.631559 -1.270652 
-17.330687 23.645334 7.477158 
-8.796791 22.970341 14.706521 
29.286919 -11.316298 8.898308 
26.063862 4.351089 12.984494 
-14.332421 15.449862 9.520822 
33.472527 0.971206 12.274550 
-21.800800 13.406420 0.268977 
-18.727057 4.801868 18.297434 
19.507780 8.578158 6.717228 
-21.294153 22.412346 10.458695 
-4.067278 29.378162 2.773225 
4.994624 21.251268 -6.132987 
-24.220097 -8.755304 11.525602 
0.949650 32.774689 7.994085 
21.347040 5.065094 1.181742 
18.279737 26.116917 3.441895 
18.356894 28.488327 1.737616 
6.041288 29.450876 5.536655 
6.990253 26.109413 3.455504 
-18.417145 20.748505 -1.849940 
25.121151 17.614786 7.010695 
-19.041573 2.900399 15.148765 
3.281656 35.658886 9.661594 
-29.486614 -8.668511 0.991597 
-6.278971 20.075012 -4.305277 
16.931801 31.258549 15.735857 
27.481617 16.032707 10.860341 
0.574156 25.915241 0.564837 
-32.024124 2.736304 15.654134 
-8.391812 30.548540 6.894609 
-18.576214 2.430308 -1.334662 
-13.879966 21.342344 8.567246 
-7.721647 18.401495 -6.454704 
15.051729 30.083441 7.457349 
18.719034 5.293402 0.049472 
24.332493 -2.288902 2.639016 
15.901204 8.971764 1.562686 
-20.347399 -10.294634 -1.982520 
-19.986732 -0.888531 6.815605 
-20.053953 -0.190806 14.048058 
29.369932 11.701439 17.706579 
-23.441265 -11.070178 -3.029492 
-15.323503 20.396019 9.199805 
-20.871393 11.221751 12.699273 
23.671808 -13.439823 -0.849847 
-8.093038 30.282379 5.895579 
9.858824 28.039167 8.713138 
16.386606 28.936258 12.775765 
-15.589062 20.359966 -0.043941 
5.046292 29.048323 5.159453 
19.007938 -8.991175 -6.029934 
6.221511 21.214163 -3.045195 
-24.157932 -6.333090 13.478647 
-23.470362 -7.389408 8.405665 
-21.935244 19.591522 5.453446 
-15.238142 23.205837 10.084970 
6.209778 33.973705 5.890910 
-13.579436 14.092485 4.016164 
21.270233 -2.721447 4.855041 
-20.016781 3.792399 13.130228 
9.354763 27.371309 -1.619733 
20.773319 26.743855 3.407417 
14.304610 33.326336 11.247178 
-19.183748 22.890537 10.548814 
-25.670290 7.967227 -4.283509 
21.986788 0.264597 16.885241 
-27.789755 10.306853 10.739192 
31.575378 -1.249361 10.639630 
-19.601324 23.012596 7.270189 
33.266251 -0.258499 10.733315 
5.685140 26.310883 15.620441 
-26.673227 7.351089 5.116711 
29.139799 -4.760371 1.370477 
20.631983 24.721630 10.758781 
-23.916700 8.035661 9.623190 
-18.221430 5.501915 16.709047 
17.322203 21.777735 0.047644 
-33.431149 -4.439167 18.697702 
24.396708 10.089301 12.629805 
-7.964555 32.208862 4.668985 
-11.269445 25.466320 7.383821 
-26.762882 13.598215 16.570282 
-28.482901 2.172363 -1.713022 
32.701202 5.161382 14.200664 
19.053577 22.238548 2.775664 
27.433788 -9.202662 13.346963 
-17.262125 12.224217 3.996341 
12.266151 33.782146 5.911390 
9.728146 32.869503 2.434617 
-31.068920 -0.218178 12.665544 
-18.923367 0.799154 5.693533 
19.645254 15.425850 2.719654 
23.351414 -4.590060 1.134643 
4.195058 32.062675 5.875320 
-12.391469 18.203775 12.920712 
34.290016 -7.433763 7.048926 
-22.560787 14.292748 3.810255 
22.627291 -10.088074 -1.802371 
30.639435 -7.516451 14.766860 
-25.865805 -9.824170 10.658780 
13.263459 33.321651 13.913899 
-20.276440 14.426084 11.728974 
29.432613 -7.175160 3.462727 
-2.218707 34.210518 17.261875 
22.519812 14.190557 8.276802 
19.444237 21.819147 3.576242 
-19.377020 10.780266 -2.668697 
14.222241 11.144400 -3.587804 
4.639539 28.650576 2.896604 
15.855203 23.449524 -0.475213 
-3.103485 29.999950 7.796474 
-29.183270 -11.641322 18.886089 
-16.480377 9.661987 16.853928 
-19.174849 16.075994 11.664421 
-21.483168 -6.316960 5.797784 
3.731669 28.214914 -8.137115 
21.542212 18.481152 -5.386940 
-3.847096 37.766766 3.453072 
-19.869015 16.266819 11.009132 
-0.589463 28.696392 -0.385983 
25.564859 -3.277022 3.664991 
-22.177771 0.122812 13.319475 
21.632917 2.282689 18.057512 
-29.923576 3.161109 6.611312 
26.229074 -12.727071 4.183236 
18.933121 16.571674 12.514107 
30.326870 -5.473101 -3.083758 
-18.079338 13.659298 9.725106 
32.358654 -2.475070 6.705036 
-17.546803 -7.662911 3.420951 
28.174633 2.551435 -6.557867 
-26.503296 -8.507984 7.608360 
11.849379 33.785873 4.638293 
16.865664 3.194705 -6.694206 
21.693651 5.364069 10.518342 
13.978742 17.420860 -1.569136 
-17.844969 -4.775052 -2.186924 
16.590212 20.231482 0.402464 
32.116100 2.176410 10.329936 
22.349350 6.000336 8.498662 
-16.473093 13.943721 9.950714 
27.352896 5.124767 2.545105 
-9.551676 28.802750 3.236245 
12.714243 33.668934 9.036913 
-14.662066 9.197122 1.135683 
-16.876530 5.766586 1.999415 
35.699192 -4.319049 10.498062 
-22.545343 -11.264938 -3.231726 
7.177581 32.250004 7.544278 
-32.820198 -0.223830 12.324392 
21.181396 5.321755 4.500922 
17.977367 -1.807007 -6.419452 
-6.015993 32.927010 11.689154 
-27.411619 -13.022606 -0.879057 
14.014758 20.622944 2.363883 
12.108997 15.470663 -2.832115 
21.051853 -8.130355 6.474236 
-20.695910 -6.526269 -0.179004 
-23.920084 -2.186104 -1.566209 
-19.319342 -14.626662 4.871428 
25.160254 11.561563 -4.831572 
-17.439650 -8.661496 2.801199 
-22.905657 13.450711 -2.840521 
-14.102088 23.756144 1.800924 
-28.125637 3.352439 -2.870198 
-9.767094 28.091942 3.675595 
5.673650 34.663910 4.422198 
-29.657927 -12.697564 -2.634425 
18.728565 -10.048793 -2.532282 
-17.864784 -10.254117 3.307605 
-23.983406 3.646729 5.892578 
18.832691 10.386518 8.738869 
30.209610 7.763336 9.340819 
15.232658 25.684820 -2.822974 
-11.150216 19.567677 16.045582 
-32.759949 -5.856875 8.745446 
-27.914602 3.917082 -0.549901 
-14.463606 20.213831 8.044376 
19.464565 28.249887 2.293731 
-22.245043 10.392878 -2.143227 
-32.817944 -0.570156 10.848634 
15.042620 15.864030 4.459019 
29.012177 12.518389 17.684235 
25.674644 1.525776 5.980740 
26.074369 -14.576318 3.530783 
21.687174 25.278210 9.129811 
9.844679 27.009403 5.958733 
18.148125 4.005144 -0.279267 
-19.500175 5.535182 5.449166 
-29.689329 2.293628 11.512389 
-23.537621 19.822948 14.840376 
-17.338739 29.034595 8.022436 
-9.737409 20.814253 -2.947669 
-4.791026 30.113905 2.602607 
-4.488077 28.560797 10.192392 
-24.570873 -10.254819 17.227047 
-3.796916 30.887112 5.052347 
-17.567165 -0.619268 2.525268 
15.371655 30.781834 7.852834 
-24.043419 -15.108137 -1.522337 
31.059002 8.578928 13.307783 
-19.544613 18.962648 12.907619 
20.410788 21.169268 1.875239 
18.019409 7.164730 1.995367 
27.667887 15.425094 9.731689 
-0.019512 22.764959 -2.547193 
-29.688194 0.341846 8.832623 
-13.396080 11.531769 -0.106211 
22.828775 0.602196 5.291257 
30.886848 2.850839 5.659647 
-8.424158 27.447817 5.574242 
-28.638542 6.402823 4.776516 
-28.190392 -1.528898 10.462501 
-21.608915 -15.240766 -0.087988 
8.837691 33.033890 10.387942 
15.902577 19.726107 -3.244226 
-25.352556 0.089299 10.574280 
-28.327690 1.508281 10.311035 
-12.128995 25.184566 -3.172712 
29.119551 -3.990340 10.801467 
31.020424 -0.372861 11.131455 
14.883659 18.481565 4.963175 
24.098829 21.439306 6.111867 
16.475271 11.545237 0.423480 
26.758724 10.293303 11.948188 
23.545422 4.512024 4.506887 
-19.463699 5.599314 1.444800 
28.805590 3.760450 5.069424 
28.984032 14.150102 12.811962 
-12.210410 12.986506 -0.880208 
22.120451 15.262384 3.866521 
-14.953269 24.297163 -5.935359 
-9.047976 28.614962 -2.167177 
-7.996193 34.945511 5.667501 
26.421974 20.049685 11.749742 
-20.126228 16.732866 2.079002 
6.739654 31.842361 6.277884 
-18.771437 5.126534 11.360864 
1.528888 35.122196 6.329328 
21.562729 0.353485 11.003273 
-24.515268 -0.576948 6.545015 
-23.154215 8.088775 1.886518 
-16.991331 30.000250 10.960650 
-7.583590 19.845358 -0.860292 
3.720269 28.357948 0.538129 
23.635939 7.674932 -0.074018 
15.584336 26.449249 12.702324 
14.034182 26.189157 9.502137 
13.611259 30.282831 2.757276 
2.975376 24.576752 3.240508 
-0.551393 32.250366 13.911592 
18.633827 30.570021 10.570521 
14.482112 19.081373 -1.070157 
18.286436 -6.474377 -2.925539 
-24.508253 -13.771761 7.842736 
15.366684 29.312662 4.200648 
27.211395 6.182386 0.412404 
-22.257524 -1.822704 5.916862 
-31.732376 -8.172412 8.433002 
0.549856 32.812828 11.494778 
33.829407 -9.077823 8.489443 
-22.417076 -14.576850 0.752807 
17.276672 8.557557 4.661650 
21.806147 8.053636 2.579833 
-15.440868 4.806080 -2.087386 
-6.196948 29.358278 11.771367 
-31.969648 -0.236627 6.749286 
-13.669361 26.015087 10.445829 
30.705368 -7.878616 -2.086974 
25.121454 6.721772 -1.214150 
-4.991747 35.161583 12.981723 
-25.266666 6.870221 2.312685 
-25.729237 -4.847284 4.248587 
20.818396 -0.559846 -1.886749 
-21.382212 -12.843647 -2.238219 
22.093864 23.415100 8.046575 
9.605704 21.144526 1.813294 
-18.857790 -2.388942 6.092276 
29.344353 7.366145 4.681490 
-8.632213 22.769430 16.097059 
-26.162159 5.903928 13.822909 
-16.457201 2.229391 0.779986 
-24.246988 7.406478 4.308791 
9.588162 26.626696 4.724290 
-15.601825 14.234992 10.691441 
-16.630178 12.927168 9.844865 
30.242393 -5.630388 -4.492551 
-11.448771 19.068571 17.800810 
7.795016 30.620878 3.696840 
-23.385826 8.617868 3.014528 
-24.253098 -17.539089 1.662347 
-33.062340 -3.979172 6.849839 
-3.886722 36.685646 5.383721 
-24.128061 -4.896255 5.846174 
28.635006 -11.602190 0.459149 
8.943945 29.428345 1.941329 
19.565653 24.896681 9.748029 
-0.071014 31.934231 6.197398 
-25.096189 -16.247993 3.783474 
15.110110 17.502253 16.232174 
-27.257456 3.787901 5.817873 
-14.891095 23.472286 6.432525 
-9.984650 25.358027 -1.131861 
0.591791 25.351118 1.968160 
-11.156324 32.479050 15.189508 
-9.913531 17.534885 -0.636518 
-24.255049 0.136256 13.888483 
12.867969 32.668751 2.819167 
-27.540232 -5.588758 5.797015 
12.022093 21.605804 3.674844 
0.389253 30.381777 2.155625 
22.683327 -0.506382 18.135141 
27.486967 11.331731 4.865981 
21.027554 28.950516 11.212054 
23.794870 -10.071921 1.818280 
-23.349852 -4.059476 5.754564 
-27.391588 -2.177355 2.748598 
21.382824 26.467831 8.710756 
25.777660 -5.156195 8.604680 
-29.040260 9.773440 14.204283 
24.236031 11.063090 3.896419 
-16.728689 7.714522 -0.407200 
-7.140079 23.811029 17.620861 
-18.656763 18.288597 5.785920 
3.514465 24.912132 -1.329919 
29.305761 12.552689 16.049210 
-28.288849 3.485452 5.477354 
-9.979836 28.083519 -2.930661 
-26.727913 -16.585056 1.294675 
16.068939 24.823883 9.491776 
-28.358074 -6.168707 2.102294 
18.898378 21.931545 -1.018929 
-22.176443 14.676469 -4.670714 
-18.005169 11.268787 12.329630 
24.332973 10.582162 5.810184 
9.440886 27.965689 -0.872995 
-11.231121 29.345863 10.307901 
24.092455 18.467028 3.455982 
18.939367 22.164040 -5.293694 
-6.362832 30.810846 6.308906 
-19.312443 15.586546 8.568178 
27.265600 -10.943517 9.610334 
22.621218 12.059914 0.005657 
30.894968 0.643713 11.242815 
-17.683847 4.328604 4.437370 
-23.532423 14.310815 3.958451 
-0.215406 30.289331 -3.509487 
-34.109390 -7.318060 16.225140 
20.590481 1.697699 -2.324034 
-18.568336 11.990811 5.232654 
1.949939 25.604849 3.824651 
-25.942272 -15.714333 4.870831 
-16.789713 20.808748 3.417859 
24.479805 -4.879797 2.696586 
-6.447471 34.690399 5.417288 
33.512081 -8.676701 13.621542 
4.122890 33.575886 4.603564 
-28.462198 0.572060 -5.675201 
18.558409 -7.560251 3.067542 
-8.300663 33.786045 9.960571 
30.671219 -0.286191 6.816951 
22.092913 12.955421 11.789421 
-6.096235 26.448469 3.522651 
9.483918 29.885746 7.232386 
20.443113 3.890508 15.294196 
-18.296625 16.184738 -3.521641 
24.034470 14.199090 -3.801000 
9.253945 33.373436 7.150922 
-1.840198 27.522505 3.516007 
-33.743252 -2.294696 8.089310 
-4.293868 34.606052 15.431697 
19.431005 -2.035164 2.046281 
33.134354 -4.405856 7.024632 
-20.914295 -2.056117 13.387645 
21.213522 6.379346 1.497181 
0.153017 32.249428 9.382907 
-7.860618 23.304581 2.319436 
26.482933 8.509534 9.839890 
29.678133 -3.913841 14.329761 
26.212975 -16.372505 3.823364 
-19.221910 13.972597 1.965364 
34.075993 1.126013 14.098660 
-30.620995 -4.961411 14.297976 
16.816519 26.333010 13.084957 
-2.262987 34.258297 15.034931 
-21.998325 -3.161651 -1.260539 
20.338799 3.926972 14.163000 
-10.613490 33.635483 5.659669 
5.850599 26.691774 14.057761 
-19.792463 1.090604 16.143436 
-25.127329 1.535544 -2.132805 
16.641201 16.817499 10.559642 
28.740358 -12.733607 2.147016 
28.856260 4.616289 4.415232 
-25.276926 -2.958691 2.151832 
-0.738249 23.025913 -1.949891 
20.580376 -5.853305 1.239917 
-23.243620 2.131458 -2.477178 
-21.168797 -2.889158 13.343702 
-15.404230 11.694127 4.330816 
4.440760 27.664320 7.215143 
-6.643786 27.870811 9.376883 
25.125692 -1.676979 13.006454 
7.849749 31.827696 8.007851 
-25.221649 9.037801 -2.368328 
25.057142 -8.589778 15.899900 
-21.709740 -4.441907 2.566327 
23.072580 25.894421 13.268312 
-13.266270 15.856739 12.787416 
-26.461489 3.012611 -1.688908 
-24.343367 15.312554 6.946141 
3.773306 30.991014 12.023593 
19.560364 28.726965 3.172322 
-17.919254 11.407124 4.701519 
29.727459 -8.090731 11.247024 
31.255051 2.892594 12.089782 
19.201792 -11.209496 0.034259 
21.071276 18.643349 3.929801 
-7.345840 34.758942 3.695648 
-19.336710 2.027625 1.540998 
-27.351524 -0.506424 5.766555 
33.243000 -6.115217 14.832511 
-17.085751 18.871784 10.446487 
-7.729588 27.752268 -8.216306 
22.202436 -6.139194 5.502367 
-27.913872 -11.993369 13.894239 
11.272783 31.481144 9.359893 
21.342531 26.916224 7.639582 
-9.669497 16.338051 -7.629797 
-18.310215 -5.993265 -6.526155 
19.011951 29.858175 16.111591 
11.738322 22.389912 15.951811 
27.854425 3.562023 -6.614245 
-20.387264 6.676569 12.589364 
-11.816289 18.529196 16.242477 
-20.075787 6.569341 8.715917 
0.405100 30.811277 0.073689 
-20.781338 -3.713752 -0.013858 
11.040574 27.891142 5.102393 
-5.100781 30.883659 4.853568 
-0.438714 35.825397 3.150626 
-21.798716 -13.137858 5.527424 
-25.290686 -9.441530 7.451869 
22.293310 8.419931 0.082996 
-29.503601 6.321203 5.884691 
28.484850 13.443790 8.171396 
-29.731960 -5.661416 14.399463 
29.422915 -2.177371 -6.296319 
14.912758 32.773525 13.460096 
24.023979 6.800103 -1.574502 
-20.437887 15.040913 0.357993 
22.575384 -9.128051 5.785284 
0.042018 34.063457 13.179959 
13.005972 29.467049 4.303049 
-16.049665 24.069096 11.461647 
19.662926 15.850636 4.813854 
27.420589 8.359510 5.499085 
-5.713106 37.095024 5.381612 
-2.557508 21.948685 -5.796225 
-13.265637 14.078090 0.441275 
3.982423 32.514805 9.679770 
-20.412027 6.321330 7.207173 
-8.728750 23.675770 13.119759 
-16.504230 7.510113 0.651236 
-2.174361 27.089882 14.478194 
-15.705015 13.163274 11.523767 
25.570721 10.593229 -4.639659 
22.116821 20.629984 12.159474 
-19.164534 18.995951 3.574479 
-13.418396 18.510115 8.886082 
-20.523819 25.126183 13.546275 
22.825195 -6.819597 6.605463 
35.278255 -6.829869 11.646461 
-12.306643 24.671032 12.981245 
-17.950697 26.443319 8.793933 
0.626422 25.770140 3.001848 
-11.790061 24.098572 -3.510158 
-28.930485 -9.775782 9.503305 
26.916597 -12.335642 -0.316148 
-8.897280 17.220284 -5.948643 
-15.609274 21.471067 9.863367 
-21.178232 17.664284 11.609089 
-19.078211 2.995965 12.476069 
13.733391 29.235254 3.908422 
3.973880 28.600157 10.460491 
6.372240 21.507002 -1.870122 
30.898954 -1.413540 13.633569 
-3.700806 38.857620 6.410563 
-29.388214 0.131618 11.846522 
-6.500752 29.121134 9.207667 
-20.655304 13.786265 12.305122 
-24.281017 -3.402845 13.287371 
-10.080257 25.554541 7.870732 
15.098296 25.643208 -4.077236 
24.517584 -10.601018 7.763676 
-3.947845 30.256840 12.814465 
-19.576277 19.506424 0.062245 
-30.021278 4.116250 8.853625 
18.620462 -7.779593 6.005484 
9.432345 34.360237 6.089000 
4.320980 29.938221 6.505177 
-3.096246 25.067932 -0.086902 
25.583855 0.795872 13.292794 
28.415958 -12.711097 12.221952 
-29.164785 -6.701732 14.340332 
-26.212572 -16.889771 4.065080 
-14.042865 12.525172 1.613452 
-3.162020 31.473789 6.277980 
-5.650823 33.425732 7.868321 
-19.591681 12.235090 6.379978 
25.581205 -4.961280 10.010917 
-3.384206 25.869913 0.595028 
-17.820839 7.241667 -2.223804 
-24.422771 -12.973548 -2.498961 
-18.137802 0.286296 5.857316 
16.504486 20.618984 3.607595 
-18.221453 8.930205 4.535846 
23.474123 25.055580 11.994615 
26.689489 -7.954812 8.547724 
-12.212598 23.095596 9.019356 
14.408690 31.849817 17.203772 
-21.431490 4.165030 5.109392 
18.861450 22.764429 8.627029 
14.890757 9.478274 -2.033920 
17.019009 2.309024 0.958100 
-19.263107 11.753969 -1.240112 
-14.443804 20.952454 3.693504 
14.592221 27.676083 5.233922 
15.669688 14.532344 -1.691704 
23.402838 -2.393412 18.187595 
-21.073820 22.281740 7.956900 
-13.431649 18.479851 1.708021 
-14.550503 30.778486 6.717563 
2.879051 31.899832 8.435347 
20.440268 22.788528 5.444560 
25.870245 7.671705 -0.795990 
11.745076 24.559025 0.148765 
8.211599 23.794962 0.005259 
-24.578100 15.410073 9.153765 
-13.713577 29.481329 2.665122 
20.555788 2.555507 -2.385810 
-24.484566 -1.611588 10.731694 
15.230871 25.778736 4.548633 
15.504283 21.636272 3.080542 
25.871265 2.583799 6.008655 
-2.892960 30.968294 9.549849 
5.884711 31.374649 7.639874 
-29.360697 0.760001 7.949997 
9.571157 23.845818 17.488325 
-3.024204 37.730930 8.956903 
-26.702709 5.768450 -1.466541 
21.716333 12.273067 6.454187 
-9.026773 27.320999 -8.205216 
-18.812338 -10.831235 0.502089 
-25.716454 15.894391 15.281418 
