-10.219058 25.447153 5.596276 
20.619711 5.564528 7.361187 
22.923162 10.678168 5.260160 
6.705079 26.042412 10.488689 
1.719967 26.682636 15.095038 
-32.950928 -9.404989 14.774960 
18.572025 9.898907 5.357075 
12.196102 20.870020 10.847680 
-0.921111 27.838940 -5.349389 
-19.091070 11.499003 11.407502 
21.627720 10.666414 1.309053 
-16.810085 -1.398962 2.893352 
-19.082237 -1.753399 7.331528 
7.171845 25.358627 12.012046 
25.069832 -0.710580 5.916260 
-13.959581 21.994078 -0.467223 
9.656743 24.407379 -3.914044 
24.273874 3.551212 13.844007 
-26.428066 6.365264 11.261427 
-14.320784 16.380369 -3.379459 
22.834181 -10.085639 -0.673560 
-3.418759 22.410875 -0.527676 
22.124640 11.426453 5.841606 
-20.378834 17.973269 10.177116 
19.864355 -0.597100 11.926086 
22.749411 13.231140 -1.781546 
31.076525 -4.332006 10.553364 
-19.553572 8.633894 4.615637 
22.188799 5.778190 -3.245494 
-28.267887 -1.732303 12.092568 
-9.784778 19.085405 -0.529587 
-8.397525 24.698334 5.255021 
30.657675 -8.834260 4.474505 
30.504232 -5.167705 12.999570 
18.633066 10.456420 9.196632 
7.047069 22.979401 13.389650 
12.750946 24.368387 10.767403 
19.519157 17.725780 -0.865632 
-9.810511 20.998146 11.232715 
29.190771 3.372466 -2.224601 
-19.208128 7.553144 2.798967 
14.016374 13.427264 -2.597181 
24.110285 8.970144 12.964912 
18.388903 1.866541 14.830233 
-15.511077 17.234077 12.260352 
25.365877 7.713088 3.645673 
-7.877165 27.615328 7.101882 
28.259031 -2.323103 5.904089 
-26.064600 -4.621524 6.978209 
7.010715 20.732470 12.229113 
3.768224 22.592979 10.899841 
18.210320 20.640720 -0.689221 
32.119350 -10.430610 6.240913 
23.782934 -11.050004 4.895941 
-7.702713 27.228731 -3.600243 
-21.958677 -6.114080 -0.021572 
25.196445 -1.739653 5.261829 
-17.369535 17.920706 -0.557307 
21.484257 -0.322027 -0.114614 
24.058506 1.012233 -3.002532 
-19.138582 18.941746 16.616182 
-24.486046 -7.204744 5.231734 
25.419971 8.699270 9.844977 
20.186470 17.745216 14.794719 
6.035206 25.243963 0.284003 
28.910042 5.258379 8.263747 
23.668224 12.628436 15.869932 
22.245907 14.180094 -4.962771 
-16.822491 5.710337 2.102416 
-1.802197 29.353659 11.720263 
-22.232254 10.496065 11.425241 
5.650971 26.834181 15.499996 
-28.333069 -4.797649 -1.356165 
24.003521 -10.252574 5.018250 
-17.563562 13.203081 -0.847923 
-21.089212 8.139990 6.226903 
-19.843191 4.987035 7.011019 
-20.170094 -8.140610 -0.916486 
14.152532 24.170418 4.607753 
-14.368108 7.587186 -1.820963 
-17.076475 19.694738 15.638903 
23.099609 6.301722 9.671391 
-19.289307 -2.737487 -0.486624 
8.017045 26.034220 12.101375 
-22.757206 6.826259 5.010228 
-24.909704 -10.399210 -3.000903 
-15.966075 21.137510 5.749160 
1.523847 27.886442 -5.361096 
15.211164 21.563238 -3.260250 
-13.282639 25.855528 4.053689 
-16.287558 20.620956 6.319188 
22.845572 -4.170021 7.212862 
8.787047 26.220297 2.191550 
-26.634504 3.076733 1.723308 
31.268805 -12.689101 14.322806 
26.768791 0.807060 5.236414 
16.837101 14.683911 4.471006 
17.813623 19.227118 8.521821 
28.438602 -7.879704 7.642170 
21.413733 -5.218251 0.865999 
10.916067 26.442278 2.566866 
25.042669 2.826133 10.697607 
13.793207 15.854308 -0.869175 
20.981604 14.203889 0.373558 
18.512529 10.672206 7.610536 
30.982737 -0.077062 15.127417 
-12.731863 22.802256 -6.999393 
25.785915 -7.729377 0.485861 
-11.766652 27.569715 8.579409 
27.903402 -8.332319 7.085989 
-9.768088 23.819433 7.603713 
-14.575324 16.950066 12.622251 
-29.442673 -0.792742 7.812099 
29.454010 -10.826539 6.737872 
-29.235941 -14.706682 12.677813 
25.597504 -1.388080 1.254398 
-24.511131 8.771657 12.042597 
-29.632360 1.770736 12.053971 
16.701513 23.129576 0.662581 
-22.647062 -12.802550 -0.364130 
21.910681 -2.669926 3.348267 
-3.517969 26.297522 4.517960 
12.521814 25.869482 4.721347 
-7.003098 26.825315 -3.631599 
21.218605 15.067574 10.064427 
-18.442587 20.267271 15.775256 
20.909290 1.760422 13.249417 
-22.282471 -7.538195 10.148013 
-1.172969 28.256802 -1.129038 
24.904192 5.577681 10.820317 
15.683981 18.089685 5.873490 
-30.591618 -6.822376 11.287156 
21.478773 4.799494 -0.244946 
24.893171 8.754104 -1.449602 
-9.068528 19.639654 -3.073644 
21.829447 -6.814936 10.606011 
-23.297369 -7.913228 5.966573 
-2.041686 22.152981 14.351942 
-29.164728 0.100466 6.160753 
17.375299 8.095438 6.911846 
24.686104 8.906495 4.733864 
-18.467194 20.740805 6.714933 
-27.823233 -13.143295 2.976857 
-32.228340 -5.377588 13.022556 
-20.290260 -4.601196 10.567071 
21.136707 -2.869285 8.844604 
16.598911 14.420203 13.351859 
14.965722 19.887470 -1.356230 
-22.533085 -10.781682 12.961080 
2.226672 27.299850 8.023355 
26.913309 5.543749 5.318130 
-22.335386 -0.703772 12.922072 
-18.339146 14.208253 6.737242 
-10.006329 18.916174 -3.106219 
19.020079 19.009350 6.531838 
27.248970 5.472706 11.230865 
21.541323 12.574638 5.093809 
-27.507160 -4.827321 -2.055021 
-10.179486 25.066767 0.855201 
-29.996798 -0.557319 16.139826 
-26.006985 -2.638815 2.036344 
-18.427420 -2.065840 -0.321131 
27.154016 6.541132 -2.735502 
-12.790485 24.384264 7.104246 
-21.052120 -5.444615 2.511052 
25.099953 -4.015984 7.003789 
6.065176 24.529408 -3.101668 
17.627449 8.620676 5.206979 
-13.990559 14.407574 3.845183 
-19.027790 20.414282 7.919065 
-16.281954 11.417531 5.458872 
21.907001 -4.429561 5.211298 
27.260675 -12.600924 3.567587 
-16.931332 6.531804 6.681991 
-25.600101 -1.664427 1.652596 
-11.176497 28.098431 7.988651 
-16.029350 4.678775 0.841854 
-27.961349 -2.564337 10.533805 
-18.540098 12.868501 13.955915 
-23.791391 -10.948564 5.693045 
14.946637 11.354536 -1.390833 
9.571320 26.808016 -3.172301 
6.114743 24.864023 -0.427616 
16.246492 15.018262 -0.391341 
22.493406 2.999303 13.608213 
-21.460484 4.936055 7.708180 
-8.083163 25.626171 10.775165 
7.186647 19.025980 14.891174 
27.622753 -3.149626 1.356108 
-2.776212 26.863464 -7.362888 
-21.762712 14.589158 12.322266 
28.447872 -13.172139 -0.013556 
31.913792 -7.672028 7.044453 
-24.802101 -13.623610 4.805117 
-22.127541 10.591523 -4.581594 
-32.476028 -10.181314 12.883633 
22.249523 0.385774 4.506363 
8.809509 29.201361 0.946069 
18.740471 15.534276 13.442393 
-16.136972 24.823277 11.023403 
16.699272 20.051796 11.190464 
2.991532 27.133251 14.929468 
-29.106321 1.644784 9.932146 
19.725641 19.200148 -5.590761 
-5.427617 19.066380 17.470762 
-8.609430 21.086027 -3.304691 
2.658115 30.274326 7.005168 
27.273869 4.941024 12.946209 
21.091528 11.639314 0.017888 
16.195654 23.033323 4.399371 
14.015276 23.563408 12.399801 
21.332449 16.518057 12.491964 
13.381867 18.357862 -0.035165 
18.169950 21.637964 -5.661516 
-2.040652 26.743637 6.325483 
-26.602764 -4.516906 1.564287 
-23.019825 -9.500741 7.299547 
-10.281418 23.145479 8.756038 
21.238249 -6.353541 11.539829 
-17.447620 21.449804 15.882035 
-28.688427 -11.968160 -0.617643 
-18.428438 -3.437660 -2.605906 
-19.575544 11.827116 12.128850 
9.812371 28.106873 -1.155995 
22.390059 -4.026412 6.435793 
-13.360534 11.698665 15.089155 
25.723057 -12.583710 -2.407647 
23.300425 6.229429 6.879690 
-13.925471 23.070284 13.248737 
31.285353 -3.862886 0.285138 
21.693783 -5.814213 0.115201 
-11.965164 14.838115 -1.439762 
-12.125914 17.342318 11.327564 
-24.911263 -11.922297 -2.610108 
-10.734434 23.561651 7.911188 
19.231050 -0.586777 -2.512922 
13.855841 16.160988 -2.198344 
-25.687357 -2.959486 3.484628 
-6.168332 21.422812 -3.030027 
17.641371 20.900557 2.635194 
26.797920 -13.096294 -1.438675 
-29.750959 -3.251724 8.056979 
16.743395 22.987587 8.522304 
29.249014 0.195009 12.123771 
-20.046505 6.565152 5.302616 
-18.080465 21.960463 12.346726 
-26.571165 -12.583075 -1.194080 
23.158461 0.322998 0.169017 
21.465714 4.082030 -3.540797 
-24.707996 9.282701 11.307764 
27.497404 0.715567 1.964459 
-16.437046 20.979168 14.522979 
27.843979 -10.650150 -2.180959 
31.018572 -5.326545 1.484521 
-24.635458 -7.979762 4.969246 
-8.097248 25.367945 8.554949 
23.512718 -4.709711 9.267621 
-9.634197 23.382650 2.353963 
13.268011 26.145357 -3.640666 
-14.654563 21.251440 13.547324 
28.171677 4.973055 5.365469 
-17.685074 16.990965 -0.071425 
25.680513 -14.577226 12.418942 
24.258158 6.322655 6.220550 
20.782011 17.799829 9.797256 
22.199612 -7.819424 8.199095 
19.199406 3.637208 10.635860 
22.318485 7.026941 -2.398893 
14.130181 11.042448 12.166970 
-33.099014 -10.772031 13.785340 
-5.559694 24.465944 -4.378427 
16.964573 22.288473 -0.873029 
-21.935898 -1.293783 0.463525 
21.774755 7.780747 -0.481266 
13.555902 13.101716 8.135107 
-30.921530 -4.315754 10.537457 
0.413120 26.324003 6.299671 
-19.845943 2.050028 5.210313 
-28.690990 -0.634988 -3.608507 
22.872408 12.893154 -5.024309 
9.448269 26.757597 12.277385 
10.625623 19.566227 8.803671 
-21.205271 17.606464 8.836858 
-16.826906 13.581007 6.003706 
-20.025425 5.341870 6.071506 
-27.487669 -5.646293 6.828583 
-3.116907 20.924097 -2.869781 
-23.849373 -13.753300 -0.602460 
13.312004 18.107569 3.210488 
-16.176981 12.044430 10.630095 
-17.482466 7.422805 0.208468 
-25.752729 -3.267149 12.261794 
-16.354088 10.724050 10.503752 
26.506647 1.619439 0.801662 
-17.245655 11.339479 13.234390 
16.618107 19.088989 9.217390 
8.764428 27.818254 10.171581 
-14.510787 17.374746 10.508901 
18.239698 4.053384 11.852022 
-22.256483 14.359122 6.143941 
-15.761368 8.021539 -0.131539 
4.608474 26.207306 -1.385999 
-0.870982 27.406961 -3.791343 
-19.896559 12.000174 11.072378 
-12.584568 19.171946 4.237497 
19.332102 13.545193 10.301860 
-4.738480 30.025114 6.871647 
-32.220619 -12.974307 15.281317 
11.292781 26.998871 -3.939424 
-11.287251 21.462126 14.068946 
23.153906 -2.084258 0.629683 
-0.241663 27.888342 9.558439 
15.837859 17.557350 -0.457700 
17.373211 5.469933 12.287772 
-4.451663 29.466822 11.381451 
0.005364 23.870077 -1.953042 
-22.620401 -4.410773 1.988027 
-15.490564 20.737202 16.083921 
20.890907 16.247374 16.308434 
7.351131 26.356480 -2.051233 
-4.387487 23.390469 -0.362778 
-23.494986 7.785986 -5.567671 
-30.105438 -2.605100 11.224450 
-22.348261 15.113883 6.880148 
-28.525921 -12.980936 2.491568 
20.192890 7.484091 4.229472 
-27.225609 -11.421656 6.539795 
-23.703882 -12.020804 15.336998 
31.356085 -12.254467 8.724565 
-27.690903 -4.499841 6.656535 
12.091482 23.469677 4.601477 
-5.447306 28.039688 4.163140 
16.559235 18.084330 6.456557 
-20.127502 7.808245 3.291744 
-26.286501 2.129817 -1.961488 
-19.062336 17.139444 1.322438 
21.085625 16.586987 11.387315 
-13.938316 12.474380 10.775494 
-9.910925 22.566181 -4.473359 
21.909155 -8.629046 0.340048 
14.043530 20.663809 -2.652182 
-20.451485 8.186363 1.442349 
-18.436373 4.547270 10.218118 
32.624962 -5.315527 13.157179 
26.683647 0.078221 -1.443638 
11.542263 23.590809 11.271410 
11.042692 26.247942 11.313427 
2.127427 29.579473 11.398483 
32.424847 -8.522085 -2.843591 
15.677724 16.897535 -3.214104 
-23.674269 9.282688 12.331714 
-2.599782 23.316217 15.664439 
-24.378971 -6.265844 1.029642 
8.884169 21.554110 11.504519 
26.477371 -2.621238 5.580209 
7.153831 23.002148 10.192892 
-5.047366 27.157555 7.149753 
-22.437641 14.287308 16.118196 
13.062431 25.079496 6.866325 
18.038511 12.365638 0.108132 
17.148136 18.169340 5.874740 
-19.659410 13.085708 4.486925 
6.504196 27.251183 -3.588813 
-14.933533 12.085906 4.604771 
20.375460 2.861470 10.559021 
-0.924994 27.513645 -6.306353 
-19.815231 -7.297248 -2.194418 
-14.362465 11.063035 4.424470 
-22.654192 -8.973094 12.120747 
-13.005557 17.978731 -0.457306 
11.861135 27.729242 4.177303 
12.382308 19.494375 -1.041121 
28.401731 4.300602 -0.094194 
-26.399902 -14.364559 -0.151498 
-15.852770 24.249411 3.344243 
14.631098 19.341711 -1.850907 
4.018658 20.668688 13.790854 
-8.216257 19.858097 13.547984 
-4.731182 27.132551 8.546300 
17.241257 22.223082 8.534996 
-20.920998 3.632193 5.195292 
-5.893786 28.094549 5.143728 
-3.183058 24.159197 -0.528101 
29.556955 2.139476 12.019792 
-3.895653 27.659412 -1.278840 
27.952932 -10.789506 6.656627 
-3.196011 25.770128 3.096230 
20.040646 -1.716485 -0.806616 
27.130239 -3.884186 9.716645 
7.965123 20.808706 11.541549 
-12.632087 16.342184 -0.839136 
-12.678066 25.567814 11.085145 
2.784605 21.118628 -4.173701 
28.073410 3.171123 -0.714188 
27.986702 3.527267 -1.509564 
21.921671 7.489149 6.159350 
0.294355 26.111095 0.308253 
-28.281931 -3.392938 7.994467 
19.068996 10.564340 5.730280 
15.626112 9.458468 -5.599448 
-1.379832 22.901205 -0.259055 
-6.142725 29.912613 8.172506 
-18.399832 8.830069 1.090584 
28.180349 -4.553632 1.361808 
21.953238 3.021781 -3.548675 
26.746565 -0.651748 5.545040 
22.958729 -8.338047 5.584189 
22.132164 -7.692886 -3.900856 
-5.873200 23.349089 12.244471 
15.115940 22.358616 -1.329916 
-15.742679 18.205648 6.896914 
-19.461008 -2.567277 7.919281 
-18.012100 7.486556 12.065118 
-23.891092 -10.814195 -2.926686 
-28.569330 -1.692062 11.287135 
21.785406 11.400933 -1.832467 
22.606565 1.311298 13.821198 
4.856350 28.158554 -2.693748 
-10.894875 24.912537 15.165170 
-20.591831 -0.322310 -3.697595 
-0.248684 27.903774 13.012208 
-29.755911 -5.151433 0.930284 
15.945724 22.316635 11.470451 
21.264500 0.011097 -3.171309 
16.278915 8.335118 -0.477151 
-27.429028 -8.154775 -2.771135 
7.441240 27.171894 13.525181 
9.733958 24.727032 14.678034 
-29.507090 -12.687232 -3.586490 
15.735091 8.835407 2.007104 
-21.370687 4.982877 10.524652 
-21.624037 14.809536 4.977487 
-22.497515 -12.750034 0.548459 
-1.379636 23.390320 11.046816 
-26.003361 -5.830616 0.970587 
-31.414267 -3.799386 8.675828 
-26.534664 -4.358436 -0.810172 
30.373888 2.154071 12.732871 
-26.984488 -4.996046 6.588696 
8.213655 24.189159 8.125138 
2.066749 25.183748 -0.889144 
-12.543119 17.383989 4.015953 
-0.401964 24.696800 10.377687 
8.979111 25.574411 6.054869 
11.491797 28.802889 3.957830 
25.187073 8.644335 -2.254810 
-17.260214 19.467182 -1.668082 
15.517196 14.568038 3.043476 
25.135103 10.998949 12.515677 
20.622284 -4.910088 12.413498 
6.060573 26.638523 -2.039873 
7.268504 27.630693 -5.707469 
23.792385 -9.084493 -3.245917 
32.475975 -7.595767 9.854521 
26.457129 7.501129 -1.913218 
32.251457 -10.470988 11.046535 
-28.207600 3.815710 8.375129 
12.955543 19.199591 -0.550073 
21.555986 -0.480725 13.391144 
-18.545662 19.144367 3.863952 
24.629457 11.701572 13.094020 
-23.587671 3.242750 -3.162402 
-10.341183 24.429234 5.351515 
31.966951 -10.493484 12.194209 
15.746398 26.685148 0.925422 
-18.737053 11.679548 6.867159 
-16.613775 5.032157 1.223621 
13.542895 22.256945 1.631296 
-18.306353 18.243227 -3.975863 
-4.743986 22.852518 0.220773 
-28.606932 -2.917623 6.758674 
16.135038 23.387442 9.319507 
-1.040351 24.330221 14.659916 
23.638504 8.896991 0.289486 
-30.096622 -3.327885 7.343092 
-32.653324 -11.208254 8.661425 
-18.246992 -2.465374 0.817839 
-28.044895 -1.474630 4.780686 
-19.932293 4.446317 -3.472299 
28.892897 -13.039196 11.340966 
-17.228617 -0.947735 0.575053 
18.635048 1.122794 13.766985 
20.058558 4.806049 -3.437935 
21.596983 15.437559 -4.891344 
-16.042368 7.255538 4.819557 
-17.658352 6.417896 9.912756 
-15.120269 16.781235 -0.201052 
-20.340569 13.243023 -6.090519 
20.274883 14.653633 1.340944 
16.791245 6.396086 -4.128789 
-11.905334 13.221591 -3.748178 
-28.590746 3.501076 14.533713 
-28.837362 2.627754 15.467257 
19.008400 1.799702 4.178588 
6.302524 28.093861 -3.675046 
23.875904 7.542173 -1.710300 
16.729982 15.105788 6.749131 
29.852280 -0.558966 8.699404 
25.449474 -1.369505 13.783830 
-25.065439 0.206453 0.580483 
22.611883 8.189352 5.616717 
-23.572599 -13.750419 1.020873 
15.809626 20.188425 5.858110 
-26.803274 2.496650 2.409548 
2.785249 19.789787 17.510855 
-13.489158 21.319134 8.279230 
-11.569136 14.390585 17.153990 
-20.647646 17.698189 14.754428 
25.250078 -4.479976 5.506430 
17.787830 3.394658 -2.667782 
14.380463 19.892647 11.325167 
-18.473240 -0.577596 13.207664 
0.564872 26.238403 2.920351 
24.026279 8.790713 3.614837 
4.479721 26.776293 16.099325 
-15.596709 11.585251 6.596362 
22.167444 5.178348 7.646656 
-13.289350 13.582870 8.767136 
-28.292080 -0.582289 -0.946813 
30.318012 1.015958 -3.525449 
26.389256 -0.787647 13.889219 
22.393236 13.521417 6.129750 
-24.074472 11.679462 11.867384 
-3.638440 23.425900 0.362020 
21.019857 -6.792313 15.644750 
-26.211699 -10.959894 -2.738666 
17.469769 4.272213 16.416538 
15.345251 12.632888 12.704009 
20.235907 4.842322 4.357751 
-2.927018 26.912430 6.469331 
-28.400341 -2.982665 1.076956 
13.897006 25.762300 -4.817922 
-25.684839 -3.907036 0.693583 
22.383411 -0.929127 13.540449 
-19.158508 -0.586374 11.889677 
22.501312 13.864683 -2.668563 
27.114513 6.820241 -1.530983 
-8.081014 17.502768 -5.446548 
15.306100 14.884021 13.012517 
17.834015 12.811476 6.193847 
-8.498478 23.417120 1.031921 
-22.351595 -2.058759 -3.052763 
30.253139 0.891141 -4.712671 
-1.025148 26.090670 -0.956518 
14.516092 11.968156 11.418183 
29.200275 4.467259 9.485530 
1.804050 19.967379 17.524378 
8.381572 27.133112 -2.647119 
10.658817 23.284924 13.869628 
13.710786 14.098408 5.759591 
-1.483208 26.190376 4.155224 
16.014748 8.077253 -2.655833 
-10.777866 25.953115 1.102135 
-20.151070 13.196216 5.546531 
-2.715950 27.331789 15.139104 
-16.988199 11.467431 -2.336209 
10.205768 17.763353 10.881619 
-25.026196 8.715631 5.141767 
-28.861155 -12.467449 4.216593 
27.835596 4.830810 1.501300 
30.712179 -3.948293 0.994331 
-24.457226 1.018583 6.563309 
-18.592676 8.048355 -1.472735 
23.428858 -10.918361 -0.778767 
-7.132427 26.139811 15.828496 
29.179943 -11.415704 7.232747 
-19.828501 -3.446415 5.277633 
14.801452 25.853413 -4.305252 
-2.152889 26.152878 9.058108 
-16.355932 14.444851 4.200817 
-27.207651 0.190678 0.223655 
-15.795987 16.623016 10.480198 
21.242920 -4.022298 2.561868 
-21.683714 -2.627233 -1.889881 
-16.271271 9.462348 10.480607 
18.805058 6.379824 6.021514 
25.950176 7.798035 -3.280790 
-24.348434 10.423918 16.894547 
18.479033 16.466093 13.381912 
14.875047 22.717726 13.273657 
21.084520 -1.898771 6.115012 
-18.961914 -1.092499 6.278511 
0.533110 27.862068 13.639089 
21.436604 15.595181 -2.790162 
-3.415301 29.905628 6.065696 
-0.533327 26.985052 9.219848 
26.806669 1.482828 -2.034317 
-19.932058 15.050914 -1.323518 
-3.159845 20.482296 14.732408 
15.611973 20.410398 13.529131 
-27.390604 -1.926012 10.199646 
-14.829648 11.588451 6.966724 
-25.754721 -1.297708 5.351151 
20.780233 2.376210 4.670640 
-15.937632 5.599218 0.914438 
22.211830 0.556206 -3.238561 
27.723518 -3.255934 9.612298 
-27.224491 -13.763556 8.989817 
-8.597134 23.723703 0.260911 
-4.880403 25.333450 13.518912 
-32.821903 -6.392309 11.265067 
30.356453 -6.263894 -1.354692 
20.936165 15.471601 11.882411 
-20.826689 -5.385888 10.601818 
26.511169 6.882597 -4.280199 
-19.246862 2.598632 10.403358 
-9.668045 21.725368 1.092766 
-16.773899 13.690184 1.028799 
29.306765 -6.146337 6.377485 
-10.872300 26.896929 12.060890 
21.799467 -2.016725 4.826549 
-8.951636 21.853895 -3.768811 
-5.474589 24.000675 2.675031 
-28.780142 -2.422932 5.996147 
-26.820190 -8.684442 -2.925055 
-21.023972 -7.112496 14.400333 
28.592533 -4.562332 6.625460 
-0.959132 23.976440 1.095893 
-18.405615 -0.335410 11.790156 
-19.016380 -1.441953 15.091484 
-22.884211 4.730377 9.542763 
-26.240244 5.137153 9.446879 
19.275940 5.853626 -1.383817 
-13.983645 17.705463 4.472622 
17.274910 19.986021 12.005178 
27.320539 7.002084 15.416420 
-17.870377 8.333113 -1.878463 
-22.419287 14.601766 7.615538 
7.865165 29.061796 0.464099 
12.497002 21.322308 0.238438 
23.848856 -9.112185 4.872956 
-3.987733 23.281366 15.856432 
-6.872373 23.249168 11.284100 
21.506544 -4.407145 0.095316 
-10.554479 20.402792 1.235392 
14.368915 21.765743 -1.012677 
17.509243 18.733551 9.479038 
-24.025057 -4.168254 0.723883 
-9.487363 23.881165 -0.707093 
-6.613461 26.556164 7.570914 
6.324048 27.582985 6.719674 
1.624932 29.228659 5.483320 
1.417868 26.227463 12.510507 
-16.467422 8.127716 4.950333 
23.214432 -6.403020 9.700234 
-0.853884 26.199951 4.608079 
-20.195478 5.280427 -3.214939 
-19.940420 -0.143962 12.266449 
-3.776402 20.772625 13.789457 
24.720558 1.683006 6.173744 
20.846008 5.819242 12.087464 
-19.871000 1.277635 12.187364 
-26.757788 -12.045362 6.383562 
15.084433 16.076967 -0.094720 
-11.647721 26.414724 3.560638 
28.024143 -8.650640 -2.536606 
-22.477407 9.510841 -5.732863 
15.741112 19.797338 11.274856 
19.933098 17.389797 16.387281 
16.654692 9.135611 11.208700 
-4.845103 23.620331 10.511958 
-21.529978 -2.099735 -3.180732 
-12.287131 25.786131 11.774993 
-21.623688 3.856001 5.780035 
-0.987358 28.605764 4.394104 
-13.926575 9.514776 1.393926 
-17.430717 18.969049 14.067095 
-17.384275 15.608454 5.861670 
14.797658 9.658267 15.268164 
-25.521330 4.106385 12.405308 
-10.175844 23.462780 12.239690 
-24.699158 10.723493 8.457745 
16.540833 19.802315 -2.699700 
17.022961 18.136866 -0.511457 
-4.520517 22.210197 12.153951 
-25.705761 -4.766092 11.674707 
21.320635 16.570442 13.442104 
25.967714 5.602689 5.859170 
14.018079 12.995081 5.831141 
28.070671 4.090642 2.372749 
-28.781553 -2.453628 8.118401 
-15.112554 17.271416 5.824401 
25.667459 4.849520 0.139723 
-23.592152 7.032188 2.370304 
19.574755 18.488153 5.553904 
-24.656788 -2.337224 6.112719 
30.571342 -2.884940 0.432902 
-26.264296 3.372217 0.111318 
28.005693 -2.964418 8.548630 
16.178333 11.502516 7.062120 
-25.030005 -4.139481 0.175192 
19.691740 5.693089 11.128044 
-4.580906 24.666126 0.922203 
19.092094 17.719410 3.498693 
-7.004683 28.840668 5.770508 
-21.945696 13.527175 6.079307 
21.278297 8.977556 2.674778 
16.852926 21.383404 2.245759 
0.048576 26.762199 10.737161 
-20.178337 -8.302159 -2.248295 
-20.406622 -1.731322 12.236980 
-14.654391 11.374538 10.756317 
-14.403001 7.434754 -3.400066 
28.936861 3.515139 13.212068 
-18.232992 16.511520 -6.402945 
2.002675 23.867252 11.158953 
-17.561724 5.572989 3.843686 
-12.399843 23.452467 5.779013 
-23.511957 8.894796 10.278458 
-4.656644 29.912638 6.050802 
25.460724 8.772365 10.788895 
-11.680550 24.495413 -4.852897 
26.048477 9.287601 12.335797 
-19.188086 13.446978 -0.269854 
-11.718935 23.105873 4.525900 
-27.334005 -9.869548 13.675373 
-29.157282 -4.189874 3.432749 
-18.094185 1.421073 13.651629 
23.709536 10.999415 12.183713 
6.169637 25.379185 1.099699 
27.897930 2.072009 13.955605 
24.091705 -7.176666 -3.364648 
-25.761341 3.796754 3.673052 
19.729786 12.006253 6.318575 
-15.728943 22.748230 1.626008 
-21.431664 10.144964 5.757030 
0.635509 26.587948 13.569375 
-23.003868 -5.193524 -0.366566 
-18.847202 14.890453 1.395659 
-28.125322 0.547814 -2.853787 
16.098778 7.242123 16.624212 
11.352432 24.370520 11.338316 
29.576000 -3.348261 10.090646 
18.679529 10.507300 0.119266 
-22.549719 10.026299 -2.320322 
24.719357 -1.754428 13.654046 
-27.580460 -12.991940 12.583390 
22.794361 11.627185 5.331933 
-19.601881 -2.343246 16.003195 
3.311828 22.507500 13.475491 
13.869255 15.258932 9.752980 
-19.487989 -3.376547 13.830525 
-9.432517 25.808193 14.331177 
-1.386702 25.928226 11.365252 
17.427832 12.225975 -2.837739 
18.464060 1.167753 -0.061108 
11.633133 25.138083 -0.805328 
-15.456952 16.040411 0.243287 
21.656635 15.864873 14.393453 
21.933140 2.352447 13.552511 
-27.567915 4.303653 5.617033 
-7.416917 24.416269 10.988558 
-17.724293 9.542835 5.021778 
-10.668377 24.585884 14.344648 
25.933790 -9.790393 6.120977 
-2.450626 23.710569 10.616117 
19.191601 9.479465 9.520030 
6.871190 29.074469 4.353127 
27.720552 -1.442054 1.431019 
24.449034 -5.734049 4.707199 
-17.526602 3.722262 -2.658296 
-14.491307 12.592286 1.537278 
22.804676 2.680120 4.503086 
13.618639 17.314585 3.082666 
15.521258 13.140587 10.427762 
-18.638710 -3.534425 -0.568836 
-18.031847 2.475831 -3.624905 
-12.858806 11.422541 -3.211662 
15.717916 23.835524 7.737035 
-17.788313 4.724785 0.625115 
20.916950 2.526481 3.680992 
5.167886 28.456156 12.094687 
-7.723938 23.853386 -0.297097 
4.334246 26.185976 17.261530 
32.214520 -7.127528 13.017344 
22.677092 -7.193677 10.781196 
-6.725310 25.777185 13.281990 
7.669812 25.087568 10.491037 
-24.276798 -4.615632 -0.583464 
6.815016 23.288836 -2.027078 
25.544256 -5.119421 12.855794 
-24.907324 -3.199332 2.810147 
-17.397928 9.344882 8.022799 
8.935328 17.024206 15.906386 
16.432486 18.362030 -3.152147 
18.672586 21.372196 -3.790632 
26.688591 2.636149 6.002202 
-17.452602 -2.788698 3.227427 
6.766849 25.252829 -4.435993 
-23.078997 7.688107 4.533662 
24.601709 -4.592547 0.708834 
-20.668360 12.004577 1.746705 
17.741354 4.010102 -4.074693 
-30.111685 -8.570966 6.084512 
27.027895 6.565871 0.234109 
-27.496178 -3.689630 6.436646 
-5.042315 29.451971 5.546187 
-17.346189 11.074298 7.874057 
-11.371072 26.234882 4.548390 
-17.977989 7.876282 4.738815 
21.918913 5.677361 4.694646 
-19.161190 1.878772 4.225701 
-7.556382 26.577230 11.042892 
-28.212458 -5.929643 13.497869 
-10.098561 18.881081 -2.127785 
-17.571651 8.408442 0.990382 
8.034738 25.924791 2.221303 
-27.499201 -3.913348 1.388744 
-25.978703 -12.903489 -0.398712 
-11.264931 24.599590 -6.116122 
-18.416435 18.596561 -0.809997 
18.203527 -0.641850 3.866341 
-23.996580 -13.403380 12.329985 
-5.850739 28.480835 12.881707 
16.957047 23.553356 -3.027157 
29.190102 4.499331 8.653395 
32.170521 -10.421961 -3.600269 
15.963789 8.703055 -5.524464 
-4.406365 19.846544 16.185656 
-6.123314 28.077911 2.362082 
18.558161 2.586353 -0.642545 
29.192686 0.781585 4.933768 
22.452793 10.606037 12.803715 
23.127195 -9.280662 12.685183 
14.883165 24.431255 -3.469795 
16.639170 7.113996 -5.366845 
30.528627 -5.813886 4.406272 
-25.907875 6.155853 6.772192 
20.903622 9.942432 13.123963 
8.241791 27.851496 9.604522 
-26.018518 -1.561253 12.773503 
-24.123629 -6.438670 12.662422 
-19.789465 3.419677 4.445557 
-17.328623 0.495748 -1.106500 
-16.336985 7.133609 11.738572 
28.357269 -11.482545 11.078338 
12.548980 24.215473 4.416908 
-3.532781 23.499071 11.655845 
-26.799904 1.123626 -0.762627 
-10.902723 27.656475 6.304158 
-13.701709 25.448681 8.946382 
16.413589 22.477730 1.636664 
26.815844 -12.954816 -2.330056 
20.123156 17.639973 11.893476 
-9.117882 18.245108 14.648247 
32.866806 -9.638297 9.194910 
-30.673021 -1.435549 13.164219 
27.736658 6.491187 13.375035 
-27.068052 -13.523311 2.752757 
6.572146 29.886992 7.830838 
8.491831 20.468796 -3.630026 
24.711498 8.217735 0.385921 
23.727882 -11.604443 -1.284523 
-26.347673 4.226269 -0.823978 
25.477100 -13.010644 10.205894 
28.689991 4.809724 11.223520 
18.669014 1.261301 12.810925 
12.480238 15.473770 -3.601929 
-14.974751 22.571367 15.805455 
15.189827 13.230453 2.620161 
-20.833704 5.023006 7.037775 
25.153786 10.938594 13.939725 
-19.760033 13.499301 3.248793 
10.920790 15.253805 14.456458 
-18.646719 -0.771973 4.552090 
17.761150 8.227826 0.580612 
9.683213 22.853683 10.066991 
0.748431 27.445911 4.892243 
18.381397 8.754356 4.838340 
-18.927217 -1.742877 8.150491 
-15.971907 14.191809 5.038812 
14.058656 17.810059 12.648600 
16.785593 9.179794 -0.697028 
-23.817333 7.466165 4.451431 
-24.320719 0.415738 13.153640 
-31.004641 -6.532448 -3.322090 
16.518408 25.813839 0.922219 
21.581318 -3.146762 9.604067 
31.564295 -2.615422 -1.410151 
12.134028 20.088985 -3.464370 
-26.848522 -5.189803 -2.357500 
-17.960501 23.213333 10.338250 
-16.183990 17.459457 6.915875 
13.711115 20.542587 1.393719 
22.585894 -3.430393 11.642831 
23.645329 -8.303947 4.879986 
-15.755595 12.900206 5.136091 
-24.698912 -12.743067 -0.427678 
-6.928527 27.941198 1.964604 
-6.664750 29.893808 6.837314 
18.153458 2.846055 13.654586 
-21.537571 16.450554 14.955269 
20.828327 9.954242 5.072403 
0.108890 22.099295 -1.802482 
-0.937442 25.445457 13.720392 
20.629780 -1.796681 -0.026403 
17.642820 6.631443 3.954573 
-25.654955 -5.184369 5.617259 
3.094791 28.163570 -4.269294 
5.791451 26.966425 2.225539 
21.727551 -3.725987 1.893566 
23.152597 5.574902 -0.013603 
-17.315161 20.654726 15.597797 
0.381432 26.366045 1.152449 
-15.009859 12.892319 4.862746 
17.075346 18.257462 10.069287 
23.524675 -6.115781 4.550345 
-28.364746 -6.916625 -2.341815 
23.603212 9.550204 13.133596 
-13.831354 8.373356 3.051564 
22.516272 5.519957 6.915422 
-28.274084 -12.612475 1.437550 
19.314892 3.541357 -2.730047 
30.151308 0.644687 8.558328 
-9.541946 27.901590 6.534492 
7.951340 25.686035 13.688195 
-14.173495 8.341986 -5.590638 
7.255216 26.664982 15.119959 
-20.263851 -8.323481 -3.063727 
21.219631 6.562712 -2.541865 
7.518826 20.286900 -4.733484 
-27.091871 2.677827 5.465718 
-12.656949 17.054762 -0.262105 
-18.669388 -1.397971 13.401055 
19.911144 0.750724 -2.990788 
18.520678 7.925796 12.070726 
-30.025526 0.686900 13.566982 
-30.983564 -7.002189 0.384175 
12.226685 24.653435 2.624769 
18.276628 19.255308 6.346572 
12.851848 16.090080 1.518623 
-16.146429 3.459389 -5.119967 
-17.626398 14.238396 1.820679 
23.431564 -4.160828 4.908636 
30.813965 -6.057761 3.729318 
21.403893 16.861557 9.727988 
1.049904 29.338076 11.353784 
-16.665030 6.469476 11.422948 
29.644192 2.049310 -4.827943 
0.295598 25.155607 12.499291 
-15.638854 24.425526 6.022901 
22.510923 -1.581706 5.112209 
21.373312 -6.422518 4.361885 
-4.921405 26.855309 1.786438 
29.410723 -11.483809 13.367779 
-13.749410 20.674915 12.271307 
-25.099531 5.614495 5.783503 
6.273651 25.098049 9.552542 
-20.531183 14.319018 11.447373 
18.312515 3.014321 12.642662 
-17.811497 20.395342 14.756230 
1.151820 28.163744 -3.339697 
26.904854 6.019397 -5.225274 
4.247373 24.952517 15.269891 
4.489318 19.269484 17.472677 
29.524031 -13.828354 15.146294 
-14.240448 12.595914 12.446906 
-7.338726 18.624548 -4.063772 
-15.338686 22.493456 5.843382 
8.519917 19.642387 12.250766 
26.034515 9.311229 14.867596 
-13.018645 25.149281 6.528305 
-12.840978 23.589577 -4.905783 
21.714899 -3.658501 6.626352 
26.775599 5.019217 3.878361 
-12.425848 20.586880 -0.214960 
9.184321 27.228050 4.063392 
-21.670021 -2.552687 4.942050 
-15.076299 18.820662 -3.166346 
22.255526 12.941443 -0.537638 
22.226358 -11.677064 2.635951 
13.285420 15.975276 10.128123 
-20.154699 -2.136586 -2.508127 
-3.444498 28.395981 2.427032 
-14.622714 7.330108 -5.493231 
14.924523 10.739454 -4.602905 
-29.270227 -12.968972 -2.271836 
-13.498194 14.811010 -2.511538 
8.730722 19.842016 -4.436036 
24.669249 -4.980281 11.554638 
-15.693445 3.874179 -1.207124 
0.974718 22.400461 -1.617602 
-20.177929 3.265592 9.567411 
-12.125733 27.502361 6.744454 
-31.697226 -3.828186 7.701211 
-24.723669 1.262781 10.495024 
20.141912 6.690817 9.988848 
21.562935 15.561642 11.420133 
21.369146 -4.700706 1.437471 
-17.350666 6.958271 4.528584 
-22.186033 10.856112 10.560195 
-26.318682 4.705236 4.902711 
-11.452964 24.434885 16.765396 
31.416319 -10.675684 5.934538 
-17.009764 -1.257866 1.363933 
27.779671 -6.591462 -2.676615 
-9.378403 24.777523 0.565162 
29.485779 -11.193757 3.201589 
-21.016411 -4.995044 3.653293 
-24.575516 11.094066 12.132119 
13.536237 20.774145 -4.572303 
21.645117 14.960730 6.108644 
-4.172202 25.846622 0.899565 
29.527617 -4.286631 12.791604 
-1.840654 25.361706 11.993763 
19.383154 5.898903 6.774877 
-24.405338 -7.502757 10.028861 
18.467623 16.249044 3.509887 
0.757056 27.181789 3.788552 
-27.152008 -14.826551 15.146625 
29.609722 -11.143590 0.155385 
1.998173 30.328960 6.577281 
15.828101 13.260825 13.013773 
-0.711418 28.507063 10.016817 
14.385695 22.239233 -5.268964 
-24.912249 5.314265 -2.011755 
-14.180781 23.716623 -2.557213 
13.024313 19.432245 1.212007 
-1.490092 24.155310 -4.044232 
4.955420 23.890928 10.987960 
10.782716 20.209902 13.006042 
10.581697 25.044580 16.161827 
17.815996 10.693814 4.424844 
-8.075779 29.165350 9.250434 
-14.472101 15.610952 9.696232 
-8.852544 21.440918 -1.842510 
-7.232088 25.458668 10.970805 
29.376780 -7.744077 13.744061 
16.053656 8.015534 -3.465130 
-13.800264 24.763865 6.723458 
-2.404938 21.693951 13.403312 
-20.857397 5.425708 6.152870 
-12.898829 24.653252 13.921857 
-7.102416 18.767246 16.374357 
-9.398356 24.400057 15.964459 
-32.840847 -6.539236 9.925897 
-27.072346 6.193209 14.045328 
-23.779383 7.036090 1.549023 
-10.088226 16.010672 17.264540 
-24.242502 -11.583566 5.361687 
-29.285515 -1.741578 -3.503840 
-3.869760 30.085306 7.833949 
12.400788 20.540817 6.712020 
2.593946 27.781725 13.867418 
17.674463 17.349543 12.804544 
-3.038450 28.489958 6.095652 
30.530350 -12.979653 12.463709 
30.401196 -10.167920 2.475367 
-29.720631 -3.599856 9.722651 
-3.321489 21.991085 11.598650 
19.312695 11.203511 6.097753 
-4.304406 28.041941 7.155893 
-16.949860 20.223625 -3.531250 
13.279890 26.036476 -5.673688 
-25.813103 4.409682 -0.219282 
-28.707611 -9.415235 -2.283858 
21.337835 13.938607 7.596629 
-0.474826 28.883205 6.900299 
-29.378962 -12.525707 6.374344 
6.452428 27.401161 13.608188 
-25.942427 -12.642601 1.956481 
-20.402031 9.906385 -1.205186 
10.045263 22.727734 10.888922 
28.024191 3.657628 3.065669 
14.572975 24.062237 10.333134 
-25.156950 -2.985667 4.083974 
17.602163 6.685883 10.339266 
22.245413 -4.185423 0.506134 
16.770157 6.666958 -2.225184 
25.015186 -12.345666 6.425506 
-4.243773 26.189617 3.625016 
-19.232828 -5.348296 -3.200030 
10.326832 23.316431 9.884823 
-10.857895 15.014973 -3.950414 
25.857342 -11.892762 5.443942 
25.400965 -4.511171 9.159072 
-0.933636 25.462681 10.869576 
-15.933657 11.628459 -2.194304 
-15.438217 17.501577 -3.532814 
14.860340 16.371305 9.994148 
14.143283 18.532835 13.126746 
15.558372 21.392933 13.510562 
15.888886 17.756388 -3.252776 
-23.105762 -3.828066 2.466913 
-5.061118 24.330786 9.973987 
-11.344901 19.139704 0.008852 
24.308565 3.941848 10.461424 
-23.989161 -5.131609 1.553940 
-27.930138 0.536384 -1.317454 
-17.472700 19.156349 6.295401 
13.777352 22.463367 13.985493 
17.246901 5.372555 13.097000 
-24.834759 -10.866928 5.279384 
22.126640 13.122465 1.120288 
10.263924 21.060648 12.743625 
-13.066958 10.626614 -5.810253 
-7.266368 23.581427 -4.167322 
12.889177 15.915992 -1.336089 
13.308747 27.122652 -0.614662 
19.608543 0.264093 11.526484 
-17.896225 4.734938 -2.145901 
-26.443745 6.940990 12.100402 
-2.976343 30.182600 7.986665 
23.645098 4.304741 5.434984 
-11.689679 14.588032 15.748814 
-16.734779 6.526541 2.455641 
22.392349 14.641783 12.789900 
-21.901644 11.960464 8.242270 
8.544653 24.629866 -1.856887 
-2.501151 27.911993 -4.564328 
-28.771664 -10.351680 6.716371 
-18.102428 13.841444 14.248459 
20.996695 -7.558480 13.406604 
-21.967087 -8.227573 4.798410 
26.632380 -3.908030 11.277869 
-20.506405 3.262274 -3.720342 
12.692643 16.880478 1.044705 
-28.808903 -6.517504 13.646629 
26.276035 -2.967995 9.835361 
-10.881498 14.137444 -6.146106 
26.554470 2.736910 -2.296996 
12.939415 18.831360 13.316044 
16.142052 8.117629 13.084866 
17.045340 23.867956 0.854834 
-2.598689 20.380461 15.401433 
22.822598 4.303743 5.189960 
-13.455089 11.840044 12.364065 
26.651804 -9.212892 13.751037 
13.509855 13.200937 7.352492 
30.175331 -9.994855 -1.185842 
31.798084 -6.370292 0.923378 
-22.488873 -12.426116 2.022451 
24.968433 -11.886056 -3.481390 
-14.829424 17.693640 14.658147 
29.092070 4.438893 6.884370 
-16.257967 13.223515 0.521803 
12.195079 17.293032 12.086134 
-8.341223 22.504988 11.804102 
-22.932169 10.075570 12.092739 
29.302530 -0.400864 11.406548 
-21.783430 5.153958 6.880786 
-20.380165 10.307436 1.877215 
14.981041 14.944100 0.137335 
17.130093 21.495205 5.448962 
24.417799 -10.650672 10.213930 
-3.492963 25.328930 0.812001 
12.306511 18.401608 2.158826 
-22.619839 9.739573 -4.433173 
26.576229 -5.014622 0.962287 
1.736843 27.378267 -0.746523 
30.307835 -1.723017 0.049663 
-15.656260 22.858904 15.198803 
30.621872 -12.285205 7.026374 
-21.026506 -3.355225 11.926838 
21.169088 -4.524180 4.868822 
19.433689 6.719220 -0.405563 
-27.230249 -4.504758 -1.127276 
20.219444 18.734455 -3.695223 
4.603024 24.562952 -1.016502 
-24.908735 -9.898889 10.036079 
-16.888784 8.538150 9.774147 
6.999139 29.099966 2.291730 
-8.455372 18.681740 14.860888 
-14.957182 13.697751 4.730453 
-13.426467 22.815739 17.740633 
4.164786 26.984369 14.547707 
28.410669 -11.604403 13.409247 
25.964327 6.717075 -2.044021 
-23.335768 0.939604 13.095982 
11.253456 24.396187 7.908025 
-15.307670 23.328611 5.787203 
30.347073 -8.281472 13.628489 
16.126181 15.043502 3.926210 
24.548880 -3.897879 9.682706 
14.859313 10.861665 -3.619194 
10.497927 24.499731 7.188751 
-0.324531 27.770241 11.789300 
20.691538 9.118423 10.270054 
-1.018147 27.452232 12.392978 
-25.645063 -12.935075 12.253998 
26.814280 2.392868 14.078003 
-19.407303 18.404448 11.354417 
11.475188 20.670843 13.462135 
8.110387 27.158611 -5.032011 
-26.799438 2.094395 0.703406 
17.778309 3.548684 14.906340 
-12.973722 24.842592 9.001136 
-29.055548 -4.699264 1.196788 
-12.796201 12.783334 -1.215161 
28.283815 -3.760483 -1.250373 
-8.983142 27.104334 3.202138 
-3.673361 27.454733 6.899831 
24.307669 -6.238724 5.992599 
27.358772 7.127397 14.353840 
26.593433 -0.854325 2.948467 
31.618900 -2.146979 13.286342 
-30.612652 -14.051943 12.871535 
25.414944 -13.048423 0.818396 
-12.048497 19.486853 10.441882 
-14.157169 12.715557 3.039123 
-14.030165 14.572234 2.125716 
-9.678061 23.376028 3.229438 
-26.170639 -9.022060 5.746623 
-11.881785 19.977644 1.046936 
17.660427 3.714223 -1.596903 
-18.484619 9.640812 10.041903 
-19.353258 12.036843 0.905222 
20.207911 -3.286971 15.888875 
3.140213 28.259310 -3.469846 
21.400023 10.486298 -1.874936 
-22.605883 5.254602 5.719452 
-26.919119 2.092373 -0.345448 
24.372812 -8.450440 -3.305170 
26.008623 1.863970 6.428539 
-19.367819 -3.428218 12.997769 
-14.842627 6.799924 -0.892450 
-13.646579 24.224018 14.164851 
-24.420055 -2.745844 2.089734 
-2.353075 20.998991 -3.155090 
-0.255966 28.712231 9.104616 
-20.630701 16.124413 4.646143 
4.931813 29.984449 7.890195 
-8.955115 22.655575 -2.067519 
14.751172 22.892670 -2.278415 
19.833735 0.114399 4.987230 
-8.834719 21.836512 15.186985 
-18.190096 15.136497 1.855622 
30.722052 -8.678945 6.482365 
29.914680 -12.974752 10.192119 
22.395334 3.196987 4.958094 
23.281895 -1.793452 13.491394 
-17.025181 -1.292894 4.262639 
27.381191 -3.218647 0.586201 
20.696280 9.926704 0.831464 
-14.598388 16.069672 6.870111 
13.487653 24.267252 3.678176 
18.080414 2.093825 0.029078 
-11.227130 23.345711 8.516887 
26.667974 -14.017401 7.608427 
-10.850511 18.084625 -0.692422 
19.817469 -1.977858 4.780704 
17.267517 6.505769 11.195183 
-20.305962 5.869223 5.555429 
-11.363186 20.413067 1.501132 
-30.885260 -11.216455 13.100493 
-8.802375 22.570927 -3.301018 
-15.791539 4.437241 -5.214365 
28.588860 -2.138571 9.050228 
-26.086740 -9.578477 13.502981 
30.137983 -0.180423 6.958841 
11.096294 21.611214 -0.893874 
7.214244 25.401735 -1.619367 
1.271495 27.318275 7.716781 
23.146027 12.421799 -1.945492 
22.393427 -10.884623 9.848072 
22.657328 -10.646713 0.203589 
-7.552766 26.906834 -2.695746 
28.963490 -13.855644 11.580219 
22.063406 -9.674061 8.899194 
-2.284734 20.637705 -4.171310 
-5.322725 29.388292 11.411794 
-26.451263 -3.833379 0.989414 
-9.981870 22.565125 3.262736 
28.152012 2.254227 2.989809 
26.284914 -6.073124 10.258540 
-28.095114 -12.387185 -0.235865 
-17.957539 -1.253693 4.704973 
29.420311 -7.078491 6.460531 
-0.109411 26.947508 16.398939 
8.484436 23.670824 8.968988 
-28.373856 -12.751898 9.828230 
27.204704 -12.455559 1.590175 
19.925062 6.783197 3.923743 
-4.271593 23.424284 -2.446191 
4.743951 22.343733 11.173401 
10.952626 23.826176 0.395468 
31.428780 -7.948453 -0.603781 
-10.775339 17.820665 12.750858 
10.550946 21.844351 12.155970 
-18.950539 20.975090 7.351102 
20.950418 5.545022 8.993312 
-0.985039 24.553501 13.890491 
-12.192420 23.133560 10.521779 
-21.228714 -0.831839 -3.556674 
-5.699667 26.781137 -6.270304 
25.049007 0.205715 -2.515113 
-2.345608 23.057690 11.065643 
-27.423061 5.387815 15.216889 
30.363501 -4.584975 2.284884 
11.752681 28.285522 3.335122 
-31.070436 -3.722245 15.921624 
-20.087959 0.984109 3.855404 
1.114267 22.739508 12.227761 
-30.870872 -11.083758 -3.747834 
23.063074 12.324573 9.705936 
-25.914099 -13.878590 4.075652 
-2.044960 28.243568 -1.566857 
-20.628431 10.864629 3.035450 
24.190245 -9.247938 10.194509 
-13.257202 14.364278 0.670671 
-0.422821 28.077293 -4.300203 
-20.933533 2.987695 10.432409 
-24.425526 -13.344795 -3.505098 
-23.357817 -12.854180 5.210905 
-27.148422 5.771667 12.091719 
-23.631025 0.742282 6.318577 
-15.151489 14.757572 1.619733 
-30.262421 -4.025880 -3.385383 
-0.844975 25.607832 3.242021 
20.312805 8.389633 4.109866 
-5.880991 19.969648 -2.475845 
30.205822 -12.816391 -3.372810 
14.915978 24.247646 8.239475 
-26.223249 -14.453904 0.593758 
7.267678 27.155636 7.118049 
-28.986336 -8.088331 6.957954 
22.404150 -7.681819 11.807995 
-20.587940 13.493014 10.658959 
1.986785 26.826000 -1.327855 
19.090994 0.108521 16.125755 
24.126902 -13.031517 11.555890 
31.543821 -9.892578 5.862555 
-25.278271 -3.061240 5.777117 
2.535771 26.923269 -2.028924 
-25.832745 -5.948980 9.998580 
17.781805 21.428392 -0.737843 
-9.632414 22.678053 1.511968 
-8.348638 28.761093 8.651585 
-10.000555 21.784443 -0.490445 
-15.762819 1.665037 4.100677 
-26.734077 -10.659124 6.469394 
28.110605 -3.929385 -2.035224 
9.586974 16.800776 14.106025 
-10.507038 20.800770 10.855866 
6.303529 29.940687 6.111462 
21.546047 0.017213 4.670553 
-17.752666 15.350634 2.599478 
27.069153 0.108392 5.428406 
24.908911 -1.868744 10.148291 
-9.761930 22.511797 10.595207 
18.831049 6.642812 0.219585 
-28.912003 -5.559848 6.826260 
7.217229 23.990601 10.529717 
28.566570 -2.625113 10.217326 
-6.062358 26.593075 15.558739 
-24.108120 10.871666 9.047256 
8.296044 26.510944 2.882265 
-19.388105 8.356560 -0.485199 
-24.215693 -4.861819 5.830238 
23.543198 0.042620 -2.898126 
15.884612 22.188526 3.154531 
28.480064 -10.077651 11.192503 
-18.921307 -0.012466 9.721210 
17.813276 3.446396 16.358837 
21.061775 11.824074 10.122746 
7.049846 26.079163 9.657320 
9.298732 19.002468 11.684289 
-18.988190 11.310677 -2.029439 
14.544272 16.661997 -3.121237 
29.230001 2.844505 6.440019 
-30.521400 -8.942960 5.263966 
-17.017696 17.868828 -3.277026 
-6.964314 27.930735 3.854267 
-19.996473 -4.029510 4.301965 
-28.676062 -4.102948 2.702879 
-13.415760 22.664669 12.430612 
-11.726693 21.216007 10.298697 
28.777246 -13.522777 9.429902 
28.643095 -3.492182 1.741768 
9.884338 16.044144 15.983177 
-33.029396 -9.258073 10.121098 
-12.794260 23.720608 -2.126140 
2.010644 28.240641 -3.490299 
-15.588094 24.547651 2.385932 
-31.292997 -10.203628 -1.940559 
8.222410 22.041639 10.550573 
19.892424 11.076538 0.068336 
-1.685751 28.827738 2.856385 
-24.027641 -10.394668 6.231925 
15.705384 22.206791 -3.850827 
24.987049 -4.013561 8.706974 
19.580429 9.548085 5.374202 
8.223087 25.536860 6.208439 
23.359589 6.011025 6.113218 
6.236273 24.955168 -3.911900 
-14.467432 23.116608 -1.855494 
-18.843317 16.481945 2.186257 
-24.819088 -4.993405 5.313715 
-29.375233 -11.782721 5.400344 
-18.366903 22.579184 10.638243 
7.971768 22.669985 10.130867 
-8.781868 24.426514 -0.132522 
26.783829 -13.237555 -0.103455 
18.763716 7.737713 2.943736 
14.361970 18.928150 -0.258957 
-32.073875 -10.805428 6.274726 
-14.585620 22.914259 -4.302333 
18.441259 12.787474 10.045819 
-16.917768 7.136228 5.447692 
-25.507320 -14.365147 13.966594 
27.872702 5.675385 5.181764 
10.415480 22.007223 6.429909 
28.223082 -11.892855 4.681984 
8.135791 25.912025 16.266090 
26.556839 7.093046 -3.383699 
24.755199 -2.326911 2.715680 
14.531816 21.411869 -4.783963 
19.611860 13.302624 12.701429 
-31.328272 -10.416590 13.213638 
7.160233 29.463509 7.399158 
28.456985 -5.666354 -2.305833 
-5.324826 27.242672 -5.116355 
9.081056 27.112843 -4.017998 
13.039641 13.425058 11.267042 
14.382537 14.807840 11.562387 
-27.235600 0.677986 10.681215 
-17.987473 18.896017 7.095583 
15.644966 21.021894 17.580530 
-25.070749 5.227665 -5.322879 
30.084908 -8.273284 -1.548366 
22.322157 7.023900 5.256262 
10.581005 22.827965 8.767407 
25.127008 -13.415271 6.617418 
30.501066 -9.788061 11.640377 
11.638334 20.815449 6.493783 
32.152569 -3.963561 -4.231689 
18.899082 16.591967 -0.681779 
29.910839 -4.157699 3.460114 
-11.465775 20.392851 13.794033 
-24.751806 -0.341627 5.742586 
-26.934429 -10.525696 13.487649 
-26.737532 -7.071837 0.838371 
-26.201502 -3.299364 5.507012 
-24.178995 -12.799654 0.155835 
21.203278 -8.327631 12.713511 
10.592154 15.819300 13.660364 
29.846601 -3.424503 6.253454 
19.968859 5.589930 8.410107 
-17.320644 8.565764 5.217246 
19.968706 17.284777 4.596815 
-9.509246 21.396605 0.347720 
18.923292 13.997499 -1.237507 
12.728901 24.969099 6.005281 
20.539618 14.895897 -0.011608 
31.979643 -3.818144 -1.479879 
-11.354263 24.361448 13.903835 
8.228619 26.858273 3.595140 
26.296843 3.242038 0.414509 
29.537560 -10.881830 4.796422 
24.121227 -6.614689 4.719127 
-14.389586 18.095881 -3.327486 
26.658693 7.572933 16.634195 
-19.235430 -2.057103 10.883082 
29.709911 -0.943372 5.792295 
17.320547 20.133003 8.588437 
-28.038223 0.922503 5.011342 
-24.664364 6.729805 7.777304 
18.154554 6.893777 6.104538 
-18.288921 2.085471 4.411900 
-29.719625 -2.736436 -1.486007 
-22.852757 8.406174 4.889380 
27.481251 5.279475 -5.151001 
23.664301 4.263638 13.549300 
23.999573 13.384160 6.035951 
0.088949 26.388212 -3.113255 
-17.517088 23.144274 5.844012 
-20.911663 17.649134 12.176982 
6.004500 29.882153 8.366887 
6.929755 26.819111 -4.853079 
-25.283823 -6.524241 -2.948108 
-17.803711 -3.219116 4.051653 
-30.836082 -6.639082 -4.182220 
-23.632307 8.037337 -4.234660 
-3.845607 28.118542 3.148550 
11.905873 26.041489 8.572268 
-26.954418 -9.415361 10.487669 
-26.406090 -2.846999 12.305260 
18.837646 19.916019 -1.902391 
5.742140 26.114452 1.605163 
-13.183515 14.748416 3.577741 
-1.414181 28.197283 -3.965089 
20.186699 -2.519506 -3.512538 
-27.056406 -3.589427 5.806984 
26.245375 -5.711853 13.221830 
-13.192698 21.290014 -0.345878 
17.336874 13.129716 -1.179271 
14.286229 21.246452 4.235432 
19.527424 1.126032 -2.276687 
27.938612 1.356659 1.624324 
-21.991236 -0.215325 5.056559 
32.413765 -8.549649 -3.782483 
-30.910574 -8.851739 3.422463 
18.195101 6.512860 8.031041 
-13.329632 13.468548 7.151187 
-5.860970 29.883888 6.297808 
16.153408 19.871492 -0.345561 
12.301977 20.445545 -0.948146 
23.290977 -4.938635 0.338315 
21.965933 0.790348 13.643387 
3.980901 25.013346 -1.713788 
7.039857 19.628626 14.071656 
-26.355476 -11.821636 -2.461431 
-2.254095 30.295866 7.483634 
22.798357 13.470349 7.802358 
-27.475250 1.539020 -3.973013 
21.352390 -2.813968 5.949636 
-21.775648 -4.263784 4.663980 
-16.856964 23.618484 12.380661 
-20.970783 -4.033551 3.868392 
-20.791946 7.407785 1.022228 
18.256088 9.931047 8.479692 
-10.190063 25.732327 -5.005427 
-16.693480 5.522216 3.675409 
-10.495458 19.978058 11.344339 
12.668552 26.488743 -4.725355 
6.777329 27.727438 10.690378 
24.852909 -0.250711 0.877551 
-19.332432 -2.355997 14.952832 
-1.921159 27.013353 -1.214333 
28.122143 0.889507 10.876192 
-17.695730 2.717688 13.712323 
26.099005 8.553157 11.785087 
17.281452 21.669773 9.070825 
-16.625893 11.951510 0.812087 
23.123220 11.294453 11.671932 
-28.213020 -12.050006 -1.274854 
1.902557 21.384342 -3.578857 
-20.732836 15.372098 4.338149 
-18.325073 20.767231 13.616389 
2.320288 23.926870 14.704137 
-26.050888 4.568795 11.053953 
24.735241 -12.188379 -1.674903 
24.296288 -13.922711 11.895903 
7.024764 25.950737 -4.764422 
17.702984 15.223578 2.898704 
-4.917430 20.005968 -3.038383 
-33.069401 -8.209057 11.890409 
16.786888 6.128052 14.243964 
-5.622961 28.000509 3.116122 
-17.007181 -0.441853 -1.686948 
-26.392418 0.046567 2.778326 
-19.177568 15.304604 14.215219 
-13.674482 9.281489 -4.688357 
-12.491362 16.547256 0.942106 
1.241374 20.853975 14.176560 
20.759901 -2.583591 -0.492812 
15.367496 20.679090 11.752643 
-25.552984 -12.100277 9.478296 
-15.688837 8.512263 4.764025 
-16.875460 20.563446 17.588650 
-30.351446 -7.450409 13.634416 
-7.423320 22.400650 -2.606197 
-9.124894 24.872953 6.182721 
-17.327320 9.189997 0.672805 
-12.409953 23.062593 7.821648 
-20.932545 -8.445431 4.048390 
-24.796621 5.909732 8.340243 
30.075325 -0.288485 7.973185 
-15.769735 24.057165 1.721411 
-25.092587 10.372834 13.067554 
-30.216734 -0.441110 15.099069 
27.242834 -2.905498 6.117138 
