-26.642687 -10.135135 0.943001 
8.125625 28.087317 6.505695 
-10.029906 29.372076 6.692526 
-20.982401 6.772280 9.690144 
-5.743804 17.722885 -3.181870 
-15.073031 8.578329 -0.888114 
8.092840 22.915621 9.833519 
22.388340 8.552531 9.589420 
15.270535 -0.052160 2.620556 
27.637630 -9.224653 1.590915 
19.267395 21.121952 11.715942 
-3.997863 31.736195 5.957497 
4.134570 25.447031 3.379773 
21.634335 -11.212874 13.422392 
-11.263696 20.704184 5.360214 
-25.664618 -4.839266 0.499368 
13.903211 10.105650 -2.117186 
13.741748 1.295235 -1.940298 
-11.633672 21.490528 11.715303 
-0.269117 26.729919 1.892831 
19.196714 21.155329 14.281074 
-7.886242 18.687511 -2.357623 
15.036484 20.830904 1.775472 
22.141756 10.358274 -3.370135 
-4.402669 26.666359 3.325210 
26.136238 -9.926323 1.177754 
-24.810593 4.343814 -5.176228 
14.630991 25.446869 7.777116 
-18.649784 -6.765893 6.689721 
-25.194096 -7.591489 5.911076 
4.773647 24.105545 -1.694777 
16.050623 -4.858501 -1.828712 
-20.267111 18.659782 13.048423 
21.956421 -0.454828 0.540095 
-5.328584 33.018372 9.488842 
-10.247567 16.085308 -0.958949 
-12.094140 11.345167 16.050537 
20.106640 1.216878 5.590414 
-21.231821 -0.517629 9.734750 
-6.757194 20.566088 1.411142 
21.648048 10.648325 -7.044015 
-25.869450 6.539680 14.986177 
10.986913 18.461149 3.285450 
16.611660 19.427521 12.357115 
21.847012 11.037519 -4.489242 
-17.937477 20.491943 12.282691 
27.420710 -8.710505 11.100343 
-19.842066 19.323151 12.184443 
12.870897 10.723127 -1.435110 
21.539631 -8.280954 12.920520 
12.259963 27.080647 13.927572 
-12.162606 23.648869 8.372125 
4.544468 27.031700 -2.371402 
-25.562132 -2.224524 3.788542 
-21.531097 -6.031902 0.790587 
-24.554279 -2.690783 5.666245 
-11.868787 26.680832 14.736857 
-17.230860 11.809666 4.419833 
12.830095 23.806837 0.427262 
12.549040 26.883871 11.657773 
9.947339 19.990782 9.621739 
16.565092 -4.249268 12.580032 
20.966740 -8.968571 -2.009915 
24.761244 7.449368 9.269854 
-21.115496 10.171393 -0.565642 
-17.523779 17.676659 -3.538126 
24.148529 5.088991 -6.391481 
-0.467348 19.592604 -6.119140 
-5.261071 26.211914 6.431458 
-25.721487 6.124073 11.402292 
19.566216 19.397854 16.293089 
-17.455679 9.955662 -0.675636 
-22.536446 -7.482875 13.067956 
18.547878 5.162791 4.886662 
17.461807 13.737608 11.081612 
-18.299656 5.944440 -3.630538 
-19.882517 -4.942029 4.699794 
9.750517 17.422384 13.350969 
23.102924 8.661462 8.679589 
21.394838 17.025162 13.473774 
28.964510 -7.754900 14.386902 
-5.004572 21.263193 -2.944603 
-16.990299 17.683624 9.382156 
-16.883387 0.469351 4.945900 
-18.992445 21.278999 8.390305 
-25.798080 -0.540274 0.964106 
-16.692801 16.359869 9.576659 
-13.841182 16.973766 8.510321 
-5.688349 33.275593 8.434468 
-17.054243 -7.633373 0.057440 
11.374717 18.065125 -3.275489 
7.863539 27.888479 8.059927 
-0.957187 30.398607 15.498585 
-0.502771 20.029600 -4.484995 
16.456236 11.249675 -2.917514 
-12.160440 24.902859 11.586918 
13.868763 25.466722 10.597503 
-20.969536 16.905867 7.815507 
-21.153502 13.010711 10.792953 
-17.980791 15.999233 -7.574417 
1.825387 27.824520 -0.766687 
8.961215 18.016500 14.512054 
3.836292 29.098221 6.335845 
14.233070 25.556255 9.812851 
-17.990681 10.924414 2.247581 
11.598931 23.965891 5.038761 
13.005507 10.982075 5.861494 
-13.392439 18.584356 -2.546016 
-12.673901 24.065353 6.026095 
18.961218 10.032583 4.181088 
-9.083037 26.901636 12.856483 
22.934055 -10.744656 10.257305 
-17.143349 10.494628 5.154003 
26.793917 -7.651693 13.379185 
-17.993103 14.868872 8.986912 
27.806149 -4.576828 2.172122 
-15.382617 6.029542 6.714948 
-16.277149 24.035791 11.591375 
-4.444921 30.470631 13.783479 
23.061213 -8.760192 10.337985 
-27.315638 -1.536415 -1.508749 
-21.325136 7.723457 12.097095 
11.637740 24.110601 -3.598588 
6.225869 21.389595 1.580377 
9.705880 23.072241 5.167259 
-15.238435 0.502794 3.037745 
15.703661 11.917563 4.530164 
-4.454490 25.095322 8.781258 
-14.437121 9.741796 0.963141 
22.119217 -1.896312 5.459949 
25.079298 7.411099 8.486521 
18.218935 -0.838934 1.966030 
-8.339415 23.014854 -1.119212 
-3.928719 31.686485 12.809975 
11.799994 13.134642 -0.533534 
-2.924695 22.870796 -1.334865 
-13.412024 26.050001 13.283649 
16.817207 -4.050022 10.916958 
13.191812 12.329023 6.069116 
16.886923 -5.743519 3.631799 
13.016281 16.564678 7.596077 
-19.147350 0.100944 11.231283 
-21.585957 2.695081 12.217432 
-18.005297 20.831402 16.741116 
-23.687435 -6.377682 6.186942 
-17.163568 20.350967 11.305024 
21.525805 11.265650 -2.417411 
23.438332 -7.973718 6.152213 
-25.889563 -7.985253 2.421509 
14.915169 5.459140 -3.630050 
-21.003983 -9.238257 -1.916699 
22.553417 -2.558841 5.610177 
-26.450001 -9.231204 12.232707 
13.233705 25.796333 3.708676 
-2.533818 26.748333 7.686467 
25.614944 7.330066 10.740132 
22.235279 0.785180 -0.025705 
-14.298202 5.250215 15.663076 
13.322049 7.512578 3.925183 
23.208347 6.502898 -2.202582 
-9.057999 28.508236 14.292393 
-17.234774 -4.352851 9.880779 
-19.593985 6.834555 4.867405 
16.358856 -3.313513 12.605785 
2.140589 26.724775 -5.558611 
15.074643 16.199829 4.626383 
-17.796080 10.465863 -2.175091 
-9.729656 28.047737 14.547986 
-14.286276 21.138994 0.300394 
-22.239555 15.133886 10.670555 
-12.565619 25.121008 9.275206 
-2.563371 25.147114 -8.699411 
-16.001524 -5.548578 -1.258109 
-28.489290 -2.307381 12.725412 
-20.900391 -4.297423 -2.939149 
14.284476 13.789065 6.506120 
20.007561 14.358674 -6.356356 
-17.537859 23.853445 9.618608 
-20.768187 0.103013 4.228089 
2.367039 22.936893 2.105286 
-21.121937 -10.342787 14.682917 
23.929272 6.397968 -4.851045 
-25.129116 0.231775 6.197822 
-8.256808 26.551758 12.555721 
-23.632265 3.650551 4.152052 
9.529168 24.187923 -7.327366 
5.930463 23.629524 3.573058 
19.379765 18.342272 7.560557 
-26.884367 -7.361091 4.379035 
19.440962 -5.911268 11.981436 
-15.719678 15.624869 5.136508 
14.177788 20.936886 5.491727 
8.831555 31.284042 4.809991 
27.738243 -5.458333 13.850270 
19.810539 -10.597383 -4.520377 
-12.240707 17.146975 9.897889 
28.083851 -6.127121 1.278369 
-21.736034 -9.723707 7.468140 
-11.469646 13.514193 0.704114 
-16.148581 -2.139744 13.933314 
24.419310 -3.957179 5.508616 
9.919845 13.861368 -1.908975 
-4.813593 25.601320 10.460385 
-14.122551 6.765278 10.709972 
-4.186987 25.988329 -1.702703 
-18.470829 0.034527 -1.451010 
-14.369518 19.248335 -0.031994 
-28.427397 -2.767025 7.209966 
-14.292457 21.164379 1.142724 
20.551252 -10.462503 -0.675572 
19.842918 -10.761209 1.881538 
26.806110 -9.173615 0.938282 
-20.097454 -10.338098 -0.169112 
11.534120 20.218164 5.498570 
1.557427 22.441174 15.000889 
22.008064 -10.030272 10.311730 
-22.199944 14.919746 6.910798 
8.721560 15.150727 -2.624442 
15.254550 25.209881 12.368190 
23.289141 8.123681 -1.491077 
-7.868981 21.317383 9.699315 
24.232298 -1.712052 0.724024 
-17.607729 9.440353 0.703795 
11.639743 27.882648 12.585211 
5.312332 27.626562 12.994649 
10.290095 23.872574 5.052774 
-1.108359 23.493418 12.376143 
13.194626 23.386518 -0.990287 
-2.134022 30.622433 4.536707 
25.250233 2.180376 6.688713 
-22.504045 9.104415 -5.609682 
26.549402 5.035406 13.483692 
-1.089975 31.371754 12.175198 
22.376736 -11.554802 2.595054 
24.345837 -2.152193 12.999748 
20.408094 9.036737 7.847449 
-25.943846 -9.604142 9.907245 
-14.748748 16.911623 9.163566 
13.695590 22.340693 4.286419 
-28.724283 -5.709916 9.589191 
-19.733932 11.583675 4.440794 
-12.598104 27.620613 7.709586 
-5.240492 23.138489 -0.054301 
-4.538399 25.491320 -7.295281 
-25.175323 -11.162812 3.392927 
-25.669584 2.304206 -2.728559 
-11.105397 19.960632 -4.474776 
15.877595 3.139872 3.977256 
-16.062407 14.194610 -0.825791 
5.529787 22.248755 11.835083 
5.416423 26.773815 -2.413468 
10.017120 18.628687 2.619656 
15.442768 8.299500 8.966849 
-24.772715 2.651312 5.857549 
14.188208 23.837769 7.566359 
-15.046732 13.161634 4.002797 
-11.539783 21.754875 10.039357 
-15.348128 2.114954 8.169620 
15.657183 12.206533 -3.485284 
-16.850275 -4.910450 13.081056 
-5.803846 21.823935 11.725630 
-17.474997 -2.877414 3.972568 
-9.951071 26.640638 17.054632 
11.287086 9.362464 -6.864381 
-24.005604 10.485384 10.600788 
0.994076 33.408978 4.662580 
20.461159 14.012839 3.572120 
-9.649666 23.184008 4.030256 
-24.040766 5.839168 4.764166 
17.744972 1.291761 11.473293 
22.210663 5.452170 4.799248 
11.672412 8.497810 -6.762883 
24.641958 0.829787 8.235951 
-17.148153 3.746865 9.625578 
21.194920 11.524799 -7.146738 
-25.722940 -3.329720 3.867219 
-18.454771 14.783709 4.085540 
-0.584589 28.260811 0.432913 
19.838337 -4.818940 4.881230 
-15.009915 3.023764 9.580386 
17.000826 -6.242453 2.828245 
-10.206020 20.457239 3.955364 
23.817886 11.702925 13.178889 
-15.236711 17.375916 3.394200 
-21.743338 8.366844 11.874836 
-3.266554 26.577076 3.172999 
-15.985999 13.833681 4.548136 
-16.012840 14.496094 11.346570 
16.451025 6.891545 5.882635 
-7.090843 27.576942 7.669824 
17.772993 7.981612 5.632432 
19.810078 7.905459 7.766535 
17.295523 11.221701 4.967446 
2.414348 25.085695 -2.857310 
15.560879 10.213692 10.746548 
10.127608 24.719561 4.647210 
-9.481473 24.373640 12.445072 
0.896362 28.967199 10.824573 
-1.585113 29.381355 5.102123 
18.051849 12.668852 4.145992 
18.126686 15.591577 9.069984 
15.874950 24.552452 13.275850 
4.063401 24.968287 -8.695599 
5.161896 30.515736 14.134011 
-26.257957 -5.540701 6.603629 
8.031613 26.045862 6.614755 
-16.889404 23.627893 4.771252 
20.543922 3.063021 -3.103628 
-8.400455 23.699764 5.348404 
27.411657 -6.086955 -0.950908 
20.367456 18.067078 16.196474 
17.262960 -6.292658 1.104152 
3.856576 24.455027 9.327179 
13.294812 18.198568 10.960065 
26.085833 -0.849250 1.789325 
5.825008 23.671280 0.096529 
-0.555543 29.242125 12.415369 
-3.852275 27.498842 4.310832 
-21.316790 12.767070 4.348567 
1.637514 32.480629 9.029433 
-12.817932 13.951639 0.341458 
19.290970 -9.425196 -1.310499 
6.537845 20.332157 0.441920 
25.308834 -4.217633 -1.923187 
7.337548 30.299101 11.470150 
-12.319860 12.854288 8.679253 
-10.556806 23.500586 -0.832437 
-13.666070 13.970037 4.538784 
14.964276 24.597664 15.498344 
19.275940 22.199705 10.499013 
-14.984343 14.408804 4.790621 
-12.593855 18.550852 -1.025449 
0.087315 25.495108 0.089996 
18.251614 12.133609 3.605637 
22.670397 7.132939 11.243297 
15.709633 6.760089 3.647812 
-13.676562 16.815866 10.551660 
-18.563995 -7.957209 8.835007 
-21.318708 11.367672 -2.425627 
2.963892 30.037521 13.324476 
3.712804 24.228336 1.714505 
-13.170257 21.968676 -3.333078 
-16.335152 -3.063281 12.775352 
-14.371671 12.137581 3.687230 
17.831600 8.126443 3.887141 
15.358681 22.301041 12.202772 
23.327013 7.107034 -6.628578 
-16.594671 10.705722 3.300289 
-1.040669 30.839722 4.933450 
-24.581499 1.536211 5.908049 
17.983747 8.821290 -3.364025 
-17.898071 -6.333327 9.885212 
-20.252850 -9.929828 10.714264 
-8.376697 30.784397 7.003980 
10.527425 25.308405 6.707410 
20.379156 19.068623 14.011126 
9.401194 20.552389 2.935499 
-11.134936 22.469732 -3.802487 
4.315856 24.535439 2.895216 
18.811506 16.313393 5.035380 
-1.141212 30.747301 11.550485 
-16.004633 18.838287 5.325180 
20.107550 -10.466397 12.774900 
-19.037474 0.948810 11.605351 
24.576508 -2.539932 -1.872242 
-16.749641 -7.015603 -3.823526 
-22.245701 -9.287773 12.505487 
-2.738083 22.233486 15.055942 
-0.679722 24.289303 11.016311 
-18.267105 -9.336492 -3.468175 
12.925935 7.578511 -0.415156 
23.806446 6.615877 -1.640556 
12.441644 6.504096 -2.767941 
13.278428 18.779869 -0.535248 
11.575552 23.300346 -7.154210 
-15.826749 24.601992 6.280310 
-14.778501 0.962514 3.610148 
8.115022 26.768177 1.966797 
0.197291 24.987543 -0.704347 
-20.712431 -2.238090 5.584711 
9.433945 20.861143 -3.205927 
-28.840513 -3.649485 12.771622 
-22.429850 -6.731676 10.744958 
-12.532460 22.408106 12.264193 
-21.745504 -1.634460 8.551041 
1.502496 31.673584 10.017339 
-18.965355 15.920836 -0.871389 
-7.090828 25.467197 11.734398 
13.652683 13.731448 -3.578537 
-7.473521 29.230623 9.450780 
20.996164 7.310869 3.799700 
6.917748 16.376776 -6.006641 
19.266268 5.193858 5.473365 
23.786028 -1.013852 5.001144 
-18.208612 -9.052598 1.569056 
-16.679985 17.413656 0.849370 
14.375862 13.419215 -3.659541 
-21.299417 -9.280436 6.784868 
-22.380739 8.824932 -6.712311 
-3.942697 21.832552 14.804491 
-21.798468 -0.792605 6.791139 
-19.299143 0.098072 -1.432646 
-19.447590 19.922787 11.936028 
27.554054 -1.993350 6.029943 
-5.440444 24.565857 0.087992 
22.747341 -9.254209 2.021491 
28.346506 -8.860245 14.318679 
8.847328 26.071238 11.716607 
-13.852809 15.428691 7.369942 
2.376132 30.766815 14.613526 
-11.881208 19.302767 -2.000941 
-4.919873 30.572126 14.351786 
10.018256 23.965349 11.820402 
-11.568609 26.207676 16.190454 
22.190548 -10.808915 9.756122 
19.764355 15.470392 -4.745394 
16.311686 15.747690 6.202843 
-13.872603 10.395146 6.473969 
18.311922 10.941566 -1.176104 
8.917359 17.236448 0.289595 
-7.191446 23.982515 -4.025091 
16.759085 0.825353 5.658595 
-25.695755 5.537213 7.926669 
12.859330 9.891348 8.948754 
26.312878 -1.191801 2.426306 
18.811457 1.318363 0.161278 
-23.862761 -10.463743 3.985982 
-20.907040 8.199518 5.645070 
9.730116 26.321529 3.179983 
10.895015 24.036140 5.609803 
9.671755 16.882410 0.697341 
-20.044121 14.397551 9.749383 
27.755276 -9.065150 13.064661 
19.947392 11.272381 3.327557 
-15.593633 -0.461676 0.325097 
8.798047 24.055538 7.714803 
-12.061129 22.198368 11.502286 
19.678165 3.019904 -3.326443 
-22.590370 -2.477908 -2.633835 
-13.215927 10.843874 8.307737 
22.868509 13.106188 15.840864 
-21.088440 17.132204 14.157475 
-22.096935 1.952089 11.954054 
18.591423 10.740324 2.347295 
27.212088 -6.513483 4.605839 
19.593281 2.120034 9.373900 
17.077911 16.528330 7.436941 
25.032223 8.704603 12.083269 
-10.062270 28.787539 9.903608 
-1.591492 31.950228 12.245321 
-12.379139 21.680935 -4.564800 
7.861914 15.217241 -6.312682 
-17.427795 17.186577 1.067800 
-10.971620 18.388613 -1.286421 
-11.635346 24.422880 12.339772 
-2.597495 26.144150 -2.485339 
23.697515 -0.055647 2.981188 
19.610258 -10.710290 -3.258470 
16.086615 15.028441 5.262325 
15.024109 21.808218 -0.190922 
23.259977 -10.300924 7.968925 
-3.494561 25.021900 -8.682124 
-6.018386 19.170446 -0.417443 
-13.278696 11.119267 3.751902 
-3.035589 29.656286 1.296870 
-9.232896 18.703176 -3.729726 
14.480784 5.168117 15.387926 
14.647360 22.422619 1.700300 
24.139812 10.836452 14.245827 
-4.653288 24.189478 -1.525682 
-17.791431 22.265274 12.707144 
-27.556379 -2.091383 -3.463045 
13.454431 18.245770 0.372007 
-9.778049 12.284831 -3.314545 
-28.209791 -5.760816 12.300182 
-11.423946 13.134876 13.051434 
25.711508 6.601759 15.378694 
-24.638582 -7.114792 -2.030632 
19.675468 9.103883 7.998599 
2.370635 26.124147 -1.482798 
9.536255 17.135777 -2.336505 
11.974178 12.373185 15.893860 
18.391289 -5.339405 -2.214266 
-19.474464 15.061159 -1.066452 
-18.977125 9.320248 10.480485 
-0.396339 34.134544 8.042895 
26.187412 -11.161601 -1.619953 
-15.109474 6.125808 4.474761 
1.623494 25.913870 9.534492 
-23.805313 11.779587 12.466054 
14.209989 13.329709 3.725204 
22.257944 -11.190539 3.969721 
-18.216356 -7.813160 10.353377 
-15.988607 17.432810 2.523052 
23.182049 8.901692 6.374820 
25.510908 7.740785 13.296153 
19.756729 19.958426 7.746791 
-10.598968 22.772533 7.833173 
25.066540 -11.683774 -2.809034 
-18.290136 -2.624536 3.882553 
-28.110226 -4.113427 6.723569 
17.888638 -7.896450 1.571277 
7.399038 25.363340 -6.024622 
-28.217911 -7.497962 0.808724 
0.155428 31.102016 6.503354 
17.367676 12.560237 11.239376 
-12.449870 23.344458 9.353745 
10.752501 16.740990 -2.332564 
-14.300117 3.733408 11.813795 
-17.042383 -2.908412 1.902860 
2.092911 25.005239 10.158651 
-17.745914 -9.249768 0.246359 
-22.959255 8.750055 -3.938367 
27.950867 -7.794555 -4.874030 
-14.141463 6.804228 -1.580038 
23.780464 -11.781858 -4.390367 
26.565672 -3.215124 3.566111 
-19.442036 10.697763 9.492376 
24.326010 -8.430299 5.636370 
-22.629379 -0.891121 -1.117382 
-19.551563 12.714872 -0.722258 
26.910927 -5.464408 13.934213 
17.088058 -5.858171 10.792014 
12.556699 16.969061 -1.843029 
17.124729 -6.126722 12.810798 
-5.128922 27.151106 -0.169497 
-27.810387 -5.522313 -0.654522 
-7.427361 25.096260 -5.728493 
16.707870 4.173181 9.034615 
-25.060307 -7.461670 13.347872 
-24.166483 -2.002644 -2.197298 
24.738811 -5.429058 7.402704 
-14.940005 1.608524 12.654108 
12.904670 14.072618 0.094047 
-15.017109 24.912043 9.124975 
8.793015 30.102186 7.550568 
25.428532 -11.488984 2.517478 
-10.824044 26.584799 16.279598 
-18.456594 15.143371 -2.636422 
-2.697626 33.444923 10.360286 
-18.871174 11.608962 8.825198 
-17.015917 -2.810597 10.079761 
-17.717806 18.010492 5.090809 
16.685373 14.274281 5.020114 
18.625462 -7.396435 7.451035 
8.861024 24.346306 -1.720172 
15.537311 1.430650 15.127769 
10.982041 27.933077 3.794910 
18.803316 -0.724100 0.884972 
-3.421129 29.098402 11.529997 
9.554181 21.051336 0.492511 
-20.247192 5.580833 5.157905 
5.374958 23.008390 10.691577 
-20.703882 9.455491 -2.234825 
-22.245621 6.400694 3.832352 
14.180044 17.996840 -0.400891 
16.380981 -2.387680 10.941545 
24.055655 1.464753 0.258207 
25.040279 -0.048789 10.062105 
-10.134115 27.003578 16.234625 
-9.934280 27.233515 4.167814 
-15.138767 20.004086 -5.957983 
-1.813055 22.799099 -0.169697 
27.440844 -5.774397 4.065728 
-15.877407 17.048216 7.686506 
-6.764225 21.389660 -3.164222 
-14.097636 14.775468 8.791562 
23.264215 -6.488125 13.688392 
-14.862114 6.903383 0.311263 
13.113444 17.310862 7.794637 
23.840107 1.222556 4.322753 
18.323832 16.989862 0.473737 
-6.103617 20.342508 -2.425786 
-12.842223 16.503960 0.816574 
15.785096 7.702202 -3.563258 
13.140016 21.502693 11.435186 
-13.306696 2.523164 -3.342047 
21.484467 -0.447928 4.482971 
15.113089 0.488778 12.404444 
-9.942234 18.041033 -3.741989 
-17.071568 6.802278 -3.546991 
20.452944 19.090630 12.074828 
-17.241274 7.376472 5.059087 
-13.642108 4.152104 -0.883383 
20.356199 -1.855345 1.473228 
-18.484747 13.893885 11.788548 
0.794890 30.293470 9.866302 
-24.506763 -10.552682 12.728625 
5.505496 25.906826 -5.890202 
24.019354 -6.953906 13.813320 
20.215780 -6.294384 -2.513597 
7.583324 21.246748 -2.372465 
16.918261 14.429634 -3.393661 
25.142630 6.578499 10.441866 
-14.561895 18.881004 1.022731 
4.234959 26.150730 1.364568 
-16.399574 18.334349 -1.575820 
21.520880 9.066446 8.050171 
-18.629454 0.875229 9.181339 
-3.779021 29.378988 1.166364 
25.423706 1.972293 -2.657099 
-25.902117 -0.089624 11.094173 
-8.568454 21.297976 3.500544 
6.814276 26.578648 -1.051277 
17.948473 10.056175 10.721109 
-8.809361 22.208178 9.532988 
-14.046725 24.741125 5.030535 
11.361011 26.566353 4.529714 
17.769634 -6.402561 -1.157139 
4.567233 26.843519 -3.423391 
-16.666037 17.761948 -0.753892 
2.129947 32.233696 9.960057 
-25.708420 7.571682 14.067364 
-20.526054 5.198754 -3.353559 
-24.054173 4.103811 0.679625 
12.798762 7.520224 2.657409 
-14.575523 4.367780 15.606586 
12.427359 6.218401 -3.837270 
-0.212903 29.192492 8.100184 
21.957191 13.348805 9.984662 
21.052176 12.740387 -4.843092 
-14.592184 25.197935 12.829439 
-7.336866 26.355032 6.178386 
19.931187 -8.754265 7.300547 
-15.361200 6.178432 8.308938 
-25.844837 2.297606 -3.673370 
20.912069 -1.081936 4.646692 
-16.839867 12.257915 0.117694 
12.456321 10.969976 9.942674 
-21.103437 4.287611 5.582615 
19.809326 14.462171 3.380573 
-24.249338 10.903534 13.547458 
-12.410361 27.715916 8.523962 
-27.579786 -8.629107 -3.168231 
18.909237 -1.770539 4.583002 
-18.892937 19.197617 4.878381 
-0.883613 25.816948 2.354889 
-7.030468 33.786518 4.079272 
18.562799 20.417673 3.950214 
-4.949050 22.766436 2.845143 
-21.228750 8.995260 3.920595 
22.179401 8.858350 8.607735 
18.789440 10.637527 0.707121 
21.640234 14.777026 6.644764 
12.186504 13.148343 -1.472183 
-22.702353 0.015305 9.573511 
0.390722 27.813208 0.683266 
10.269223 19.292398 3.124500 
25.533527 -9.612471 11.405523 
-20.115065 -7.695195 -2.465706 
14.783210 -0.804417 -2.421571 
-6.199944 25.681494 6.543960 
18.405775 3.406052 11.842875 
-15.077050 10.528693 10.594903 
16.726793 14.407706 7.315837 
-22.602140 -10.399784 10.985830 
-2.207564 29.739437 1.201091 
-17.419411 16.747936 -7.664654 
15.041645 2.742445 4.196522 
-10.495015 22.537796 -3.304559 
19.048845 22.794380 8.295918 
2.701809 32.913021 8.800412 
-16.859320 18.332912 -3.320220 
-19.033276 3.471807 12.294131 
-5.639760 24.178783 -3.780381 
-25.385740 -4.870689 -2.062803 
17.731977 18.446754 -4.097340 
20.739355 12.402248 -7.249570 
-13.526910 3.041145 0.953162 
19.422285 -6.933489 -2.315866 
-24.782337 8.437360 10.784732 
8.527678 20.943213 0.632079 
21.223698 10.490557 5.575103 
17.512897 10.512964 4.651321 
22.446970 -4.215535 5.337317 
-15.162789 9.973671 -3.043454 
-14.990104 17.240644 6.531619 
-19.230715 12.103317 -1.198095 
-26.771368 -9.738621 14.776305 
-17.301292 8.265337 10.791913 
16.660358 5.822245 11.192709 
-2.454689 32.951080 4.864784 
19.452707 -4.330812 6.466032 
11.077631 25.787718 12.561894 
-20.391945 -4.947906 -2.922087 
-10.343976 18.787325 -4.108106 
-28.747978 -2.190941 10.208575 
17.335159 8.420450 7.359841 
12.541835 24.216166 11.994781 
22.961756 3.917389 3.479655 
13.572403 10.235196 9.334132 
16.976238 17.524176 1.902745 
18.631006 23.281456 8.902828 
-7.000296 22.995018 10.259634 
-12.989679 27.274326 6.133892 
-9.593962 24.474939 -1.717590 
7.224267 20.019957 -0.807643 
15.013424 1.477242 13.388820 
-13.443790 26.152168 10.596998 
11.758147 26.725456 3.882823 
20.342390 -10.427253 13.488481 
-8.900844 20.412018 3.447704 
-20.171041 -11.574603 0.438859 
23.961807 -4.647503 13.708843 
16.206846 10.718570 3.639632 
-13.475455 23.430395 8.821230 
-26.554966 2.203875 11.015558 
-9.534155 19.787952 2.923853 
-20.572195 -9.542576 2.213364 
17.759258 -5.304061 -1.180787 
10.125548 26.098871 10.099684 
19.603497 -5.141624 -2.476544 
27.991177 -0.541866 11.951023 
-12.809957 19.233620 8.697940 
-0.963147 26.504793 10.786792 
-8.093507 25.108034 -4.675131 
19.097689 -10.858467 0.764469 
-1.210225 29.172243 9.359773 
10.136284 20.211643 3.425862 
13.212670 25.222153 16.742613 
17.215849 9.826929 4.661753 
21.645008 16.169216 14.749347 
-14.844360 19.698160 2.458669 
-3.781420 19.250929 -2.429908 
21.118689 8.430685 -2.834087 
-19.605576 -0.989891 5.468123 
15.602429 18.572203 0.522705 
-11.633011 12.354503 16.113800 
18.151775 2.732332 -0.362246 
20.642921 0.943133 -2.290969 
-11.643509 23.157625 2.451070 
-9.611235 16.495176 0.332491 
-15.839309 6.854697 6.515809 
-12.572852 27.605715 4.899592 
-7.082559 31.009356 4.102657 
-5.001225 18.148941 -3.475140 
-8.706977 24.749865 0.638019 
16.683535 -5.102886 3.299106 
-18.168062 -8.011078 11.138139 
11.389400 15.727389 10.883568 
8.685553 31.616579 6.167313 
26.794716 3.904685 15.187950 
4.602474 27.376724 12.916444 
5.030391 26.417297 -4.570742 
0.845722 29.311232 17.132290 
-13.663230 8.551769 1.991125 
8.371203 18.196304 -0.574511 
-19.179976 -0.871480 9.227827 
2.752172 33.105732 2.736664 
-9.754128 24.270933 -4.727698 
-16.554461 -2.093413 10.831532 
-21.036528 11.472328 -1.517144 
8.484250 19.215557 -2.084683 
-2.668868 20.589647 -1.687144 
-5.131374 33.248032 3.677443 
-3.188546 28.786308 6.914115 
27.666700 -7.884934 1.394311 
21.592854 10.633203 -1.594956 
-27.976271 -6.603726 1.816307 
27.113981 -9.933868 13.572966 
11.007147 22.467556 -2.319970 
-19.599117 -6.265997 3.907848 
-8.900255 25.456303 3.448768 
24.872158 1.798539 -0.985108 
-18.843773 11.536530 -1.679926 
-15.000293 1.508517 10.796943 
26.006092 -9.799320 9.104781 
15.683880 0.008679 -0.275195 
-15.782511 24.443510 12.606730 
-20.040010 -0.311547 3.268163 
26.165228 -1.638914 3.384336 
23.195759 7.198597 0.911497 
-16.214401 11.246384 11.140388 
-13.036690 27.030308 8.285352 
7.655236 26.535934 7.249443 
-8.724314 24.990772 7.313959 
0.758668 27.915287 9.265693 
-23.916130 0.107828 2.553619 
-24.875668 4.443635 -4.294365 
-27.283075 -3.599698 2.755224 
14.570704 0.059489 -0.550933 
23.180334 13.343379 12.684412 
-22.628681 5.650084 4.152566 
16.427664 3.000389 -3.552573 
7.608346 20.208597 -0.135911 
-20.058668 9.065074 8.239105 
-14.806091 9.452666 1.650427 
-20.233318 -9.226395 -1.902896 
-21.136051 10.958503 -0.790896 
18.640751 -9.517216 1.833843 
22.068823 -8.429211 5.828045 
-15.116183 12.055223 3.815281 
-18.705391 18.837301 8.673843 
-14.270892 15.158156 8.030739 
-5.032675 27.680645 4.512157 
19.523432 -0.629054 4.255797 
-5.039317 21.644236 -0.014681 
4.755706 22.757425 -0.175959 
2.855622 22.923679 1.283563 
-14.035110 22.796806 9.874809 
24.297132 -0.188784 1.101268 
-19.011913 6.461700 4.450694 
3.529664 23.796085 -0.995510 
-23.507877 -10.151866 9.031128 
12.254965 25.215321 4.999790 
5.455751 25.096952 9.095611 
21.096546 -2.619798 6.314222 
1.255634 23.655291 2.740159 
14.671593 23.870436 5.435186 
16.704535 -3.312008 14.799268 
-15.279093 3.150776 6.748927 
-20.060217 -10.982859 3.742960 
12.406791 15.077987 2.511034 
-21.132687 -1.960018 4.999432 
-20.069025 4.753505 5.499611 
3.445729 23.458794 1.798708 
28.355024 -7.620964 -1.706318 
23.153473 2.557397 3.860429 
21.011934 -6.713243 12.893697 
16.248413 9.818505 2.952112 
11.672699 23.927687 -4.711301 
-18.245098 5.951381 4.994032 
-5.928022 29.359093 13.052549 
-8.310712 27.540874 5.010619 
-13.041801 11.528255 6.215046 
-12.565488 10.608529 9.695202 
-6.528984 22.868530 -3.881406 
-6.568970 15.949480 -6.161590 
-21.844151 9.451427 11.436584 
-27.446980 -0.787999 11.214497 
-12.451060 10.974178 2.901269 
14.163804 23.139547 5.539165 
-16.862452 16.217646 10.342714 
18.411613 17.115025 7.609559 
26.320395 -9.591794 11.399961 
11.663140 18.599009 10.018398 
-14.012769 4.750530 -2.500441 
2.315009 29.032520 6.018703 
18.463890 2.128692 -3.271556 
-28.681999 -5.259401 14.520343 
-12.846593 18.264729 11.643991 
17.987783 17.121561 -7.801855 
-2.960691 18.895952 -6.149647 
12.587693 5.232830 -1.335893 
2.876801 23.821665 -2.128882 
-25.997049 -10.332542 -4.431579 
5.381727 24.786211 -2.989813 
-5.132221 24.679510 9.083001 
16.292990 -1.388328 14.931932 
-3.405135 32.166298 12.452509 
-11.958957 28.194048 8.008830 
5.403100 31.322245 3.682660 
-3.706595 26.676880 -2.610620 
-14.921939 23.534948 10.769355 
-2.998906 32.042652 5.900481 
15.435468 17.923929 0.939649 
28.257431 -6.224677 -2.266716 
-23.615143 -0.075997 8.126434 
-23.128529 -5.726873 5.729880 
13.374443 10.342294 1.599717 
21.289820 -1.158545 5.502845 
-11.643786 24.942289 4.750269 
19.160433 3.763990 4.851284 
-22.923065 7.152981 -2.470697 
-16.385780 2.273313 -0.047647 
-15.531873 24.714191 11.315935 
-27.885054 -6.731326 2.552803 
19.188208 15.907438 -0.771603 
18.799236 20.989199 4.921251 
-21.653597 8.709335 -2.621019 
-7.925179 17.803261 -1.992587 
-22.265379 -1.281004 5.243096 
11.257634 18.357525 8.871965 
-9.292649 18.169464 -0.865937 
13.442473 2.437093 -3.548135 
20.225046 18.948729 15.093919 
-26.205576 0.377365 -1.639559 
-4.038582 22.902010 -0.395368 
15.107709 7.367746 3.827078 
-27.175426 0.613254 11.867564 
21.873013 -2.485584 12.439106 
-24.081266 0.971070 5.651435 
-1.281656 30.524044 12.972672 
11.730736 9.128957 -2.219984 
-19.610546 -3.678845 -2.828338 
20.277592 13.278021 -7.352186 
23.179930 -5.946889 -2.498376 
16.969179 6.388895 -3.837403 
18.814518 -6.662046 6.742011 
-23.099016 -6.199159 13.344678 
-19.133808 -10.596773 -2.033467 
-26.860332 -3.375543 5.619203 
21.750181 2.078662 -2.335133 
-16.238239 5.235288 3.849223 
6.381424 26.034557 -2.054428 
18.946714 18.430178 11.257788 
17.714001 -1.214398 4.808046 
-23.616560 -9.758230 7.739206 
20.862829 12.459548 10.646118 
-24.334770 5.563107 -4.599233 
-7.017295 26.015236 -2.303038 
-6.569316 28.733065 16.139063 
-14.439152 7.053020 9.845857 
16.226912 -2.362357 13.684674 
25.813950 -4.505349 6.711322 
21.528130 1.048445 4.198081 
19.565905 6.937686 11.477597 
-26.454235 -3.511848 13.281018 
-2.594407 25.918545 -3.987060 
-27.057463 -0.424535 6.038179 
0.646817 29.061049 6.695162 
5.795572 22.167887 2.161874 
23.807032 -9.645126 12.608894 
21.733721 16.308506 13.556951 
0.447704 20.764385 -1.877338 
21.789967 11.417970 9.109165 
17.291588 3.628528 3.685981 
20.794706 10.469872 4.384704 
-27.578949 -1.816983 15.314300 
-25.018723 4.706401 5.322032 
-28.602575 -1.807826 9.190219 
21.430820 2.105290 4.659395 
17.609253 -2.525439 2.063729 
4.309617 26.799799 6.028191 
22.163797 -12.075624 -2.828525 
9.034895 23.572247 -1.320417 
-19.999809 -5.791992 12.399550 
12.909580 5.189015 0.326154 
20.078602 0.206372 4.921814 
22.473513 -11.639288 12.158610 
-16.791124 10.096826 -0.251239 
15.910393 5.567917 10.979514 
15.218190 19.688126 0.194860 
-8.620729 24.668634 12.345206 
0.094320 27.403873 8.225518 
-23.257225 8.222657 0.218869 
25.853712 0.750116 -4.633104 
4.502405 26.238327 4.443425 
10.068478 27.975384 14.885148 
-5.547866 26.916475 -0.951201 
-23.287439 9.775230 8.456610 
-3.837434 29.677370 2.372107 
-3.435840 29.589485 5.698443 
26.059029 -10.105167 3.605889 
27.385855 -9.105050 10.039164 
-18.498646 10.100850 -0.992561 
24.821386 9.227826 14.177398 
25.034008 -5.051794 -2.069617 
21.219778 -6.766793 4.344495 
-27.254953 -2.170960 12.836455 
-16.704504 0.056052 4.094933 
0.553404 31.610903 12.425426 
-20.115742 10.530364 -0.165570 
4.520073 25.317968 1.828939 
-17.468254 6.297799 4.871873 
20.046999 -3.115332 11.727076 
1.030672 27.200878 9.158269 
16.880032 13.154494 11.133675 
-6.637816 20.178185 -0.254162 
17.271654 15.596359 8.584904 
-9.544071 22.803974 4.681370 
17.233683 6.674571 4.696797 
14.578492 3.389380 8.419437 
28.785294 -2.833734 14.718099 
-17.415369 23.771154 10.558953 
24.916512 -10.885189 1.774629 
13.170212 14.736748 8.167747 
-0.804804 25.860241 0.962725 
12.354920 9.666565 -0.283833 
-13.767334 1.432872 -3.875422 
7.399136 26.695623 0.186936 
-22.355473 -2.961066 5.434907 
-12.986117 22.463331 2.861947 
-7.463747 23.924324 -1.200894 
-15.189722 11.532845 11.022406 
-23.735781 -9.980945 11.186678 
-25.136644 -5.105274 6.291696 
18.197449 17.326460 10.193223 
25.557091 3.260660 10.375600 
-1.114846 27.950569 3.506036 
19.311075 16.308027 -4.610727 
15.601403 15.429150 -2.702488 
-26.306482 -0.808996 12.426281 
-25.601751 -7.125171 6.332894 
24.314480 -0.966856 -0.799889 
-7.676601 29.259939 14.081405 
-13.378283 7.295096 4.510690 
-22.208641 -5.240802 10.630094 
-9.624800 21.111618 4.462542 
26.256239 3.484602 10.109812 
23.199703 -11.244022 11.146366 
-11.483410 8.931012 -1.861711 
-18.488989 13.646083 -3.287634 
-16.135349 7.307532 9.556192 
27.570164 -5.136117 -4.304786 
-17.545172 1.930299 5.648394 
13.512946 23.595400 0.969777 
-19.353983 -1.366229 0.464527 
-7.842319 29.692503 7.060276 
27.820105 0.288650 12.301191 
-14.520144 3.779645 4.159459 
-18.533773 10.170890 5.903060 
-5.676614 25.855537 8.084797 
-5.360643 27.917295 9.303683 
8.373477 23.533764 8.198040 
-16.245825 4.528049 3.459321 
-11.942801 21.075554 -3.296154 
4.524605 30.360361 13.526616 
20.499485 2.737908 5.206839 
-17.140894 -6.611650 2.656157 
-21.577126 -9.798614 5.694470 
-18.076916 16.123743 11.265712 
-18.814472 -3.950272 -2.090012 
-13.147619 4.233362 1.856658 
-7.137125 20.558016 -1.090848 
-17.384735 8.890749 8.126514 
-6.974746 23.401669 9.610548 
10.510349 25.071314 3.179077 
-11.801422 14.734437 10.319894 
-23.154503 8.838152 4.589451 
20.110826 14.345312 0.002343 
4.696953 22.906689 -2.465482 
14.754774 4.236567 15.322983 
-11.289922 28.675329 7.854573 
22.441881 13.768558 8.462861 
14.708751 16.921650 5.668053 
-0.124528 29.163176 8.951941 
-0.930587 35.039764 5.336810 
17.621645 -1.743055 6.540128 
-4.613472 33.883945 7.972866 
11.359710 21.619965 5.914414 
-3.386006 27.741549 -2.020165 
7.574122 28.047943 10.598067 
-25.804089 7.060324 9.269265 
-1.584753 26.368599 -6.552097 
-18.089245 2.546993 4.764762 
-4.271224 26.668190 -1.395699 
-27.614321 -1.038852 6.022919 
23.426451 7.142009 4.229895 
-23.804380 2.052605 4.602700 
24.675875 -10.283009 -1.012156 
13.188807 4.401026 2.759000 
-24.723078 -4.538409 -2.320586 
-15.617542 5.080056 5.459620 
22.224487 -0.788375 9.804907 
23.714178 -2.630388 13.088428 
15.784047 19.615198 -8.091708 
19.978636 18.740772 16.245228 
-22.907114 -5.097452 13.329869 
18.127947 -9.431310 1.089971 
5.608711 20.759102 -0.870319 
20.252300 -5.929854 12.496747 
25.464260 7.897908 12.387134 
-14.116761 20.238886 -1.964367 
-4.430211 20.145744 -1.836198 
-14.878689 0.922135 0.785826 
-4.822162 27.269360 -1.819098 
10.883956 28.464960 11.525759 
20.918198 -5.967136 -2.599585 
-17.853701 -4.899881 10.716805 
-24.006239 1.040346 9.380889 
13.044858 23.464111 10.501682 
-18.940786 10.034238 4.763369 
26.887697 -1.811399 2.051676 
-18.768532 -9.038980 -0.666415 
9.613866 19.393402 2.608794 
26.572926 -5.938393 -1.416332 
-24.407164 9.730687 16.057804 
-1.767196 29.746866 16.407248 
8.971265 30.770807 5.414057 
20.384922 13.450216 8.966142 
11.870156 20.070250 8.404960 
21.252316 -11.073885 4.455407 
-4.164741 26.062502 -6.261730 
-16.115559 12.370237 -3.859973 
-3.968266 22.853025 0.601723 
18.174381 23.239462 6.544099 
1.268036 29.663731 8.563281 
-16.104879 -5.920644 -2.859382 
2.735112 20.027771 -2.793695 
-26.209396 -2.203145 4.770220 
21.145864 -9.377738 7.163400 
-14.536626 2.735729 10.980224 
-21.081806 -1.927137 12.171662 
-23.147032 13.369421 12.169108 
18.197941 17.397263 -6.516428 
15.374148 24.626888 5.841388 
28.419300 -6.077444 -0.897188 
-22.307047 9.866762 -2.826445 
-22.508106 -10.862218 14.661124 
-5.232194 27.162577 7.531884 
21.531036 8.402328 2.965596 
-18.774506 7.453489 8.749660 
-11.504418 20.301601 7.170007 
-1.165041 30.899632 5.870988 
-15.432887 6.913932 4.826184 
-21.550669 16.530630 13.280274 
23.237780 10.186281 9.058291 
-1.438854 24.355110 -3.061797 
15.633798 12.766015 4.472842 
27.189140 3.073982 13.208121 
-17.026823 6.462087 3.919081 
-19.168636 12.037443 0.107202 
-11.714411 17.421940 8.409394 
11.433416 15.041004 11.612830 
-21.409145 -4.060742 4.705137 
-13.527804 8.478827 2.783526 
-18.253340 13.825971 9.371915 
-24.888634 4.480213 -3.506606 
-15.482064 0.459145 10.993289 
-26.771894 0.186164 -3.395101 
-16.078596 16.205639 -1.664801 
21.499016 10.807487 8.320004 
-22.800903 8.592813 -1.359564 
-5.379076 31.981195 11.735929 
26.679518 -6.233786 11.416926 
-28.159521 -7.172795 10.816332 
-5.280634 25.992243 10.968239 
-19.410986 15.120447 -4.870402 
12.732724 17.084862 3.208034 
21.561678 7.241940 3.198619 
-25.053871 -8.645668 7.363153 
20.252388 -0.528237 4.572890 
6.543282 31.031672 3.418926 
25.454914 5.790639 7.638487 
27.016129 -5.555315 4.687061 
-22.207563 2.975263 -0.164616 
5.831875 32.435696 8.366167 
13.393780 16.639620 2.381098 
21.466106 16.494131 10.624839 
15.582980 9.971760 -0.515709 
-20.959251 -0.813071 -0.065982 
2.288313 31.123491 13.823446 
28.062653 -8.413226 10.088506 
15.979714 1.983012 -3.216320 
12.692987 11.352562 -3.278226 
23.002310 1.768064 4.090415 
-28.327305 -6.044461 -2.058206 
-7.420886 21.740444 2.493484 
-16.000650 9.532417 9.086000 
13.962620 24.735132 16.702974 
15.718085 21.060406 10.170971 
19.640181 -1.512096 4.211393 
17.665939 18.123371 3.526962 
-7.712162 19.485884 13.089146 
20.296722 -8.496511 1.548466 
-23.246616 12.132270 16.207737 
-11.508898 19.518982 11.339525 
-3.652303 23.719051 -2.010866 
16.090086 20.518063 3.328388 
23.596724 7.707060 -3.333004 
-16.218182 22.578548 16.841360 
20.790537 -11.361629 3.063923 
16.803955 -0.119987 3.951987 
23.202799 -1.737796 9.061258 
4.123299 26.161236 -6.050040 
19.464767 -9.607392 10.032547 
13.023147 24.120543 8.609615 
-10.868278 15.412358 11.830264 
-12.751560 17.383032 8.199838 
16.044735 9.197579 -1.158058 
25.493551 0.131129 -0.793652 
13.678240 24.531679 10.452237 
-5.849126 20.807426 14.096642 
-28.029593 -4.812604 -4.193834 
8.976254 25.066696 -5.412016 
-14.112170 21.303570 3.109219 
24.465021 -9.965853 2.546757 
-15.914817 1.327427 8.591420 
-5.158807 24.599575 4.614540 
27.827068 1.162379 14.003363 
12.009728 15.603163 2.082224 
-18.854389 8.689657 11.573544 
28.327078 -0.773562 14.049235 
-0.012550 31.821064 4.288084 
-17.450514 -2.020418 2.548305 
-3.253056 25.293549 8.533921 
19.370394 10.508125 2.729236 
-12.153474 18.457771 -4.053153 
-6.216055 23.405025 -1.140305 
-15.084241 11.410598 8.748183 
24.827265 -10.420330 -0.291868 
-20.803381 12.748882 -3.861361 
-11.790844 17.790277 -0.580548 
16.940397 -1.621049 9.083499 
16.067537 0.178823 -2.437356 
-15.627844 24.001621 3.987060 
16.127363 20.125296 -5.755021 
-18.044483 6.534894 3.985533 
22.552502 -9.664241 12.902757 
-21.593431 12.073814 8.233830 
2.626575 26.750319 -2.336565 
9.904578 16.629137 -0.403551 
17.030075 12.181772 -0.257002 
-3.782635 26.333853 7.789061 
18.786026 16.897278 -5.428896 
-19.673819 -0.080671 8.398907 
-23.160471 9.719417 9.292642 
-8.597574 27.118099 9.691396 
-8.494514 21.325003 -0.925905 
-12.998156 11.479403 8.795551 
-28.725933 -6.606258 14.371165 
-10.105411 29.244257 7.948312 
19.312597 -10.846679 -1.223801 
25.001621 1.358781 8.829593 
-14.263855 7.576817 -0.911440 
19.134695 -3.110374 11.054535 
17.452391 10.456820 -1.874474 
-3.449904 25.031645 2.179299 
-28.423237 -3.917883 14.663652 
8.293773 29.480984 12.006659 
2.573945 22.416735 0.287674 
-14.159057 4.790111 11.433159 
-18.896957 -7.277538 4.740825 
6.620699 30.703072 11.921626 
3.010374 31.865702 11.313599 
16.660461 2.170655 4.491467 
15.139818 21.511284 -2.882269 
16.923410 3.919987 -3.757580 
13.768166 22.638094 3.565171 
18.492817 0.841007 11.504832 
24.161068 -10.322807 9.243043 
22.710884 -11.437623 3.350289 
-16.137957 16.870859 -0.814608 
-6.807987 24.095892 9.387337 
18.921247 21.926317 11.365255 
-9.840430 15.989085 -1.800065 
18.354887 13.948576 8.333742 
14.975309 4.101068 10.276798 
-25.609428 4.618435 7.118377 
1.568207 25.500462 -0.527651 
27.192232 -10.065533 -3.123072 
5.964380 28.563133 13.278123 
19.293262 -1.173101 3.211396 
13.775425 5.058135 -2.643490 
-11.683359 7.479603 -6.580884 
-11.997070 7.217710 -2.475969 
-21.657887 -4.728881 4.394450 
21.313353 16.887669 14.733801 
-23.372375 6.358873 -1.653528 
-20.209095 18.681002 11.987556 
17.050333 16.141108 4.397740 
22.277945 9.850490 -2.012258 
-22.517244 -8.098407 5.249954 
-16.435379 10.014155 0.647440 
25.649422 -6.020001 -1.823829 
13.223410 27.257183 9.992010 
26.815678 -3.940423 3.648913 
-17.724533 16.914402 -0.358838 
-9.666729 17.057030 -3.145554 
-19.066490 -0.209283 2.038429 
22.011795 2.156679 11.777585 
25.851204 6.889870 13.456913 
7.579754 15.418855 -7.572679 
-19.232161 10.497888 7.582664 
10.433188 15.765241 14.715986 
-27.168753 -2.436527 -0.030412 
-16.511496 12.347858 4.686663 
-18.042038 11.946691 0.742601 
-20.534458 9.914031 -1.456423 
-18.036192 22.109299 4.116270 
-17.816164 11.271901 11.248162 
20.340712 -9.295023 7.628054 
13.408895 5.325967 -1.374413 
2.037939 27.676079 6.227505 
-18.689785 -10.589369 0.970571 
6.565907 26.119919 11.098047 
22.668570 -7.493145 10.428390 
-9.124668 27.309547 4.779683 
-18.455355 22.227850 10.023069 
-21.887957 15.542659 9.316014 
-4.349585 30.884682 6.398378 
-5.281585 20.362679 1.102881 
-24.821184 4.382720 11.760638 
-6.767269 25.087702 10.588564 
20.363588 10.260422 0.258697 
13.389989 6.815081 -0.519175 
-9.279661 18.964087 10.803179 
15.136816 10.160724 2.490971 
-15.905896 -1.216269 12.828465 
23.740921 -8.936382 5.734336 
14.526656 20.744928 -8.222347 
-12.694908 17.920988 -3.406362 
-22.411108 -10.968085 4.410147 
-13.246598 2.614202 -2.008512 
-6.338166 24.826141 -1.186102 
13.910891 27.082348 4.836851 
16.361801 17.731054 1.363634 
-19.267466 10.076995 6.375310 
-11.897500 11.451061 12.667397 
20.881247 -4.678611 4.434946 
23.183414 4.837828 3.035655 
-20.673223 11.609528 9.423252 
-10.150190 22.418303 -1.475642 
23.927456 3.411436 1.190887 
15.770804 6.090251 8.221069 
-0.693141 24.323513 -1.243831 
-18.928480 11.684155 4.842541 
-17.203573 8.608203 6.362953 
-16.372602 18.505779 -6.651557 
12.436048 25.699375 16.781845 
-15.264599 -2.699444 -2.824199 
-18.513374 9.110613 -3.076359 
-13.032991 6.728124 3.519104 
25.480181 6.740650 9.035937 
27.934587 -5.994287 13.112275 
6.079453 30.010029 14.570497 
10.288851 25.420223 4.999142 
-27.335144 -2.470520 -5.360163 
20.162365 14.497067 -5.371041 
-20.054953 -0.198951 4.037464 
28.025457 -4.324311 -0.100354 
26.797234 -4.113564 -1.258972 
3.828553 28.459120 3.428092 
22.286455 -0.566898 10.813115 
27.744532 -6.321896 3.553752 
5.169199 32.795124 7.556270 
-10.179321 29.017023 9.082739 
-8.111674 29.826046 10.535781 
12.441395 16.421684 1.366615 
-18.541725 20.196194 16.703609 
14.935100 12.323209 4.498534 
3.137307 25.091419 -8.707767 
15.090741 19.357946 9.347756 
2.012357 23.076416 12.571183 
-19.635660 12.614241 0.402253 
24.823368 1.147953 7.574010 
22.055584 -5.274539 13.287463 
18.075758 10.410633 1.108817 
22.013586 1.883975 3.746731 
10.834129 27.868788 14.166897 
-23.533365 -8.902205 7.194664 
24.581795 8.482125 9.366084 
9.981550 12.088364 -5.793776 
-12.138200 20.243725 5.450655 
-9.555002 24.857750 4.899585 
-12.356070 22.254099 -6.692711 
17.258244 24.145796 6.741256 
16.763710 3.828626 11.457490 
28.687696 -3.495034 10.414305 
28.573118 -2.927004 9.698514 
-7.582656 26.251114 5.271051 
28.900660 -6.774653 12.576838 
1.253832 28.424345 1.203558 
-4.642151 28.870382 1.586261 
26.568525 3.761862 10.837089 
-26.800703 -8.655019 0.327926 
7.018815 26.300243 6.546204 
-14.694833 23.500002 12.534803 
6.331949 31.822800 10.060998 
25.770018 -0.161177 7.330717 
14.414480 22.284473 -3.360226 
-3.331205 28.913906 17.144821 
-13.598985 3.670262 -0.179103 
-6.725865 25.029203 9.836906 
17.325907 -1.551574 8.302439 
-15.406485 9.738016 0.149453 
-9.046218 15.528605 -0.974298 
12.377752 6.741296 -6.556486 
-18.730019 -7.558158 11.528222 
-26.737768 -10.016538 -0.115849 
-19.665335 5.878208 4.524092 
15.066334 12.933647 3.983868 
-21.909935 -10.953267 13.021883 
8.877706 29.951691 4.944931 
15.587939 24.819265 10.513847 
-20.680605 -8.195090 12.344368 
23.567959 0.964038 8.938707 
5.947684 30.105419 5.038749 
-5.032569 20.234516 0.385103 
16.658558 8.771490 -2.662993 
-1.779938 28.823914 13.209291 
15.552235 -0.472361 12.991301 
-14.310499 1.467615 -0.026393 
-17.359455 -5.335908 10.010807 
-25.033167 8.097029 7.177887 
3.411731 23.488365 0.090390 
-12.497637 24.176489 9.117637 
-18.879963 16.741699 4.547007 
15.886048 5.816631 -3.785173 
-12.890194 10.659971 8.980932 
-2.081084 27.436954 -3.542231 
13.136880 21.843658 10.657223 
9.541543 24.276117 7.493196 
-8.572775 21.926657 3.091602 
2.833724 25.209707 -0.427416 
8.232407 29.391312 12.925015 
-23.126963 -12.070501 0.309255 
16.904213 5.027071 4.048378 
16.611252 -6.200014 -3.861678 
19.193132 -7.993994 6.861105 
19.992517 15.275746 9.659060 
-14.216496 21.271427 1.903349 
-10.227596 11.167958 -3.672932 
-22.639612 1.511928 0.062628 
-11.302604 21.218653 9.344216 
-2.696990 30.070971 15.876718 
-26.527058 -10.226968 1.820495 
-16.870138 0.420384 -2.028390 
-6.693586 24.274065 10.386776 
24.099920 -3.832891 10.548107 
-16.087547 -2.972152 -0.031041 
26.131229 5.890094 14.420922 
-17.845732 17.253325 -1.841309 
21.745369 11.118488 6.978862 
8.423163 20.037870 -0.063071 
-1.218545 27.522198 -1.621931 
-14.430078 24.481039 15.875031 
23.793762 -11.282233 1.828516 
10.878490 12.968286 -0.495489 
-2.978438 19.242071 -4.590312 
9.797422 22.958076 11.051679 
-21.525370 11.218447 -3.425651 
-1.992578 26.564154 -3.159157 
17.792212 -5.736695 10.181431 
2.273774 28.938185 13.134811 
-16.376545 9.487697 6.818609 
27.591183 -3.268602 -2.112048 
4.880279 25.553873 7.628571 
-18.780598 21.870380 8.795213 
25.051880 2.981252 -2.223967 
16.135862 24.575724 7.465202 
6.816346 24.463821 -8.643013 
24.002787 10.682497 15.667947 
-7.737148 21.813129 -3.014342 
18.866652 10.546515 8.310352 
1.572476 30.471104 15.269917 
13.244721 27.560884 4.177348 
-13.705634 2.447338 -5.978970 
-11.365063 27.439484 11.887612 
18.390926 23.355120 7.455872 
1.040344 27.029112 -5.017846 
6.913659 27.198738 6.359766 
-8.821277 23.680229 0.904386 
15.229991 24.604986 6.613680 
-16.704073 6.859850 11.544973 
-1.174860 29.953644 10.546735 
-25.237295 -0.369753 2.130487 
7.924284 24.809477 4.672551 
-8.618713 29.088255 8.500814 
-24.761454 8.916265 16.006590 
22.182055 0.325805 8.808120 
19.070675 -2.350958 1.589234 
27.580790 -4.451891 2.889616 
27.796648 1.079442 14.989386 
12.716784 5.951390 -0.335017 
9.400990 28.343634 14.773672 
-6.236087 29.328707 11.481025 
-3.084749 34.675205 6.581504 
7.370090 23.519056 -1.056445 
-18.313839 4.014881 3.539976 
0.004780 29.290892 17.138807 
-15.276318 9.620552 -0.941498 
-5.192145 28.892179 6.095098 
-12.904101 11.666882 7.062644 
-27.492685 -2.282960 -4.346892 
-6.084422 26.228077 -3.933419 
-16.929943 -2.050081 10.018401 
-0.172970 27.925547 1.700928 
-26.781754 -0.071431 6.683288 
14.816894 18.209183 4.882880 
-21.549919 16.650850 12.411270 
-27.193417 -4.019725 3.417346 
10.628310 17.693342 -0.041311 
12.743186 13.007112 -2.867577 
14.871737 21.253408 -6.359518 
-27.713160 -8.879754 14.842639 
-22.074406 9.952569 -5.596488 
-21.076746 17.374580 12.153301 
12.697923 6.749900 1.797236 
7.891735 25.224384 5.562347 
-0.286137 34.733562 4.823986 
17.578611 20.528309 3.077468 
6.775163 18.397280 -1.046322 
18.288603 17.614059 -5.335431 
22.120434 6.043826 11.622099 
23.464264 -3.661466 5.803231 
15.539560 -1.908468 -5.539298 
8.259594 27.517614 5.300551 
-25.020361 3.352997 5.733191 
26.418194 4.848431 15.254670 
14.742415 22.414301 11.623879 
4.801738 32.954433 2.746345 
-15.815035 9.886491 10.372805 
-12.437341 22.921873 1.707584 
19.960642 14.847287 0.953607 
26.946810 -2.434208 -3.493454 
-7.340439 23.686022 11.131352 
-20.176910 -3.138350 5.483601 
18.336840 -1.235823 10.749100 
25.945343 -7.508182 13.916467 
9.706541 25.536469 6.731293 
3.622589 31.001364 4.892911 
24.407896 5.304446 -4.578287 
-17.876022 -6.075542 -1.532417 
22.561949 -0.144855 4.234705 
1.115467 28.080202 7.549411 
8.160233 21.983046 0.442596 
-17.161171 23.324154 12.993854 
24.859516 -12.065882 -0.299538 
-10.145308 27.498705 12.361212 
-11.914870 11.401617 13.686145 
-22.652866 1.708740 -0.661482 
-17.354956 2.102206 4.843124 
5.140556 21.448654 -1.130221 
-27.937819 -3.061845 -2.096210 
-19.824942 19.261847 14.308440 
-1.699723 21.013758 -1.675067 
-2.733035 26.661293 -3.208421 
1.037510 25.731380 -2.741943 
12.978538 8.877256 13.035279 
-7.846758 28.965597 4.411499 
20.609615 0.860935 0.944898 
-5.820487 30.905956 12.455463 
25.373419 -8.459805 8.263701 
-20.789703 -1.041480 7.060509 
-14.142169 25.381573 9.606455 
20.781498 8.845025 8.721733 
14.702445 17.492065 5.069741 
23.106594 8.943820 5.606555 
26.604452 -10.667268 2.013358 
-14.634576 6.678891 4.952623 
15.849997 0.106275 -1.401377 
12.205593 23.860790 -3.129888 
-24.681164 7.879791 11.465825 
17.683819 22.237534 15.541732 
-8.421827 25.648149 9.454297 
-13.724154 5.865053 -1.278649 
-15.808446 19.499838 -4.576186 
-13.516356 23.773535 10.870936 
8.234370 25.641323 10.637362 
12.231438 11.412808 13.194526 
14.612218 17.449806 1.092843 
-3.084827 23.333330 -0.414008 
13.219296 23.145760 6.505427 
27.362551 -2.946814 2.196106 
16.796988 22.559830 16.530762 
18.444141 22.515078 11.614488 
6.641040 29.347563 15.454599 
8.442087 20.119953 0.922166 
-3.525437 33.898705 8.785881 
-17.722189 11.262281 1.487698 
-0.568411 25.171751 -0.637460 
-16.827778 12.038852 8.976604 
-5.726274 32.454418 4.142442 
9.321264 27.242939 10.660462 
-17.753616 -2.052967 3.319963 
19.691906 -4.975048 12.043844 
-16.694798 -0.326265 2.245432 
19.397730 -2.232572 8.294869 
27.554604 0.295279 11.547915 
-1.369753 29.766153 1.391892 
12.313300 21.591255 8.075549 
17.746988 -8.195971 -3.798786 
0.364064 29.602762 7.142211 
-19.846666 10.109620 4.359674 
12.937432 22.798037 -6.292658 
18.696047 22.570124 10.792524 
-8.699703 29.555458 6.291182 
2.189794 31.409386 13.076417 
8.823119 29.160006 10.151439 
-21.915491 8.613505 3.180820 
7.871922 26.191130 8.510009 
13.666389 16.255713 0.916603 
-0.579720 20.997416 -1.895703 
-15.117812 5.339940 -0.046549 
20.591566 -11.114452 3.800968 
-11.243286 21.654261 5.702529 
7.092954 23.061155 9.136560 
