-1.342652 27.228817 -1.701928 
23.122541 17.648062 7.802704 
-20.122185 -4.255147 -4.765784 
-26.392084 -15.575114 8.023717 
-31.306177 0.932534 5.732329 
-28.085146 9.596052 15.944876 
-25.605028 -13.672332 1.033454 
16.696457 10.267224 2.535958 
25.700207 -10.325066 3.925716 
30.627052 -4.116198 7.786481 
18.324707 0.020499 1.298151 
19.720816 0.854709 10.672421 
-10.483028 16.399523 14.647229 
-23.325996 13.720727 -1.235220 
12.345438 19.938467 1.353918 
-32.402321 -13.967307 6.386382 
-24.067366 -9.953805 4.849699 
28.784349 6.836555 6.549827 
15.989235 8.644481 -1.300994 
-16.375771 18.514553 1.393711 
18.987537 13.847929 2.787894 
-8.508088 24.319679 -0.339383 
35.090012 -7.645009 13.424202 
34.399849 -5.145339 11.901394 
2.402274 24.632710 1.118177 
6.605400 28.661503 0.473545 
-22.747137 -10.819385 0.622437 
26.862413 -3.052771 -1.626871 
-0.229063 24.553658 1.764928 
-1.800427 29.089647 6.113832 
-23.786757 18.411604 14.765898 
17.900188 22.376999 4.713795 
-8.806141 28.161961 15.709341 
26.461180 6.981809 3.391320 
-32.319351 -6.882260 -4.502295 
-22.644407 1.448371 9.131212 
-17.869808 14.451179 1.835285 
-3.467074 26.395758 0.060485 
6.381672 25.425816 0.129919 
-18.696169 17.065605 7.405048 
-34.511147 -13.227416 10.769801 
-25.776642 -11.775406 11.692549 
-31.929903 -14.719510 -1.301693 
11.988855 16.956221 -1.759840 
33.152603 -14.484108 11.033968 
30.735022 2.693333 9.505585 
-17.266459 4.793535 -4.875106 
-26.041960 13.800491 16.093945 
-8.618136 30.696167 8.229269 
18.567760 -1.532065 0.799529 
13.761134 25.284878 5.243411 
-32.173958 -7.940927 12.517685 
-32.322880 -5.200414 -1.898152 
21.136032 0.883068 4.610464 
-20.949642 -4.159720 12.627366 
15.306050 14.496734 -1.507504 
-11.278392 24.624630 8.461164 
21.935371 9.225198 8.898530 
-25.066751 -3.789716 9.757359 
-2.006496 26.129419 2.524532 
14.884166 10.122618 -6.485008 
28.457727 9.483571 6.293655 
-22.986061 11.518467 6.097871 
-23.868395 10.081589 4.096089 
-31.029308 1.263535 9.767334 
-18.859047 15.642766 3.254777 
-24.121910 18.953527 10.217788 
-4.602454 25.849945 12.311831 
25.259130 -1.658104 0.652790 
19.662106 18.252338 5.332175 
33.485821 -2.040504 12.696050 
27.446272 -13.073068 7.072024 
35.252628 -11.640562 15.352531 
28.097845 -1.095091 -1.773996 
15.883815 23.568394 2.049588 
-10.959325 26.098370 1.087291 
-4.946963 31.385000 7.629587 
31.590349 3.322022 13.185887 
15.039114 22.764009 -0.775226 
-25.883215 -11.795602 5.619397 
-3.803967 23.409323 10.473374 
2.248404 21.543657 -3.819852 
26.656912 -11.222510 7.010725 
-15.092405 24.044554 4.313695 
-18.310873 10.774261 1.703174 
-2.065090 29.496485 -3.671510 
10.810537 26.522240 5.663591 
-18.173204 18.822474 -3.543703 
-3.548955 29.627947 4.519575 
30.112175 -6.893367 7.610270 
-19.901041 -1.771951 -2.073422 
-11.671304 26.762270 11.870848 
-1.691418 27.375717 -9.059558 
23.763212 -4.569992 -0.588119 
27.665785 6.249709 -4.744300 
-20.253017 -2.059287 11.419868 
-24.830450 -1.280388 3.666553 
27.996269 -17.179037 10.285013 
-30.666874 -2.122454 0.143984 
-33.493832 -5.089109 14.190095 
23.525131 0.274456 2.447564 
-19.856657 1.524135 11.906986 
-3.788887 28.766125 7.796462 
-16.334490 21.254190 1.336828 
-28.399109 -12.486547 0.569748 
-15.034840 22.158152 -3.393975 
8.650063 27.505907 7.773106 
14.964966 21.280329 -2.418126 
-27.797585 -5.426535 5.067906 
-19.581821 22.258200 9.091417 
18.979980 13.430574 -0.305623 
0.212619 25.356115 9.757670 
5.674293 27.349941 10.031693 
28.087084 -13.455510 11.180343 
-2.820857 32.361141 6.317705 
26.081015 10.900308 6.357533 
-24.106161 -8.902492 9.650271 
-16.155115 19.091051 0.899522 
13.802571 24.359680 -2.908873 
30.809549 -16.556747 15.173746 
-21.956829 17.596056 9.591627 
24.806702 7.995054 4.041401 
32.911575 -12.292331 0.770393 
19.455137 23.199230 15.501052 
-17.008961 19.359892 10.005073 
-27.784504 -16.551928 3.722073 
19.746391 16.378767 3.932659 
23.826773 3.839487 4.425436 
-28.857370 10.208015 9.175318 
-18.540829 18.821518 -2.025897 
0.150009 23.701197 0.623245 
-26.453432 3.332728 3.839368 
23.184536 11.541112 7.958530 
-4.335540 23.730827 0.211249 
20.214569 23.615940 5.247355 
-29.368877 2.346841 -5.776304 
14.407476 26.198647 14.798998 
25.546326 9.283487 9.174608 
-12.202096 21.146595 7.450629 
-28.910826 -7.089472 7.324428 
-15.599987 21.256554 -1.521071 
4.920058 21.045248 -3.713263 
22.274057 20.794136 14.879410 
25.499165 5.782202 5.583623 
-17.817879 16.690893 6.004529 
-22.444685 -13.308808 -0.351257 
-23.226845 -13.771413 2.390171 
-23.779928 -6.840102 8.125981 
16.827793 5.275863 -5.785450 
-11.653484 28.546583 12.163922 
-9.409488 20.318693 10.265544 
-9.125628 30.652071 4.410227 
-13.087948 21.086107 7.135376 
10.041318 20.371048 10.824992 
-33.296822 -11.669675 -2.307736 
12.184858 21.034687 0.405154 
-21.951694 -7.053535 11.971045 
25.750969 17.524389 11.740614 
4.983141 25.409203 1.980742 
19.046469 2.349705 -3.337107 
9.320711 20.724987 10.973596 
-23.179890 4.757587 6.934849 
8.433039 27.438534 16.638210 
-18.884966 10.416541 -0.129987 
1.311382 27.277731 -9.019539 
-35.362019 -9.331256 12.373938 
24.898085 0.512540 11.531247 
-18.866327 13.964876 -0.765147 
-22.567953 -5.149992 4.240201 
22.362202 2.549012 -3.853594 
-5.894473 28.026443 7.262022 
20.056881 -6.290730 -1.824874 
-24.624290 6.109168 1.549752 
-13.306808 25.084524 0.821682 
20.096592 16.609768 9.967665 
-22.455349 -3.878887 8.620116 
-32.217545 -8.966870 12.882404 
15.522151 22.921846 -2.149987 
20.358406 20.654028 7.597436 
-20.124279 0.916276 10.433079 
-10.843388 26.443676 2.393028 
-31.871885 -4.992436 10.089796 
-18.630688 19.734543 -1.855083 
-17.243122 10.339581 7.367551 
-18.572096 13.330931 1.944266 
-24.354712 -7.422105 3.671286 
26.943962 -5.943434 6.900367 
-17.757813 8.224692 2.392506 
24.448423 -2.641407 10.781269 
-4.588904 28.978617 7.758865 
-18.787483 11.959255 0.616663 
-3.176915 23.978731 -0.944528 
-30.129473 -5.462560 2.983897 
23.862728 12.226933 7.695355 
27.080521 14.184469 8.509034 
-30.816141 -5.548005 2.218970 
26.303696 -9.795913 4.684919 
-28.065523 -3.136456 2.876145 
-7.819415 26.618586 -3.416815 
23.958521 -14.235721 1.423465 
17.414631 12.075403 2.588243 
-10.669139 28.706598 13.106223 
-14.856188 18.699022 3.560004 
-8.855026 25.775591 8.403930 
17.611317 2.136868 -3.271708 
7.505585 26.315308 10.182062 
11.108551 27.482187 12.120407 
-6.891280 24.468559 10.727621 
5.054033 28.676550 13.809999 
-25.884666 -12.966948 0.607471 
-21.908028 -2.128189 3.160006 
-27.099117 -9.713022 4.891297 
-26.609070 13.319594 6.667840 
-24.894726 -7.365149 7.674365 
-27.537302 -13.233986 6.472332 
-31.207729 -16.025499 2.296485 
24.404890 2.680712 4.389031 
18.182245 0.342303 -0.895532 
-21.250029 -8.855332 -4.127769 
-22.485544 3.298874 -3.561308 
14.114847 26.546654 12.170324 
29.748402 -8.712605 0.054350 
26.804760 -16.697731 11.184093 
-26.671682 4.735796 9.030406 
9.869617 25.170605 4.778942 
24.023140 -10.818336 3.197869 
29.463829 -7.343508 2.704214 
35.386776 -10.334917 13.428428 
6.171259 25.496223 10.055452 
17.625648 17.851231 3.242817 
-6.790170 23.962219 -0.194653 
-19.193499 3.996383 15.771657 
2.894912 29.194508 12.316069 
31.839327 -14.237494 10.280301 
11.117566 20.679859 9.821355 
17.910872 26.082689 7.386652 
30.580208 -3.111235 5.545197 
14.840393 19.330156 1.389446 
28.350706 -15.731061 8.683349 
-32.809086 -7.879348 -2.899506 
-32.025105 1.347019 12.593996 
26.684818 2.740672 5.179158 
-26.710016 -5.749718 4.438123 
25.348974 2.553782 4.260224 
-32.647724 -6.394763 -1.788677 
-16.810793 16.019619 6.032156 
-14.354652 23.728134 4.190740 
-27.984827 11.414968 12.801925 
-24.238523 14.579538 9.925753 
-19.943022 11.342592 4.357257 
-3.915679 29.473688 -0.018443 
-27.066860 2.965772 3.253877 
-34.969776 -10.937411 15.223597 
-32.405739 -1.975312 15.537446 
17.247389 13.850878 -0.386088 
-2.247275 25.619593 1.832657 
-21.878759 -6.884222 1.061849 
15.891014 24.489799 12.188011 
-28.978075 -1.047581 -2.195857 
-15.394655 14.667884 1.248993 
-19.644562 10.978872 -3.270520 
-28.442892 10.828869 11.742415 
28.394024 3.999111 -0.111993 
-7.681970 18.876089 13.341613 
18.543520 8.617737 6.563095 
9.499232 23.555735 1.686745 
22.793129 -10.454071 10.928568 
21.172981 15.521447 4.446194 
14.741948 23.800150 -7.234458 
3.893882 28.328470 -5.717916 
20.703100 -7.571609 2.376243 
2.251782 27.119686 11.962646 
18.223660 6.746317 10.222388 
-1.348921 30.678541 13.069015 
33.407482 -2.091266 11.479994 
-7.587165 22.520660 -0.317642 
-8.230195 29.664967 10.922985 
3.425867 26.549131 4.299007 
-14.736387 24.795076 11.192054 
-12.553947 19.434954 -0.715624 
16.957586 9.243676 -0.812050 
16.672291 10.674436 9.297254 
19.459106 11.321145 -0.139061 
-22.292372 -10.361971 4.308614 
-16.450317 10.096902 -1.338481 
-28.606712 4.076257 -0.029413 
24.933771 -6.231331 -1.005183 
-24.315540 -1.104090 3.020640 
-11.312575 23.879631 -1.274068 
-11.193186 19.027422 9.730025 
-29.240103 2.755696 -0.350801 
21.474627 -6.494077 10.637353 
14.189095 14.965573 10.727396 
19.119919 12.224463 0.207442 
-23.509335 -7.698731 8.791596 
25.331367 -8.667766 2.497618 
-25.173534 13.653277 3.459280 
27.726433 -10.831187 6.345917 
20.548861 9.463269 2.711367 
29.527796 -9.576244 7.683407 
23.801800 7.345698 -0.068853 
-26.907206 8.643592 -4.722317 
8.428506 20.887383 -0.771695 
-33.352901 -8.766812 -0.489777 
18.386602 21.524874 -5.565013 
-3.512379 21.489113 12.255479 
19.067625 21.032574 -2.491112 
-23.318760 11.460818 6.961430 
-24.812147 11.404430 3.690758 
-26.690823 14.206507 12.531423 
-30.775312 -10.072934 4.271204 
2.212759 21.243109 -5.065892 
-22.136757 -12.205225 -2.459950 
-28.872353 1.179125 2.502387 
-16.319450 19.751062 10.378159 
19.232187 17.005985 8.424530 
-3.301739 21.600956 -3.509424 
27.484661 6.058170 5.473244 
-23.506842 10.760379 -3.851742 
-31.078741 -5.557612 7.079789 
2.523219 26.668892 -2.986102 
-4.161105 26.604527 -2.622163 
1.102334 27.457142 10.830972 
-12.132190 27.198811 15.496593 
1.814119 22.335417 -1.537899 
20.066635 19.140501 -6.815111 
6.271683 20.834965 -2.978492 
-25.162022 -11.087775 4.648013 
25.061100 5.933816 4.705828 
14.107920 26.020069 6.256627 
-20.585066 -0.334971 15.619643 
-28.053267 1.963814 10.249181 
22.242981 1.368298 3.127474 
25.142027 -1.354210 11.287332 
20.100489 21.636135 10.219345 
32.475521 1.273004 11.245337 
-23.475082 11.153223 -1.300417 
-18.746651 11.868533 3.878776 
22.804960 -7.831217 1.849922 
-21.973684 -5.343219 7.021996 
34.081791 -4.259194 14.091969 
-18.998919 -1.414618 -0.547319 
23.700312 14.648884 9.788626 
26.046644 4.709539 6.293466 
19.458122 -3.514884 1.146009 
-13.434066 22.976341 7.328270 
-15.332758 24.145245 11.474245 
-22.860348 8.380109 3.593761 
-31.792871 2.377055 12.273971 
25.339384 -12.928134 7.141767 
13.899530 12.884045 -3.106456 
-32.591408 -0.851937 13.228863 
28.940655 11.014442 9.874166 
-14.686049 21.007906 6.122257 
-14.837526 24.529709 8.827731 
27.587488 7.838017 3.372094 
27.981005 -15.571184 9.575715 
-18.188276 9.459751 7.016754 
-27.261131 -17.214340 2.187578 
-11.259647 23.236444 2.461200 
-22.171415 -8.744563 4.422942 
30.826645 -2.076111 -4.627812 
-25.829601 -15.001835 8.359024 
-25.292162 16.299530 5.258984 
25.565424 -11.573308 5.689083 
-32.940010 -4.111810 15.462795 
20.632694 -4.489161 10.949687 
-29.573147 8.430677 10.459908 
26.764128 15.400459 9.210376 
-27.390245 5.074722 8.870566 
-32.270702 -5.053189 8.752356 
-29.518244 1.035129 -1.878789 
-14.719716 27.226282 11.628333 
14.586498 10.897070 -5.011470 
-15.725927 22.142330 11.491639 
20.758387 12.097826 2.834500 
-23.030119 3.447830 5.328414 
24.248137 16.972603 9.696643 
-23.170519 3.091194 4.081166 
-17.269417 4.942314 -3.880423 
15.051458 13.027067 -0.547023 
-28.289434 10.695169 13.001585 
-22.933369 -9.924555 15.284679 
-23.086657 -10.871754 12.302737 
24.607162 17.893478 14.950594 
20.022778 -1.252873 12.575047 
-8.731219 26.550192 -0.328575 
-16.667709 13.736144 6.594587 
0.012383 29.741920 -0.542812 
25.109470 -3.983344 2.638512 
-11.282258 24.208641 0.227864 
-23.350706 -14.671470 4.864077 
-24.939829 1.667115 -3.822277 
19.681145 0.894754 2.544438 
23.748947 19.637899 13.472974 
20.077982 16.949852 5.225769 
6.384731 30.148752 7.324692 
-29.767090 -16.103064 6.065207 
-26.568239 -7.574336 4.512826 
24.767752 6.703900 2.899337 
-6.319365 25.238159 2.530187 
18.212011 11.828122 8.430947 
18.291426 17.827820 -1.636580 
21.127424 22.273655 13.936086 
9.386501 22.395744 11.940629 
-18.711460 1.113700 2.434149 
-13.459146 26.578772 7.317130 
-23.139753 -6.927135 8.774920 
21.613943 21.449923 14.960871 
-3.345198 29.576677 0.673602 
23.485310 -5.467852 4.001999 
-29.673729 0.645904 5.125209 
14.033743 20.068108 9.433302 
15.565402 9.127022 -2.318881 
21.139248 13.043994 3.956102 
23.439486 7.435423 1.397922 
-31.177095 -12.929817 13.091647 
19.318577 16.523190 5.003903 
24.878458 -13.639795 5.066939 
-15.283250 13.197556 7.945431 
27.535271 6.009822 -5.795325 
-21.689613 14.560989 -1.025931 
26.017685 11.676348 8.235077 
-20.881287 4.305602 -0.207842 
21.273149 7.889511 0.311513 
18.767611 0.353751 2.288875 
8.176329 28.388935 7.403264 
-19.874487 9.314832 5.315135 
-13.732766 19.894205 3.777606 
-22.458647 15.188952 -1.220783 
-29.431225 5.604002 6.947621 
-16.570351 24.587639 16.485632 
-22.315084 5.962974 -2.866272 
-26.695808 8.266400 -6.586641 
-24.758419 13.481835 2.401882 
-24.361340 9.006553 -1.054281 
-32.963341 -14.206309 5.657640 
-23.992737 -9.293624 8.298594 
23.971558 -6.216357 7.138468 
-32.083698 1.347393 9.875164 
1.016292 27.543295 14.881250 
-26.616749 -7.957057 -0.291306 
-20.251133 -1.171523 12.405601 
-6.843687 28.006527 1.778154 
-2.189173 28.822546 -2.037521 
26.138165 -2.064629 4.827468 
30.047562 7.561560 12.351397 
18.628426 25.487644 3.963144 
-9.735288 27.219521 6.774275 
25.902353 6.171290 4.559810 
0.701029 28.471439 7.167756 
33.145592 -0.949652 12.878287 
28.821037 -1.712816 11.011065 
4.029027 20.691923 -6.161964 
-25.662384 5.050515 6.186878 
-16.695107 18.865856 9.474739 
-32.156708 -15.204885 11.615982 
-31.255116 2.303491 7.250551 
-28.428495 9.279696 6.405897 
25.720198 14.859081 6.487652 
27.393465 -13.016684 11.110411 
-11.375842 15.729949 14.577527 
17.217316 18.639517 9.113325 
24.689707 -9.510034 5.667605 
10.072742 23.008665 9.055243 
-30.985594 -0.650296 -1.679833 
27.529373 -1.019624 7.276843 
-29.723589 1.441631 -5.651917 
15.362129 21.978559 5.664219 
-33.004475 -6.557098 7.222577 
20.008234 16.503412 6.369827 
-27.924410 9.030886 2.976092 
15.882277 7.877611 -6.160119 
0.060077 28.224464 1.590199 
-26.395779 9.781139 -2.165344 
-23.939611 14.331112 -4.254567 
-21.796869 10.010984 3.527976 
20.103180 -6.427263 -2.869991 
11.644776 16.080643 13.552552 
5.405234 26.097601 10.163255 
24.979458 11.923700 -1.108645 
16.219904 8.867064 -0.410662 
20.571644 -7.966900 0.535100 
5.558732 22.840618 11.523555 
7.538009 27.502544 -6.201627 
-5.645476 20.767595 -3.375414 
1.770308 29.324854 14.321200 
-16.681318 19.635214 5.197378 
31.434067 -9.873543 5.982846 
30.385450 -16.757332 13.676544 
31.125967 2.235855 8.818837 
17.545891 13.888706 1.873546 
9.543020 18.481096 -3.913638 
34.799656 -10.573509 9.388011 
6.261075 22.755896 -0.746999 
18.922873 4.839836 -0.248104 
-16.488144 22.401686 -8.488241 
-23.234253 5.944195 4.024514 
29.544113 1.968515 11.234890 
22.774233 -14.501191 -2.948246 
-21.627520 15.711654 2.423867 
-23.044085 -7.195795 3.078294 
32.070934 -15.501915 10.904503 
-17.450130 22.484533 11.529054 
20.241987 -2.229447 12.806333 
-23.308840 -5.459827 2.569789 
-25.685427 -16.030167 12.521396 
-22.962227 -13.522219 3.211169 
-13.940791 24.020914 -8.694041 
-20.965021 -8.536450 -0.643944 
21.181940 18.115801 2.606448 
3.669134 26.871048 10.192908 
-25.285187 11.967305 -5.203703 
29.311119 -9.729566 11.947560 
24.033211 -12.508730 13.923069 
22.883463 18.869749 3.614035 
-26.019136 -6.862670 3.805237 
4.726421 19.257053 15.029362 
-21.935827 -7.030559 13.534603 
-35.234589 -9.222514 10.522055 
11.107068 26.971291 1.414358 
1.097594 26.120794 0.412159 
-23.127731 -10.905684 13.682133 
19.208462 14.946483 3.163948 
5.357211 28.124985 2.318760 
19.249027 10.015934 -4.144440 
-22.680004 12.003565 -0.881326 
-14.667065 18.707403 7.384469 
-22.856737 15.249696 -7.536605 
22.573658 -0.904900 -3.502132 
7.465796 29.323801 6.953634 
-29.363478 -5.312418 10.737113 
-31.008413 -8.745371 9.011067 
17.645836 19.563396 5.981781 
-22.531511 4.582911 0.525927 
18.164345 15.410644 -0.119617 
-0.708871 29.451338 15.317081 
-13.645523 27.746098 9.309516 
34.646294 -6.559985 14.307323 
35.089527 -9.056705 15.441050 
-12.131821 18.038910 9.443748 
-24.837391 16.733788 14.919871 
21.879801 -13.405303 1.095201 
24.893232 -6.630660 2.969218 
-15.495138 13.434929 7.181796 
-19.328615 20.430824 -7.002258 
-23.135395 -2.122077 7.027949 
-17.406105 8.361371 0.256920 
-25.612885 7.130655 9.119251 
12.274657 23.131907 4.301101 
22.100328 -4.694960 1.832904 
23.807600 -15.186294 -1.242064 
23.466866 5.637915 7.777735 
34.365986 -5.396680 14.198715 
-22.514734 17.101297 2.293684 
22.823734 9.378613 9.149194 
-30.332006 0.454076 -4.550778 
-21.434456 -3.400324 4.246824 
24.514351 -14.094116 10.365980 
-15.472424 11.276814 11.178310 
19.273909 5.331336 7.970761 
-26.195208 -3.195426 5.143987 
-8.024983 28.673405 -1.382958 
5.569827 27.740685 -0.240315 
24.776182 -6.273169 7.396516 
-23.310482 7.725685 3.951979 
-16.318518 26.423380 12.039529 
-20.846378 8.889978 -0.720317 
16.331394 14.086014 -2.484850 
-19.748960 18.021116 4.040539 
-32.842670 -16.130842 12.958477 
4.584302 22.141863 -1.289395 
22.075338 19.096592 3.534446 
30.513000 5.765203 14.048379 
25.444838 6.354296 3.913146 
27.260273 -5.730219 5.196869 
16.146427 23.480867 9.893196 
-16.448549 21.340826 -1.320938 
-17.380642 22.191719 -7.201711 
21.969564 2.950226 2.690058 
22.932270 -10.527085 13.699254 
-14.548692 25.252457 10.284003 
13.029423 21.829178 8.639183 
22.703472 16.129694 -5.073778 
-6.301850 29.109245 14.839888 
-28.594973 -8.829176 0.013942 
17.652325 0.711145 -1.739830 
21.574335 -12.546476 -3.234014 
16.996605 14.790951 3.557301 
12.364238 26.375301 4.388875 
6.131019 24.413519 0.328699 
-22.167051 -1.590185 9.046777 
8.853966 30.114380 8.973768 
24.947104 -12.365466 5.589570 
16.800901 13.970837 -1.613772 
3.202379 26.144094 0.688761 
-5.150475 26.643806 3.000130 
17.230255 3.925734 -3.222572 
-31.420343 -3.250435 -5.005929 
-18.403500 2.091627 -2.357763 
-1.023190 21.972322 -3.261056 
-30.366692 -3.517213 4.727608 
-14.841263 20.430361 -1.175354 
28.504908 -4.142421 2.650262 
-4.825641 30.683020 7.117222 
-28.639511 -6.476431 11.559287 
-1.033059 28.797665 6.204223 
-1.829466 27.779604 1.061520 
8.026332 27.510962 7.223554 
-28.755449 -16.395384 6.019899 
-26.521967 -5.705151 1.246671 
-29.624838 4.315806 9.098846 
15.951838 23.236118 0.308187 
29.608450 -1.489142 10.869367 
-14.285398 15.997767 -0.171447 
-21.186228 14.701821 2.701755 
7.284841 25.804792 14.645817 
22.317274 16.971546 -3.708015 
18.722597 -1.608894 -0.690992 
-21.276375 12.918504 2.579517 
-16.405165 7.069434 -5.227047 
-34.381016 -8.314480 14.489581 
-30.796978 -0.737610 -4.245171 
4.453076 21.470543 12.826519 
0.518228 22.871683 -0.721131 
18.174114 12.842525 3.623893 
-23.349258 12.484168 9.513181 
-26.335459 -3.943127 1.437438 
15.356535 20.551552 7.018886 
-5.949668 18.671278 14.930574 
-17.025555 5.481001 -6.109926 
-21.783678 6.680507 3.130607 
-10.638659 24.378395 11.377721 
-10.061067 30.776396 5.365897 
-29.255840 -12.563079 7.469341 
-24.796923 -5.292166 2.706853 
24.706013 -14.160641 12.515936 
15.060372 25.159218 10.933563 
-24.984438 -6.448092 3.524000 
-19.630682 2.266150 13.670223 
-11.413538 22.020355 -0.041442 
9.334244 29.723845 9.534949 
14.248826 25.725937 -1.783694 
-23.027365 0.828989 9.465014 
21.307802 17.136391 3.163668 
-28.157753 -15.271298 8.039338 
21.466248 11.026940 6.186621 
28.773781 -5.921679 2.077827 
-18.366693 25.114483 2.802029 
-22.812263 3.985358 -3.347690 
-13.947092 27.596958 11.779033 
-19.490736 6.144089 1.284082 
15.916094 21.098886 11.630352 
14.674072 11.143487 -3.682003 
15.764188 24.898565 10.475544 
20.910454 5.070021 -2.899770 
22.093597 5.998048 -2.238659 
-16.862511 19.574484 1.523361 
23.760914 12.937510 1.552521 
24.125818 -10.814136 4.315396 
-22.149557 -3.515803 4.648413 
-26.063763 3.448169 -3.123869 
-26.623415 -2.168161 4.364544 
-22.094879 17.028130 0.916185 
15.558907 23.550802 12.146658 
-16.801800 22.929638 -6.290779 
26.575287 -12.866816 6.919280 
-31.687189 -12.254298 7.732864 
9.789461 17.521441 -6.075366 
20.673433 0.187839 7.577034 
-20.830372 18.111666 -7.921975 
30.216381 -14.424837 4.078127 
15.631316 18.614895 8.125350 
22.980707 -12.924037 0.765219 
21.921959 -2.524113 10.005803 
13.506831 16.383942 0.156532 
-18.576025 1.674294 1.001019 
25.552698 -2.341706 4.242537 
-24.859310 -8.916512 7.910161 
31.890463 -10.661430 11.806309 
-5.098734 31.103409 8.556483 
8.803284 25.587124 8.018863 
-28.156240 4.322536 -1.293015 
-22.602430 19.980902 14.608251 
28.306202 -11.139044 4.246749 
34.936653 -12.119516 10.768023 
0.002764 24.366949 9.909359 
-23.871078 -1.824513 -0.009793 
-29.689346 -15.542332 6.779195 
0.812623 23.480293 10.747490 
-26.259825 -9.887949 4.110713 
23.152908 -6.366302 1.760080 
8.451031 28.210789 4.201647 
-32.333572 -9.868968 2.487258 
-15.050987 18.173695 1.407350 
-24.261881 -5.394859 -1.051997 
27.871758 -4.013853 3.183177 
-30.409809 -11.408688 1.096248 
-15.828999 19.846586 3.395413 
20.686676 6.302464 7.733143 
22.265776 21.127733 9.061444 
21.797432 17.720882 0.227307 
3.343800 26.988726 0.686088 
-4.988451 28.760742 8.701638 
27.041502 5.813519 -1.115091 
-22.509050 -6.014668 6.247408 
-34.233616 -13.338618 12.254131 
-28.332104 -2.347249 -2.313450 
30.194307 -6.247588 10.761852 
-24.212353 15.509460 9.974520 
-7.199036 24.959915 -0.201305 
-20.022169 -0.532518 9.017845 
-19.877676 6.893662 -3.808655 
22.897102 14.878504 -7.084834 
-1.280722 21.459267 -4.934995 
-26.535774 4.058540 6.385153 
-24.732298 -14.446397 12.602909 
-20.347782 23.231945 11.742314 
27.122719 11.319052 3.086587 
-7.201713 27.987200 5.089440 
-17.794603 16.318399 3.452885 
5.960856 25.437557 12.272528 
21.713198 -7.487254 11.940660 
25.209621 18.375298 11.613685 
-15.935225 8.113142 -6.471101 
-26.235653 10.045172 2.606180 
29.130379 -0.524635 0.391546 
-12.431159 28.062128 12.846077 
-25.481960 0.599918 -0.405454 
4.708176 26.732660 3.209333 
31.134949 -16.297802 11.588207 
31.545666 -14.207721 8.584663 
-5.022623 28.178038 10.488764 
-19.164463 13.704734 -4.616491 
-21.144381 2.786594 7.278115 
22.773375 -14.441803 4.713437 
-24.626923 -15.974533 4.750185 
-16.756582 15.819348 2.113382 
-33.741795 -12.692220 2.970451 
-20.560917 1.641728 -3.591242 
-31.520657 -6.912500 4.199265 
27.163912 4.917843 9.580057 
24.795040 -0.380541 11.424649 
26.289213 -8.645468 -1.175305 
-20.390947 11.377859 -3.286091 
16.342777 11.191690 8.668025 
20.894722 -9.997109 -2.436910 
-29.486809 -0.256202 2.015467 
-18.029301 18.021669 5.463057 
-19.900059 6.671947 4.885485 
23.879005 3.057267 -3.709237 
21.882065 18.797901 8.019655 
32.587429 -7.660554 -3.825958 
19.895296 -1.144072 11.286182 
2.146589 27.525032 7.089279 
-29.745777 -2.645923 1.205353 
-10.361362 17.273428 13.066191 
14.325037 23.147118 11.629308 
-26.394197 5.966280 8.184472 
26.049259 16.771532 12.337170 
19.963694 13.322407 0.230417 
-18.785879 14.558744 -5.131639 
-16.656498 14.556852 6.260874 
25.485043 6.579281 -1.175129 
-24.314730 -10.089835 8.228004 
21.134142 15.611676 0.970008 
24.313107 14.537533 6.749446 
27.897131 -7.480020 5.722326 
-24.007143 18.627523 13.423733 
22.975685 -13.559166 2.634643 
-5.189685 28.027533 8.297626 
-23.400204 -0.035337 -0.377723 
13.682370 23.136425 6.802207 
5.593828 22.410194 -0.284886 
-22.380699 11.287872 6.823509 
8.501109 27.559492 15.660630 
-28.164017 -6.082466 5.616659 
5.799428 25.919367 0.705334 
-19.766283 3.838652 2.059970 
6.746258 28.984428 -1.941219 
-23.261305 4.564500 3.123654 
32.080559 -4.936653 -0.886895 
-11.046524 24.314957 4.789500 
-10.474003 25.715881 -0.603389 
21.163845 1.638022 -3.790451 
-32.816105 -11.886243 6.727651 
-20.902617 15.063694 10.444359 
17.079292 21.028700 8.343688 
-23.824631 0.614024 -4.039927 
-31.486467 -2.824260 7.673452 
-26.143724 -9.784861 2.911646 
13.408077 25.305073 6.122165 
-24.697407 -3.830174 4.135688 
23.445717 9.810531 3.055749 
-24.232889 -5.039471 -2.541235 
18.328917 9.783203 0.060309 
9.481638 27.747520 3.346111 
30.900583 -6.061574 6.548276 
-7.180007 24.070404 9.287065 
-9.457850 27.948753 -1.960299 
-7.150316 29.005878 14.758381 
6.305630 22.406221 11.654673 
-7.754177 24.473185 -0.520404 
28.573381 -7.491755 -0.525401 
-0.231553 21.039310 13.238278 
28.280319 6.003097 6.501908 
23.007025 9.046156 3.060869 
-22.926224 9.262004 3.997653 
9.280252 25.170464 -0.244760 
-21.808018 -9.706614 2.016533 
-4.914735 28.654232 -0.570945 
-28.290480 4.888443 -6.124832 
-32.428356 -14.606489 5.099253 
-27.841227 6.796929 5.349560 
-26.042028 7.184917 -0.456001 
27.868860 -3.909018 2.196532 
-3.660214 25.992355 2.034003 
-17.509571 14.860585 9.281219 
25.417711 -1.844168 6.736744 
21.308689 -4.610263 1.941976 
-13.195819 19.972235 2.808087 
-31.764381 -4.442339 -4.841073 
5.895722 24.308867 10.582669 
-11.028735 25.605028 8.371217 
-11.935316 28.033567 10.536684 
-25.543259 16.217703 13.478959 
-25.800341 -5.066613 -1.202890 
-19.431934 -0.312800 2.411786 
-23.297667 2.277888 9.226285 
-23.486013 -11.718751 11.349085 
10.732059 21.984470 9.340490 
29.423670 -9.531692 -0.106417 
-16.679853 15.012930 4.038082 
24.852215 14.998371 3.107135 
30.841703 -13.204418 8.883286 
-19.523106 17.332598 4.808497 
22.776440 19.148624 4.538887 
-30.154816 0.313818 -5.496848 
-20.922400 17.753716 8.576122 
-12.812276 17.528543 9.026756 
-17.996225 9.190839 -2.244088 
-24.146116 -16.012178 2.157949 
18.539730 6.961846 8.226584 
20.478279 -2.146351 -2.889869 
23.031782 0.199523 11.075781 
18.625450 15.111145 9.703177 
15.450650 23.127769 5.867970 
-17.022718 25.396255 14.189688 
-12.258966 27.373192 10.179222 
29.595182 1.404472 0.207050 
-4.413727 25.811958 -2.217793 
17.705482 13.769522 0.291382 
16.971956 4.766286 -3.284935 
29.142157 4.287400 3.706318 
4.687816 28.551964 5.326666 
13.500424 19.462757 0.309882 
-7.362813 27.344027 9.327312 
13.563735 26.406206 -1.684710 
-23.997246 -16.048321 3.108566 
-5.849085 21.304119 11.501865 
20.149799 5.419485 2.699044 
-26.797293 -6.290989 0.387189 
-18.894234 4.913881 10.182297 
-17.195213 15.970640 4.020268 
15.383215 14.411581 -3.642248 
27.598852 -16.058491 -0.735558 
-24.339716 -3.394587 -3.309601 
21.256441 22.399059 12.834305 
21.473310 1.911644 4.652208 
-20.406227 17.626867 4.486569 
26.434656 3.664201 6.800033 
-25.353415 17.105000 11.765301 
-17.406883 13.849427 2.471380 
27.144920 6.924073 -5.927490 
-20.027983 0.670681 11.913320 
13.936384 19.551355 1.696720 
-29.890303 -15.546255 3.456953 
5.734502 23.606798 10.995419 
-1.313325 26.452894 14.511403 
31.005775 -15.085532 1.947512 
-33.757607 -11.374537 1.311898 
-6.627061 19.095087 13.867268 
-22.056505 2.389054 2.673490 
-18.146969 13.480663 -4.698462 
21.835917 17.673405 2.790116 
-21.159601 17.030945 -4.866778 
30.850567 -10.535791 6.596707 
-25.740765 16.322809 12.342866 
-26.302923 -14.308049 1.386851 
-33.714714 -6.037178 7.409067 
-26.155750 5.374076 -1.225327 
-24.063772 -6.838806 5.797888 
-21.094261 18.534584 -3.755393 
-30.151512 5.477183 8.158606 
-8.160538 28.500683 -2.799996 
27.733295 4.364559 4.858057 
14.318055 11.218065 -6.644227 
22.694635 -14.480772 -0.288728 
24.769110 -0.283139 4.156559 
-25.238979 -12.306831 11.182994 
-21.016756 18.352043 -7.114151 
-10.865387 25.234732 12.080999 
14.608960 18.556736 1.444253 
-15.559733 26.641602 12.672423 
-2.547195 32.345505 10.366885 
-6.532478 21.472120 10.911938 
17.613596 10.827723 -2.509346 
29.967669 -11.315295 11.975587 
25.418285 -2.551185 10.957569 
10.562347 24.612135 4.013914 
-23.451502 15.029737 -3.525544 
-24.437054 3.756694 -3.363814 
-4.883836 31.868181 8.835751 
23.919891 8.224999 9.337001 
27.083164 -7.325428 -0.999553 
-20.780422 9.768031 7.616297 
19.917448 22.332586 16.487629 
-24.315741 1.975762 3.501556 
-16.661514 7.970280 -1.500317 
23.284500 -11.453384 12.439495 
12.718060 25.229666 -0.950899 
-30.327641 -0.607531 0.754782 
23.052818 12.097788 8.523839 
-15.530984 26.856070 11.622566 
25.426960 -8.469574 -1.198478 
-25.237724 17.018440 12.706885 
-22.420845 2.820769 5.505034 
24.823698 1.930486 4.679598 
-27.768530 4.986226 0.088444 
-25.244379 -1.298850 7.476166 
-28.950371 -7.955636 7.665484 
-6.303416 26.850336 -9.025836 
-20.096085 9.574438 -4.274480 
26.197489 -7.777356 -1.171691 
27.077435 -13.768323 10.693738 
-22.056656 14.957553 -0.214367 
31.744781 -3.518655 7.645123 
10.439322 23.156343 0.664788 
31.159729 -7.558999 1.345696 
12.770347 26.834698 -1.278159 
1.008590 28.138451 -1.717919 
18.663963 4.799759 13.979923 
-3.972463 27.281208 14.139004 
-31.209635 -12.216746 10.050365 
-21.042259 10.937488 7.303589 
25.869350 11.830246 2.792954 
27.638731 6.472643 -3.811858 
-19.747931 8.528687 6.608828 
-2.774648 27.410646 -0.337973 
-6.180404 28.745094 4.334652 
19.041859 11.405316 2.293458 
24.915377 0.244501 -3.457176 
-21.420483 10.288385 7.863497 
31.002640 5.218565 11.343515 
-30.262829 4.609035 15.768593 
6.008307 26.876938 6.025611 
27.517941 -10.821655 11.576863 
26.215143 -3.805914 0.026785 
19.235012 24.213005 10.680517 
24.012636 12.558375 8.414496 
-21.255535 18.977360 -4.654283 
28.616325 3.616982 3.859088 
30.517916 -13.562313 2.652906 
21.349840 -1.540187 5.677233 
20.618586 -9.688861 -0.648129 
0.368527 20.872761 -8.125733 
32.731632 -12.776561 6.898550 
15.553470 20.381639 2.335917 
-24.384106 17.353504 8.973045 
-11.609316 21.145983 -0.514287 
-19.620588 2.346112 11.912416 
32.181889 -8.922441 11.563928 
20.295227 23.426977 7.154529 
-8.574580 26.122416 -3.505559 
6.036235 25.362507 11.478376 
0.508302 27.407869 -1.700511 
7.479417 28.198755 13.781113 
-4.592389 28.782688 15.935704 
33.026165 -10.484899 0.126951 
-1.079210 22.442770 -2.011531 
27.011309 -16.707949 12.306694 
11.243062 22.013115 1.838672 
-20.284687 9.599498 1.965285 
-23.523214 14.782556 -6.365270 
18.654306 6.022163 8.978665 
-7.404125 30.015001 10.361750 
-26.334951 4.254240 4.606319 
31.310759 -11.055492 6.206125 
-30.069452 6.762245 9.868426 
-27.966000 -17.519667 10.159851 
16.280495 15.630180 -4.297663 
28.680670 -10.619709 7.684754 
29.136642 -16.925436 15.157417 
28.299376 -15.169773 6.061966 
-1.064364 33.772293 5.987044 
-32.822655 -14.936574 10.247519 
26.798952 -2.446821 1.144077 
24.825462 4.970026 8.799870 
25.923317 15.683952 6.629673 
-3.787520 28.369671 -0.442501 
-20.408539 3.007885 8.137904 
-17.276054 14.954154 -5.256411 
-5.068510 29.524309 8.182687 
0.229254 26.792850 -1.171569 
28.929296 3.753602 -3.261472 
21.209032 -5.421691 13.691522 
7.295559 21.311207 -1.238575 
-24.446514 9.396405 6.366175 
24.568573 12.134647 -6.683812 
10.899655 23.988981 0.401603 
17.502857 24.784166 11.866552 
-21.970455 -5.327912 6.080440 
19.372276 3.021040 15.822202 
-18.027330 15.144130 5.794541 
25.954895 -15.681052 13.694192 
-32.393875 0.241157 12.439905 
-33.702694 -7.339156 15.350124 
-24.114698 10.983532 2.572842 
34.305088 -5.408474 8.860333 
-21.212214 18.570421 5.627872 
20.578049 6.332157 6.874077 
-33.127598 -16.034245 13.914368 
-31.544346 -8.911889 1.706988 
-12.935561 20.397913 7.501283 
-22.527828 19.936426 8.256094 
18.501278 5.920926 9.997798 
5.805675 20.562014 -4.295438 
17.187220 22.879900 -4.503522 
20.888826 16.716797 10.080177 
21.005993 -6.830974 2.345126 
-21.617332 5.705513 -0.467537 
-3.673042 28.910477 6.886385 
-19.309010 -0.704326 -1.145122 
-30.680746 -17.013630 10.824678 
-20.040840 14.583827 -1.176215 
-6.366589 27.327553 1.377127 
-25.385532 6.194306 8.686028 
25.591106 17.430735 12.713344 
10.178015 23.791704 1.202801 
-29.276011 4.690422 8.404903 
-17.994921 21.739286 3.166495 
17.317841 23.159096 4.480013 
10.035637 28.144815 6.293417 
32.024555 -8.072502 2.654281 
21.485582 8.211814 5.787064 
-22.660515 8.470868 -4.213503 
28.694723 -15.213974 3.317456 
15.034831 24.163084 5.116468 
-5.131310 26.761103 -1.100521 
1.064764 28.992685 0.789982 
-31.460899 2.181344 14.418649 
22.273785 18.528379 2.871252 
6.647959 27.187981 11.178937 
-21.380697 -4.203582 6.506438 
-28.238487 -9.096308 3.264167 
-20.286409 18.799263 -8.014062 
-11.352502 25.692677 2.035422 
-20.003445 3.600922 8.488849 
17.647097 10.289412 -3.083130 
-31.624876 -3.052502 -3.614424 
-21.741480 -4.962824 15.457942 
20.298462 -0.497226 15.703209 
-29.137711 -2.787575 0.162311 
-10.811040 27.231689 -2.867077 
24.066509 -11.673046 8.366808 
-25.005966 -14.398026 15.126291 
9.494491 22.072874 -1.409613 
-4.530426 25.905949 11.418181 
-17.685909 18.314611 -4.124195 
1.849072 26.358393 12.204329 
30.251583 -6.569240 6.405783 
5.266878 26.842150 5.656682 
14.559640 13.954543 10.798944 
25.849413 -4.143323 1.217739 
4.070457 28.935915 4.305180 
33.145840 -1.000098 11.717351 
18.927961 17.512335 -4.665504 
-21.211258 -5.365083 11.132886 
23.372026 -11.103679 -0.302991 
9.486282 25.575064 10.616409 
20.617218 -5.835127 0.392804 
-22.191948 14.462306 6.995595 
17.225262 13.157968 0.899337 
-28.242655 -4.169194 1.925948 
-6.592546 25.102989 11.185616 
22.911060 -3.502083 3.392739 
9.242880 27.416824 0.151912 
-33.230125 -4.032592 14.171567 
-9.314214 21.391405 0.013942 
3.893950 28.421558 10.980691 
-24.241211 11.211370 8.174773 
-18.821814 5.856555 8.611754 
-29.140356 1.982409 8.017651 
-15.171851 26.939812 6.922721 
23.319923 -6.196129 2.951595 
27.477955 -13.245296 6.204020 
-1.921487 22.757160 11.171346 
-19.842651 21.819479 5.990628 
-21.403194 13.258433 0.713408 
-28.185696 11.660593 10.287239 
25.056181 -0.090073 -0.017507 
7.189317 28.093529 14.527759 
-10.107213 25.167814 -1.474704 
-20.318508 5.973771 1.529530 
24.112726 7.351886 0.926110 
-16.375425 16.591694 2.068369 
21.221186 -4.353334 15.572586 
22.396864 4.323748 3.496080 
-24.994539 10.270916 1.703564 
8.289227 27.311344 -2.734673 
-0.132236 26.997021 1.246463 
-4.084187 28.529665 11.421597 
16.894165 20.700464 -0.480008 
33.657795 -9.131780 7.201387 
27.072245 -7.351715 5.549608 
29.850218 -3.928626 6.832690 
33.401806 -12.300374 7.190694 
32.911572 -9.400811 7.191420 
-3.971741 30.258070 6.804665 
24.531008 -10.295177 5.778537 
27.477940 -14.014009 6.588600 
29.599958 -7.429698 6.227359 
29.574562 -15.215522 8.459633 
-12.308538 28.491911 4.630690 
31.602840 -14.740092 9.240505 
27.003395 -8.358115 5.610060 
31.602285 -14.142584 11.076709 
26.323229 -15.210254 7.698720 
29.658119 -12.253096 6.750052 
21.941570 2.811964 5.122324 
26.287905 -6.429784 7.312962 
33.745018 -5.575479 9.518409 
22.124184 20.072697 7.285119 
28.907316 5.989000 5.643160 
32.660007 -7.186324 5.930013 
30.768440 -12.131994 11.819876 
28.558701 -4.700757 7.587877 
32.598915 -6.323606 5.774377 
21.411116 14.806751 4.690570 
34.716396 -10.544497 10.224737 
25.891972 -5.726161 7.362780 
29.237858 5.766217 6.509946 
24.292509 -8.043984 8.340593 
25.735144 1.984264 4.756116 
26.889849 -1.194121 3.987814 
-25.080135 12.231389 4.853282 
25.824747 16.771839 6.531946 
21.665230 1.211363 3.639054 
23.102917 -0.971833 3.239741 
26.236488 -2.980197 10.839634 
15.608253 14.311821 -0.793428 
26.945749 4.285717 5.002945 
27.611105 11.097003 3.731300 
30.563965 -2.045377 10.380416 
31.358480 0.086274 4.963462 
25.393108 2.742188 5.156074 
22.250032 -0.883912 3.168715 
31.145197 1.568419 5.965088 
24.865614 5.270534 4.141392 
26.235645 0.498820 4.772358 
30.630999 3.558119 4.343215 
-31.362116 1.708873 6.666948 
-28.264874 -10.340019 13.016002 
31.226416 -2.303397 6.732836 
-2.414135 24.931707 1.178207 
22.385181 0.682455 10.885699 
24.190382 4.914428 4.974944 
18.978479 -1.023083 -2.888007 
31.263258 3.056572 7.433332 
22.856213 5.265217 7.340796 
24.998589 5.403892 7.733644 
-20.348795 10.962103 5.147542 
-29.925402 5.450831 15.798284 
24.308371 -1.793783 11.035133 
20.506899 17.231501 9.520959 
21.012163 10.501907 4.684984 
23.692299 9.000686 9.352378 
22.662661 8.543357 3.830133 
28.937284 9.955267 7.137449 
22.945457 6.216641 3.826637 
20.805050 6.958407 8.165560 
24.305178 5.857720 4.114053 
28.426689 10.328241 6.418662 
24.698778 10.849448 3.466005 
27.644999 11.491810 6.497189 
-2.451106 24.958824 9.597828 
-32.921749 -4.969628 9.478213 
17.123400 15.646579 3.908406 
18.225994 17.136595 5.518063 
24.088358 18.580420 8.165451 
20.530914 11.076867 7.379491 
19.225239 17.235664 5.340711 
7.278943 27.769190 7.305440 
25.950396 16.034624 7.364650 
24.167650 18.816551 6.301005 
25.283396 14.961824 3.808572 
21.964163 15.991027 2.868839 
19.724312 11.556087 4.959717 
19.631601 14.523787 2.585331 
18.716639 19.649775 6.118171 
20.134523 21.966576 4.787722 
16.914766 20.042881 11.053386 
20.314604 22.065729 9.470832 
20.345503 22.769197 4.875275 
-14.869483 14.556641 -0.431477 
16.787321 18.411755 8.411139 
17.158468 23.849823 3.930735 
17.857031 26.205755 6.394245 
-15.535982 27.195730 4.771905 
14.999241 24.191051 11.974419 
15.203177 26.731730 4.954527 
18.334246 18.782640 9.281927 
13.763931 23.925652 7.820090 
9.056935 22.190006 11.042463 
9.636436 29.352007 10.272844 
11.409611 27.414736 12.847183 
-22.211147 12.166480 -2.554892 
6.679015 27.683420 13.563334 
-25.593735 4.558410 4.670990 
11.451951 27.614937 9.995809 
10.449224 26.413702 6.568530 
7.530523 24.347963 14.797704 
6.085752 26.641909 10.131336 
-19.823442 -0.970863 2.176884 
11.105338 25.436937 8.450643 
-29.946001 2.349719 4.405043 
8.419423 25.712397 9.999191 
8.523478 22.634825 10.577716 
-12.972261 27.617397 7.596551 
-1.679876 25.414467 1.028936 
-0.186962 25.693665 13.871213 
-0.021838 28.315966 8.816442 
2.520526 28.964025 6.854765 
-26.399508 -15.014022 7.454366 
1.457505 27.756016 7.686527 
-2.972050 33.232113 6.010633 
-0.514633 24.396845 12.138676 
-2.199197 28.255468 15.266879 
-0.996398 25.737030 13.950996 
-1.592951 24.675606 9.844567 
2.127322 32.264439 5.224408 
0.094466 29.808416 14.025578 
2.143223 31.817862 8.806579 
-3.834738 31.914078 11.231295 
-4.407594 26.776833 9.793957 
18.803524 19.940023 -3.969945 
1.365640 32.634521 7.317870 
-35.184998 -7.553955 10.774724 
-2.059317 33.553204 7.607882 
-13.987720 24.968056 -0.757019 
-10.806231 25.901993 12.510955 
-13.498726 17.914091 -1.217764 
-11.711590 27.439848 11.409319 
-13.801926 17.812645 0.160729 
-6.020316 28.509089 6.496952 
-9.858856 30.803740 6.142666 
-7.278376 24.719994 8.716539 
-6.382902 25.017796 10.087577 
-10.946198 23.910549 10.569553 
-6.368455 25.873320 8.970696 
17.664789 10.375830 7.827757 
-6.763391 26.738161 12.019757 
-19.316233 22.150181 3.281624 
-15.556372 21.092932 5.740596 
-16.476076 26.186333 9.590202 
-14.990566 22.895859 11.427048 
-23.658316 -5.163800 -1.971248 
-19.324627 24.035681 7.250968 
-19.273260 24.122213 8.246568 
-12.480291 22.135878 8.067671 
-18.078856 24.674725 2.090727 
-12.767474 23.899031 6.766312 
-17.901361 11.573993 6.288743 
-21.096598 15.580401 3.040038 
-25.706491 15.612223 6.304071 
-19.690922 15.583070 3.187451 
-17.565847 15.403768 8.434935 
8.811725 26.366722 -2.544882 
-20.983505 11.015620 8.462404 
-16.515568 14.609685 4.885508 
-22.171902 11.715698 5.234365 
-24.746716 12.905655 3.113596 
-18.045061 16.658884 6.942744 
-25.053036 16.327820 4.324654 
-21.163130 17.573465 4.115664 
-19.907343 8.341070 7.644252 
-20.748363 16.761942 3.458396 
-19.868303 7.595439 2.453228 
-25.509764 11.127171 3.398838 
-21.575724 5.446727 7.828049 
-22.834009 10.122863 4.164854 
-21.544796 5.107304 6.441592 
-25.232536 4.947777 7.065644 
-27.289240 5.835151 5.420699 
-24.599066 4.584313 4.097174 
-23.650528 10.180789 9.144636 
-24.531906 10.063179 9.249032 
-26.795528 11.589267 4.691652 
-27.053301 1.806682 4.739584 
-29.777136 3.230230 4.023721 
-27.267508 0.933429 5.012452 
-31.569839 0.957428 9.266692 
3.543897 24.844137 1.299730 
9.941047 22.800140 1.339545 
-22.675274 2.565969 4.621382 
-22.961996 -6.230268 7.225809 
-24.490673 -6.882083 6.613900 
-28.980749 -3.854455 4.957758 
-27.126766 0.122398 4.851056 
-29.106035 -0.376127 4.529222 
-21.496805 -3.732594 5.826315 
-24.198154 -1.172406 10.075184 
-31.627003 0.203870 9.670248 
-27.079403 4.087433 9.419594 
-32.109016 -5.878057 11.249220 
-35.148769 -9.340468 11.547248 
22.643875 13.160041 -2.671338 
-30.864288 -9.678489 7.985486 
-27.264902 -11.976901 12.573878 
-31.654722 -4.937006 9.314715 
-34.350880 -10.165753 12.397808 
-26.221338 -15.710443 8.837514 
-29.460058 -11.212701 8.267838 
-31.246952 -11.971932 8.365086 
-25.506475 -14.121158 10.843843 
-28.980320 -7.609768 6.731661 
-35.143204 -8.097705 10.153031 
-34.809471 -7.002858 10.256500 
-28.630339 -5.657820 10.860166 
-21.761604 -5.615994 1.883878 
-32.749283 -6.586657 11.617959 
-30.706722 -4.839187 7.418386 
31.361345 4.630189 9.804351 
29.168375 8.105428 16.018444 
28.587593 11.744859 10.590460 
28.607685 11.787795 9.596966 
28.569033 11.803686 8.750249 
-29.431963 -1.085042 2.134396 
24.568180 19.192116 11.411596 
23.689972 19.917160 9.409248 
21.861322 21.874357 10.195630 
20.734961 22.925268 11.178871 
19.804636 23.572008 13.782591 
20.001072 23.705791 12.438550 
16.288872 25.679188 13.905833 
15.217424 26.247105 12.067673 
13.428187 26.320313 15.791059 
14.369766 26.348696 13.896732 
-6.868641 30.155422 11.024273 
-8.732450 27.671089 16.608780 
-11.494276 28.090099 13.983341 
-16.241199 26.585148 11.234762 
-17.912041 25.145515 13.414629 
-20.563572 22.142704 14.883945 
-21.581285 20.380096 16.329983 
-21.188480 20.243414 6.636569 
-23.258064 19.452637 8.799917 
-25.951626 15.562181 13.174673 
-26.152607 15.644089 11.925360 
24.202621 6.521427 3.545242 
-28.741352 10.050313 11.998864 
-28.831339 10.131713 10.932840 
-29.000280 9.127064 13.006722 
-29.552898 7.313756 14.130698 
-32.257694 -3.542747 9.322457 
-24.202477 -8.369654 8.137779 
-27.429443 -5.619329 1.088013 
21.877481 -7.504383 0.344182 
-18.023834 8.040728 8.263184 
-16.288797 10.763260 8.565434 
-16.525129 10.837704 7.697974 
-15.571725 17.261938 6.835067 
-14.364531 17.021444 8.004073 
-12.509461 17.181356 9.829138 
-7.130857 20.983929 11.090062 
-2.464953 21.840933 12.062276 
-1.019520 21.971502 12.080113 
2.151816 21.867674 12.676805 
2.269802 22.829540 11.875918 
4.070839 23.634731 11.283386 
4.991352 24.080853 10.934811 
5.369226 22.016438 12.179048 
6.792468 21.206604 12.470230 
7.657026 21.586401 11.302400 
12.127565 21.246286 8.649947 
21.316031 -4.614669 0.948854 
15.753312 11.876808 8.944174 
19.488138 4.501822 8.479849 
19.688871 1.793277 10.373174 
6.811253 28.706131 4.078810 
-26.071566 10.098125 6.515083 
-23.513210 -11.244632 0.463786 
-23.048391 -13.832231 4.066193 
-29.710594 -10.203221 7.374377 
-27.124063 -15.134412 2.063934 
-30.145458 -15.384784 7.465365 
-31.559448 -6.355325 3.133070 
-30.098436 -12.503293 1.290475 
-29.988815 -14.234941 2.272206 
-26.765896 -5.578384 2.018841 
-23.522675 -7.456016 3.764526 
-28.260813 -13.553830 7.242814 
-24.522381 -15.981972 5.549128 
-28.014462 -14.993131 2.073763 
-22.090712 -10.785464 3.642062 
-26.270346 -8.870664 4.031531 
-23.870373 5.747117 0.000618 
-29.648912 -2.102396 0.505718 
-21.815853 -2.679583 3.716677 
-28.886629 3.233877 0.287636 
-21.975229 3.914806 -2.604127 
-7.692142 28.160000 1.674562 
-22.698917 5.729788 1.034270 
-21.887653 5.708576 0.884622 
-24.652727 0.826741 -3.953930 
-18.680586 1.091879 0.396171 
-23.316067 4.956320 -1.646868 
-19.601933 -1.009262 -1.822016 
-26.217409 0.788666 -3.608856 
-23.323652 -5.820126 1.866870 
14.301120 19.549427 0.732149 
-24.253841 12.427751 -1.079801 
-17.713976 9.005953 2.518240 
-20.641092 7.039575 -3.952314 
-25.709379 8.928438 0.030518 
-17.452175 9.361238 0.342311 
-25.620068 10.063684 -2.415780 
-19.834803 10.394909 -4.029786 
-16.484324 15.559994 -5.130510 
-15.837802 17.333073 -2.822278 
-22.387249 16.750296 0.116196 
-15.298977 16.366417 -2.811964 
-11.269919 23.777691 1.080679 
-20.533978 13.489349 -1.082400 
-17.053587 19.523819 -0.728277 
-16.380196 19.383673 0.073136 
-16.709675 18.891462 -1.463825 
-11.668527 24.891579 4.521391 
-10.668220 23.669167 2.118423 
-12.660747 18.428814 1.115651 
-10.327260 23.536896 1.187076 
-8.309235 28.065245 1.045457 
-5.178891 26.052910 1.375561 
-6.032163 22.041409 -0.836550 
-7.812884 25.359505 -3.475954 
-5.784595 26.619207 2.463688 
-6.042659 24.062922 0.538143 
-0.840620 27.153576 1.891982 
-1.608160 28.913284 0.090727 
-1.273882 27.090197 -0.915303 
-5.651162 27.685583 1.359230 
-3.540165 24.202297 0.306463 
13.097878 25.903053 -4.937991 
-4.924512 26.597435 -2.154867 
-5.051571 26.280823 2.211854 
2.402602 27.932543 -2.955516 
3.975786 28.932438 5.154831 
3.438620 29.121214 2.810290 
0.496937 29.237181 1.333285 
0.182716 25.468687 2.057360 
2.703432 26.429773 3.556040 
1.148018 23.724033 -0.545092 
5.028949 27.020058 0.656605 
5.008286 26.757608 4.899133 
0.315709 27.516273 1.858924 
4.860693 25.929501 2.735016 
4.852800 26.702467 4.123077 
5.113536 26.035839 3.547429 
10.060568 24.880533 2.681671 
6.577712 24.108410 -2.044033 
8.926599 24.207792 1.083572 
5.673237 24.653978 1.617377 
8.909595 26.957752 0.918613 
5.937875 28.486351 0.863763 
13.364599 26.326775 -0.823795 
12.692410 24.997938 6.305927 
10.401245 24.721485 -2.164753 
9.628602 23.010031 0.634080 
11.540456 20.249964 0.690476 
11.254344 24.201473 4.316866 
11.708372 23.587767 3.881880 
15.521246 24.194088 1.732131 
11.525183 26.228336 3.876753 
11.690706 26.120716 4.741210 
10.921053 21.485773 1.257123 
15.853288 20.798962 1.009344 
12.882314 24.653717 -2.892840 
13.283760 22.028675 4.427459 
11.596086 24.643232 5.185335 
14.389217 25.637360 1.516861 
16.324986 20.693525 0.300937 
16.572895 13.962747 -0.836305 
21.473314 15.128266 -0.036752 
20.224472 14.231213 0.295876 
16.322313 19.898211 2.374826 
21.469332 16.121357 0.442494 
19.783449 20.359713 -2.609537 
21.093277 18.765572 2.048365 
16.885176 13.912542 0.973674 
19.754265 11.761015 2.338757 
24.521688 12.336778 -1.837858 
17.296728 9.005761 -1.661197 
20.957544 6.394757 0.872118 
21.336172 12.770490 3.206997 
23.398418 7.757988 0.577897 
19.373400 7.306392 -2.691589 
17.743341 2.515618 0.099724 
17.617117 2.727095 1.255097 
26.389080 -15.340862 4.903867 
25.173214 7.054499 -0.136161 
20.511551 -1.074015 3.214659 
26.778288 5.592118 1.560889 
28.822954 2.043302 -1.770417 
22.444365 -3.797269 -2.270226 
18.887287 2.204861 3.455991 
21.645824 -2.282170 -2.994531 
26.273829 -3.593390 -0.958485 
23.189018 2.618250 -3.822330 
28.607718 3.648985 -1.262670 
18.055145 -0.298635 -0.449475 
27.433027 -0.906801 3.487545 
23.700716 -5.004644 1.951094 
22.465446 -8.428992 4.200127 
25.156172 -7.372154 3.154825 
25.214449 -13.352167 0.477568 
23.491541 -14.014620 2.162321 
31.350058 -6.597288 3.139981 
31.695936 -7.786611 1.917680 
24.133821 -12.064953 5.359269 
28.107254 -5.445257 5.366663 
31.174667 -5.931144 2.751518 
-33.815304 -12.692985 3.785634 
-27.217249 7.195227 -2.382025 
-27.088341 6.525753 -1.496822 
-27.191936 7.920457 -3.564013 
-24.859982 12.747691 -5.156005 
-22.715984 16.359766 -5.938381 
-22.890656 16.432808 -3.344928 
-20.581440 19.294081 -6.250589 
-18.156580 21.831207 -5.921861 
-18.156357 21.897305 -4.890888 
-17.188036 21.871786 -8.419724 
-16.917980 23.094486 -4.575578 
-13.626139 25.644297 -3.681807 
-8.856488 27.965738 -4.029868 
-8.830071 28.173704 -3.138538 
10.771810 27.427879 0.691758 
15.863241 23.991835 -5.057021 
15.984342 22.285971 -8.188416 
16.944605 22.302315 -6.800664 
17.749882 22.098030 -5.566676 
17.790247 22.315334 -4.471648 
19.592806 20.188210 -5.924847 
23.913414 13.816231 -5.861517 
24.181564 12.819536 -6.783646 
25.737516 10.202127 -1.755511 
33.034431 -10.409799 1.040875 
17.411127 3.526903 -5.534043 
16.414131 6.285668 -4.747444 
16.940102 5.969040 -1.795398 
17.072714 7.125720 -0.426773 
6.962775 19.238035 -7.837933 
5.018744 24.275061 1.289315 
-4.102650 21.491968 -3.274708 
