-12.660005 20.870327 -1.435562 
-23.631819 -2.626106 11.899909 
-18.087540 -1.107479 1.775814 
-28.352547 -4.425575 8.966135 
26.871042 0.015027 1.370903 
-14.587001 14.285810 0.028560 
24.384472 -6.454704 7.919131 
-15.211237 23.278881 -0.039258 
-15.398249 18.121370 3.170629 
-2.836019 22.403891 13.412988 
16.000799 10.632815 4.652818 
-31.382740 -1.359593 3.494235 
17.520994 24.348902 -2.579345 
20.762329 13.070780 -1.116903 
-0.506245 32.172192 7.352375 
-20.785095 -3.884641 6.279196 
16.992785 10.786566 -0.102173 
21.385859 -0.802028 -0.390472 
-18.777603 2.973984 -0.220257 
-27.553396 -6.238232 10.624994 
-5.212205 30.303490 13.828738 
8.076756 24.099522 4.816482 
-15.835266 15.078115 5.292432 
-17.149090 22.554905 -7.061789 
-15.799623 3.794262 23.184828 
17.836678 5.175614 12.393653 
-23.551445 12.850835 9.992255 
22.929329 -11.905090 17.861496 
-16.193127 24.496288 -1.717103 
17.842607 9.570080 5.324436 
-8.400799 25.213814 16.210119 
31.781872 -1.539006 14.831714 
-32.546101 0.607997 -1.982786 
12.825358 18.028004 1.378903 
-19.463070 -6.918396 0.632319 
8.959367 23.843174 10.662755 
-28.569191 -7.323165 11.111494 
20.862665 16.513939 11.356790 
16.706841 24.694626 16.510479 
-23.536560 3.285050 14.597923 
25.711056 -8.634960 9.876071 
18.957497 -0.587282 8.571332 
4.403494 27.476221 3.575096 
13.323873 26.376810 15.769122 
-23.171379 -4.028752 0.955081 
-16.527027 6.988808 5.503795 
20.009895 -7.224740 17.874695 
-1.349082 31.397234 13.481054 
32.322998 -5.038862 18.596378 
29.980513 -11.100266 0.532957 
-21.805723 6.660198 8.007807 
20.800169 6.117393 5.218442 
17.451254 1.484800 3.558043 
-24.558332 -2.238116 2.371835 
-2.989715 31.639479 7.682871 
-25.398453 -0.126723 9.341097 
-21.554657 11.453258 0.833174 
29.247469 -11.741976 16.644478 
11.282752 21.905867 -1.316949 
-16.100948 5.559907 12.321489 
-16.099434 6.933642 -1.880820 
4.540977 25.686939 2.558452 
-7.192410 22.207260 2.914695 
-8.455268 28.245771 0.837351 
15.381062 7.313619 -2.952737 
17.347281 26.022100 10.687967 
23.210651 0.169290 7.376883 
17.461491 6.536008 2.150088 
-3.529687 27.161232 12.006312 
7.372753 18.738560 -5.163749 
-6.405836 30.142157 9.044824 
-24.535055 -4.717880 16.468552 
22.210068 -6.821679 0.785931 
-20.880341 -0.729868 0.696248 
23.510403 -1.687296 12.533686 
-12.897691 24.014996 6.098843 
-18.074467 18.915524 10.510824 
18.667490 11.749893 -1.240954 
-3.538847 30.429436 18.579401 
9.605397 26.875231 8.330140 
8.634572 25.095192 15.028605 
14.099776 15.050273 10.797326 
-15.497645 14.299082 4.221313 
-26.874733 -13.873862 -2.656430 
-23.852610 12.051639 13.003779 
28.114389 8.278209 13.170871 
20.872364 18.836042 14.928253 
24.047178 -8.562241 5.812783 
-21.327908 0.914001 7.929307 
21.429783 5.689452 -1.091736 
-26.019533 -8.724916 12.409579 
-27.068012 11.017346 16.335579 
28.348883 8.232187 14.013403 
24.876425 9.332682 9.665510 
-26.769581 10.997229 -1.942747 
4.252011 31.488966 8.099616 
-26.212660 -5.077456 9.721207 
-13.445172 23.322496 13.633043 
-25.380127 -3.147975 10.690791 
-30.351521 -1.940312 21.623293 
17.753517 2.994692 -0.210628 
-29.469997 7.003226 -4.967706 
5.577188 28.277164 9.010401 
21.885427 8.717431 10.098166 
-14.480671 11.963254 12.803881 
24.805067 -1.461975 7.297556 
-14.783691 22.696602 -1.072934 
24.352882 2.845494 14.174838 
19.664909 1.738113 6.475039 
27.255381 -0.619936 10.215156 
7.354609 24.551670 11.412738 
-14.912325 17.149429 -3.763642 
-8.572162 25.213249 10.190964 
-24.383644 -0.655285 15.759889 
16.712879 4.134055 2.853209 
12.082768 21.625158 1.800982 
1.032457 31.377174 15.377802 
-20.863508 3.627755 6.989227 
-5.651465 25.224314 10.848790 
-20.952335 9.529977 8.284349 
-21.735876 18.360476 -5.286603 
-13.901257 25.295273 0.862665 
-21.000740 9.378990 4.429978 
17.757341 15.216444 14.152888 
1.953699 22.465473 1.489394 
10.434299 21.894117 2.540854 
19.384493 7.976924 5.309661 
-27.390415 2.586214 4.960672 
-28.094444 -6.700075 8.859416 
12.168169 18.223288 10.189998 
-23.467419 4.234423 12.406357 
-21.131090 9.816168 5.114363 
15.399286 7.139220 -4.456079 
-21.937090 -5.707976 15.227169 
-7.869248 22.370348 0.968773 
11.043174 21.942717 14.104179 
-10.307081 26.377131 13.955628 
27.797148 6.332694 12.022893 
8.990170 25.189474 12.506643 
27.045021 -5.596084 10.265702 
0.077612 27.738977 12.805928 
-24.575863 -1.045597 6.928275 
-17.884649 -3.687023 16.721880 
-20.617207 21.280825 -1.818471 
23.888502 14.051639 2.151837 
-16.669378 17.648439 3.589776 
15.531827 17.734154 15.074003 
-28.510698 1.336629 13.287856 
-11.707072 24.598795 12.677816 
23.071821 -11.851347 19.908964 
-28.051170 1.766100 4.453994 
-24.503988 -2.262310 9.492887 
-16.423895 6.151299 9.344556 
22.735636 10.960857 7.104055 
-7.150222 23.178492 2.299167 
-0.573303 25.102222 11.594211 
-15.913406 2.350553 14.316969 
-9.091159 29.287436 10.600181 
19.134392 -5.128852 19.766516 
7.942083 28.194149 8.871012 
-19.475393 -0.365192 0.536086 
-30.269131 -10.237519 5.192982 
19.981779 -7.821810 -2.020250 
23.410166 -2.341559 3.586660 
-30.242865 -6.037484 22.871643 
-29.339916 -3.343067 16.032286 
-15.594518 16.015646 2.658535 
-22.598085 17.638893 20.804098 
-16.698772 10.180296 11.489318 
25.239113 -3.216941 8.746922 
-8.984884 15.186590 21.841911 
31.030138 -7.866563 15.434255 
-28.615049 6.429965 20.058514 
-28.254713 -6.243536 5.649754 
19.661020 16.316868 4.692544 
-16.647425 28.435560 15.602326 
-18.105654 -1.821744 -1.074417 
28.396143 7.393249 23.013748 
-5.468508 29.119658 -2.457000 
-27.300898 1.566411 3.259323 
15.130663 8.226874 -1.954491 
19.746843 9.159127 0.727604 
-27.793751 8.815540 16.337234 
22.436054 -3.306065 1.717172 
-13.754650 14.715611 -1.911909 
9.944015 18.664019 17.174192 
-3.166511 28.404331 16.078722 
21.888899 7.426259 13.398849 
19.657396 15.882956 13.174784 
5.094035 31.792332 9.090619 
2.232934 20.477394 -7.331382 
-17.525351 3.930707 0.661761 
23.006330 -8.598695 14.600873 
-26.125519 11.787373 -0.899653 
-23.701385 15.941383 -3.219654 
12.175980 14.770670 21.159008 
-25.781445 0.234165 1.772703 
-22.291321 -11.140594 0.505639 
9.205501 26.225769 -0.088848 
-26.544222 3.357335 10.208152 
-22.573160 10.599919 2.062143 
22.245878 9.311632 4.908492 
-8.946042 28.732189 7.842212 
9.107483 17.292768 -5.617413 
-28.812403 -6.043503 3.448878 
-22.577782 -0.336445 14.831881 
-11.211392 25.755348 12.282792 
-2.377780 31.327497 16.003340 
-23.750483 -8.520576 14.469100 
-16.711853 4.771750 10.179440 
-21.489132 -8.076814 4.524559 
-13.640936 28.634186 17.846077 
-19.263433 16.438696 6.790880 
5.852494 30.547874 18.503281 
-17.649290 -0.096062 -1.777901 
27.738941 -6.200839 5.052682 
15.080115 21.335474 -0.610060 
-17.364176 15.371686 -0.749155 
25.183281 12.977556 23.275469 
-10.582209 27.582727 -0.543206 
17.083292 0.238742 11.304363 
24.824282 5.989443 6.295351 
-18.090096 0.487482 3.178850 
-15.933459 18.753443 3.358951 
-19.670530 -7.422267 18.651268 
14.597986 20.332180 2.030940 
21.763836 17.454506 23.491488 
-17.182028 16.801943 13.762357 
-16.930016 3.311510 3.034132 
-19.964300 -4.680522 13.698914 
-21.604574 18.902725 12.575796 
-20.744644 -1.730623 14.048655 
19.090267 -1.445354 10.250240 
22.588919 12.500641 1.868000 
23.604761 2.537089 14.142876 
-25.403345 1.712749 14.714857 
32.254993 -6.677002 2.566071 
-25.278074 -1.536302 6.880025 
-11.930909 22.454916 8.134607 
23.476868 15.206166 -7.285671 
-26.246084 9.996117 1.735680 
4.307827 25.628145 11.362844 
-16.246380 2.694298 23.141201 
-22.790577 13.247767 13.470063 
-26.912888 -4.656338 9.348323 
-1.178236 26.652962 8.894028 
-19.519268 -6.028627 -2.399220 
17.814453 10.724631 2.359643 
22.857328 16.924976 -1.022780 
-8.611392 23.727043 5.360874 
9.235595 29.596428 13.580933 
26.542585 -12.299674 0.433675 
1.903107 20.679413 -5.580190 
20.900045 -8.114835 3.633063 
18.996967 18.435259 15.635822 
-14.616776 6.426147 17.095486 
24.101364 15.440484 7.907746 
-3.997301 28.157944 10.276342 
-12.134411 25.212189 3.470513 
-25.850559 -2.222842 8.041341 
-14.136686 24.901794 1.560227 
-16.591505 6.110067 3.559941 
-18.349529 14.284356 6.344376 
-25.665342 -6.973495 5.061661 
17.747797 0.545481 4.345119 
-11.233685 21.585415 6.759415 
-6.208263 29.363379 13.833972 
-18.087111 -0.967076 -2.799816 
-15.416028 10.151798 2.104352 
17.338821 1.435292 11.986890 
16.589977 13.790905 5.592576 
-15.197344 22.932241 3.835027 
20.305593 5.587659 -1.153941 
26.269072 4.748029 5.444222 
21.516081 -1.878839 5.501951 
9.718039 25.313284 1.370317 
-25.602377 -6.941742 16.294659 
-19.175482 21.646952 2.199220 
12.043520 18.438337 11.377850 
23.724907 15.845524 8.540595 
29.384508 -3.169685 5.412787 
23.129297 -2.585483 10.574271 
-6.969838 25.440804 8.878963 
21.641541 -10.079102 3.306599 
19.518110 7.187628 11.340780 
-6.041603 30.153669 17.088663 
-22.971865 -4.794946 15.913508 
-21.821381 16.171206 8.486853 
-15.667478 21.513126 1.371899 
-13.201814 28.989641 12.535340 
2.734883 30.559719 13.902881 
20.558756 16.345055 4.124373 
-2.101943 24.884155 14.412475 
-12.643188 26.608240 -2.914078 
24.522770 -1.466141 0.705724 
31.028858 -4.786582 5.061840 
16.327600 4.604636 1.014524 
-3.103395 31.687220 8.854436 
24.031731 -3.045401 6.312421 
21.154268 15.664159 11.108137 
-22.800859 -8.255906 14.898112 
-23.680822 -2.703729 2.125100 
0.878175 32.102802 10.445534 
-26.014591 2.871485 10.713974 
-17.109255 4.639440 -5.021251 
15.261297 24.142416 0.984309 
8.130332 28.039841 5.260051 
-10.990873 26.924158 1.673736 
-26.129650 -10.376422 17.976427 
-8.752098 28.199232 -2.724496 
-21.492533 -7.827106 9.615630 
-3.655659 31.397964 9.361383 
-18.487837 4.039875 6.313687 
24.325029 -11.267805 3.029820 
29.265240 6.229121 16.116024 
-19.883795 -1.115626 6.699316 
-9.954650 23.468336 16.907782 
1.068853 30.066214 14.670575 
27.773699 0.713085 12.051417 
-21.195919 16.777216 0.854194 
-17.688219 4.228372 6.552014 
13.360864 23.604424 10.399516 
4.169952 31.239927 7.036587 
-26.510603 -1.895264 2.379526 
-22.423750 -6.668806 0.767610 
-3.127667 26.691607 11.450502 
21.319532 3.290967 5.578564 
-18.402870 10.378414 11.337729 
13.345846 26.694958 13.811032 
-24.965830 6.787891 3.150226 
-7.159617 24.049019 5.392365 
-27.644077 2.312345 2.738625 
5.893343 29.610765 6.836510 
16.701859 12.061544 0.144262 
19.324177 -5.387528 1.038469 
-25.056305 -2.555596 8.429487 
20.479362 -0.376996 1.999286 
-24.711466 -2.127433 5.635783 
28.123636 3.994429 8.667037 
-1.886848 23.227438 1.466626 
1.545472 25.748487 5.525865 
4.132296 28.703033 6.197128 
3.196600 23.377018 13.371510 
28.256397 -3.699354 7.224309 
-15.234862 7.250479 13.304781 
-25.886189 -1.805206 5.857481 
-20.676491 17.244347 -2.672943 
-20.124802 -6.375869 5.712185 
19.958673 -1.989093 7.984163 
24.580942 -7.779735 15.745219 
19.573635 15.636722 0.928286 
-24.167089 16.603981 9.803489 
-20.547073 -1.112734 13.606482 
27.074680 -12.994821 -1.632181 
-7.654382 27.896236 7.983258 
-17.430765 21.931192 2.816336 
-19.425642 16.971413 6.155792 
5.389895 27.453140 4.569792 
8.539996 30.502197 11.715809 
-13.688567 29.492216 16.687935 
29.199369 -2.186833 10.275133 
-21.136051 -3.779900 14.790133 
26.707283 1.394019 5.228539 
-20.301455 -4.789016 6.565471 
-27.625320 -2.163748 10.085340 
4.285042 28.622429 -6.277189 
-7.958559 24.063789 5.650888 
26.784611 7.658260 12.193736 
-29.956253 -3.317664 6.513575 
15.414419 15.885087 7.880965 
-1.767981 28.860125 1.109533 
-15.613244 22.620274 2.238189 
12.844348 17.713003 10.796089 
-14.228908 10.110355 15.167258 
-26.850616 -6.992788 3.367903 
-20.615688 1.036391 0.053794 
-10.719494 23.144770 6.847849 
28.845348 -8.795957 16.682125 
-22.613848 17.510031 0.607997 
-27.390566 -6.434196 5.747967 
26.002031 7.192510 5.378506 
-22.439650 -8.001380 1.261374 
17.997337 23.778679 15.780726 
-18.352219 3.258563 8.689918 
-4.770036 18.779448 17.921028 
11.242374 27.916191 -2.691212 
8.609702 28.307854 22.410221 
-22.127131 12.641006 13.753078 
16.095598 5.397723 -5.975109 
2.812462 28.703045 -0.092055 
23.941519 2.302117 2.445317 
-14.421940 19.881887 -0.991825 
-29.228710 4.077825 21.301884 
26.940378 2.796839 0.775861 
-5.332839 26.305225 5.245289 
26.767412 -0.001237 11.173909 
9.632772 30.553038 9.643655 
7.769544 24.872021 10.570921 
15.646516 6.559390 -2.696661 
5.761120 23.375355 3.008400 
-29.833433 1.108076 15.985569 
-28.506359 -4.925858 10.830860 
7.019232 27.493990 16.692865 
-27.308207 6.702879 9.991866 
-17.881021 9.767196 12.534001 
-20.686049 18.111467 13.198520 
4.227531 20.120432 -5.340854 
28.862776 -1.355113 10.076766 
19.713461 20.454802 -0.630939 
14.074672 20.527056 3.940467 
27.718649 -4.746558 6.014631 
-23.971142 -3.062143 16.263853 
24.199862 0.503161 6.812742 
18.912361 10.910867 -1.041777 
-4.839738 30.133408 12.955554 
5.300856 26.714056 2.215987 
19.870901 12.462311 6.631864 
-2.939176 24.364845 11.503969 
-15.693041 15.950844 11.741426 
21.001682 -2.712386 9.082132 
18.985271 1.856673 7.048205 
21.310270 21.270845 11.419503 
13.923814 27.107420 -2.468400 
-14.587955 21.849609 -1.118332 
21.813532 13.617243 7.044436 
26.895281 -5.991636 1.542032 
-18.476057 -2.994864 11.542921 
-9.414099 23.223484 0.621420 
8.278271 28.211910 -5.250201 
23.648275 17.435928 15.749290 
26.524868 -1.918815 3.553078 
-18.412394 21.968151 -3.705887 
21.162119 9.300316 2.150116 
-26.649563 2.086705 6.245616 
-29.432163 -6.141570 12.738503 
-26.743822 -7.345714 9.182620 
-29.000555 7.294427 -1.151882 
-8.624198 25.692179 15.252185 
11.101222 22.669479 -1.455928 
-12.098522 26.931616 -1.258370 
20.229450 12.000973 6.118463 
-14.725248 24.401676 -7.335561 
2.936372 28.832947 13.230460 
-5.782962 27.186230 12.962003 
-11.853510 18.858183 -0.036319 
14.014415 20.615288 -0.962240 
29.213169 6.041358 21.293686 
28.497843 -3.379265 6.521820 
18.747458 5.514122 6.969842 
-24.784679 -9.375350 11.071470 
7.496291 20.077499 -0.654092 
27.224979 2.175710 13.750134 
8.523523 29.654522 17.398392 
2.005227 29.055544 -5.096651 
16.984344 2.790268 3.551747 
18.513859 22.814764 18.362207 
10.580007 21.644196 13.272670 
-13.858803 20.574684 7.726682 
6.872566 25.599119 16.006083 
29.829956 -11.165057 14.177574 
12.511271 14.962049 12.241947 
3.236385 26.113316 -0.097318 
2.057094 21.065577 -2.635218 
25.691391 2.578000 0.025508 
24.857140 15.539139 15.265177 
-19.311255 -4.462287 -3.926528 
-23.024290 17.969398 17.403059 
-28.914509 -5.044116 8.402086 
-9.354729 27.087904 7.468375 
30.285620 3.741273 -2.842325 
32.172085 -3.079371 15.704423 
4.142395 28.677519 5.310666 
-10.722987 27.668751 9.883555 
18.459028 -2.667000 -2.051615 
12.481808 23.253374 5.172560 
-20.300714 9.558764 6.049654 
5.171226 26.697357 7.924705 
13.242240 27.195393 13.167944 
20.694168 6.322721 -1.001264 
-15.984031 23.522694 -7.202511 
17.477655 15.626848 9.308042 
19.669109 5.964156 9.694666 
7.439106 29.735117 19.364952 
-19.453938 20.826582 3.579292 
27.075014 6.743989 3.469863 
12.117171 25.215940 15.827740 
25.142090 14.080355 9.898713 
28.559650 2.264719 2.841256 
20.369463 -5.971488 3.833128 
-16.570648 12.085888 11.999625 
20.328426 21.686056 13.008979 
21.767164 5.166497 13.868182 
14.237425 21.707649 10.407991 
-22.396170 1.997000 13.998065 
25.084415 -7.425127 4.454367 
-21.476171 -4.830010 8.865932 
21.547358 5.551397 5.969480 
24.720226 4.920377 6.553583 
27.785349 1.716905 1.576468 
-17.897318 3.149010 6.464254 
25.189543 -11.139946 13.864750 
17.828558 0.572137 1.095816 
23.354136 16.047892 9.367333 
-12.095343 25.520708 15.363659 
-20.917065 16.131487 2.707070 
17.105604 23.854830 11.529303 
6.779393 31.443565 6.726270 
21.451231 -2.905294 9.721560 
25.227989 11.771843 10.100557 
1.963361 28.617163 -6.566394 
-17.359905 14.177365 1.367392 
-18.603542 1.477546 10.967918 
23.062452 -0.511202 6.968873 
24.019463 -11.716830 10.441412 
-13.636753 20.219316 7.002489 
-21.936224 11.744390 7.342677 
-17.662527 -2.521782 14.911724 
-15.017089 24.172266 18.235277 
25.379065 12.365361 -7.011637 
-20.646435 -9.599937 2.154640 
-3.937826 22.538427 2.855785 
-24.748850 14.033837 12.305816 
15.163081 15.521845 8.536359 
21.805347 11.411044 11.153284 
-9.444747 27.003714 19.235268 
12.554205 25.844271 -1.577171 
-21.613426 10.111157 8.387573 
4.290989 24.778597 12.313831 
16.081823 14.317375 4.906835 
5.140138 29.712849 13.807387 
19.086737 -3.497738 1.252821 
11.348533 28.421795 15.020259 
19.873890 11.273388 6.589217 
-23.007816 16.129021 -6.176466 
-21.417927 0.814567 12.145406 
-29.029907 -0.046582 14.997298 
-27.625298 -1.501642 9.659986 
22.443552 -3.199396 10.284852 
-24.897768 3.096869 14.463545 
23.470301 -4.368654 0.703532 
-20.854250 -8.384562 3.663122 
13.417002 26.508081 -0.635161 
-10.680832 25.173431 12.653883 
28.540443 -7.827575 16.801828 
20.560980 11.164750 7.335124 
17.746187 -0.602571 -2.771259 
-1.742373 31.545471 12.415668 
28.674406 8.057631 16.233341 
15.565631 26.526115 -0.948044 
31.905350 0.085924 -3.506280 
16.062658 5.160663 15.695503 
23.081978 15.899658 10.338185 
19.537870 15.701570 9.690901 
4.685915 27.104757 2.637480 
-20.723011 9.883839 1.467794 
13.288218 16.672014 9.569280 
18.176113 6.244211 5.430701 
-17.048830 3.480458 2.162292 
15.735517 25.512156 0.018990 
26.126425 6.823567 6.512392 
-20.572264 12.507899 9.396094 
24.126095 0.701245 13.862178 
12.467615 25.810322 23.916063 
18.581966 15.616243 14.374187 
-22.810781 -0.256807 7.960384 
-27.507397 9.890368 17.850660 
0.062609 27.881079 16.702335 
-18.199385 18.259363 -4.639642 
19.918385 20.245939 22.044703 
-2.416838 26.027155 11.525809 
15.020517 8.960716 14.122980 
4.871616 25.938965 3.601787 
28.418833 -8.305506 10.580584 
-25.457098 0.077002 15.686473 
-12.262707 12.270233 19.450090 
9.032065 23.104488 11.240539 
23.475624 10.834451 1.695392 
-25.376463 2.538262 9.707500 
18.255281 4.793642 5.773477 
-18.235720 7.377099 2.283098 
-27.682098 8.708018 20.568741 
15.014193 12.625355 10.637684 
-22.219048 1.947346 -0.000015 
18.133326 13.208135 5.679784 
5.701495 19.307161 -7.288640 
-21.235415 -5.016276 14.835464 
-4.425924 26.438686 3.601375 
23.940687 16.397787 19.065094 
-29.324200 4.129627 19.520042 
26.287796 0.934112 0.678840 
6.325058 19.636662 23.697910 
-24.003584 1.231620 10.581901 
-16.634142 17.567682 8.252693 
-4.109787 28.525469 4.174328 
19.020849 -1.272920 2.090284 
14.927497 9.130650 -1.256932 
-11.488513 23.109011 -1.298195 
-2.701776 20.988327 -2.547563 
-11.959834 21.054607 6.580577 
21.288361 -5.135675 12.948417 
-28.866463 -6.023681 14.887551 
-30.480656 -3.254325 21.725771 
5.857067 28.944925 2.986431 
1.104318 24.217609 1.464407 
22.438122 15.112605 4.686926 
13.041390 25.281046 15.504454 
28.090559 4.947183 10.745047 
-9.633152 22.437332 5.142120 
15.930911 22.165260 6.143344 
5.044961 25.056379 0.190156 
21.620541 -0.848431 13.115641 
-17.862335 -3.594785 15.227788 
27.298504 -5.861348 7.247972 
-26.881636 9.306065 23.501244 
-27.451376 5.520060 13.205450 
22.971800 9.314230 11.422733 
23.435820 12.763649 4.418500 
16.276417 17.031000 15.066043 
29.935797 -0.554334 11.452675 
16.214729 22.234596 8.936563 
7.976593 17.867048 -7.183964 
9.219135 29.187620 14.492138 
13.568610 12.021754 17.892981 
28.273840 -5.814366 5.764767 
0.734161 26.689280 0.365260 
20.716732 0.628199 13.342772 
-30.143560 -4.575395 7.201600 
6.053919 20.138819 -1.811747 
17.138466 12.942907 6.230546 
-31.788342 -5.139449 5.461576 
9.641856 29.095993 15.671160 
24.417810 8.404952 12.396955 
7.728746 28.898960 -2.363797 
-17.234577 21.355787 3.481589 
-17.442726 17.337133 13.206861 
-12.788445 25.023724 3.873828 
-17.720997 11.261954 10.577834 
30.520302 1.741225 -0.418907 
-10.873890 19.302713 16.156225 
19.069225 7.397661 3.059154 
-24.251968 11.724586 13.598142 
4.831052 24.957634 3.001177 
31.820415 -5.004322 14.290149 
-26.946348 11.156875 15.422237 
-31.886440 -1.332853 2.474522 
8.735158 28.596748 15.794344 
16.378084 26.244165 7.804176 
-22.197311 -4.697729 6.526437 
27.642639 -11.011422 2.461468 
13.937144 24.023121 14.299785 
13.130824 18.030659 12.461516 
29.495346 -1.354983 3.591743 
-11.036863 27.160088 0.879911 
-15.244503 15.824390 -1.494470 
-6.775989 29.534636 12.619698 
17.263929 14.945494 1.755147 
-25.702663 -2.280369 10.610229 
20.557369 -3.149300 10.109059 
27.008812 -0.175579 12.724689 
-4.066930 27.940369 0.114410 
0.762387 31.706221 13.157352 
16.703697 10.188946 8.798380 
20.162235 4.811847 13.478859 
18.693970 -0.862973 2.723052 
-21.197668 13.725147 12.113772 
-15.318037 19.630852 3.256293 
-19.496666 17.713047 0.418089 
-16.338428 15.816364 1.662018 
-0.715877 30.039461 7.372449 
23.509014 -4.291198 14.815873 
2.476618 29.975227 14.689516 
6.951019 20.664902 0.323701 
31.773270 -6.631091 22.390917 
-22.932583 0.941144 8.705854 
-6.142334 27.220179 9.335568 
23.708084 15.429179 7.015402 
-21.031914 10.186095 6.236661 
-15.578139 12.133770 5.293785 
-1.895970 25.611124 15.294558 
6.657283 24.749008 11.055458 
-9.535449 27.127254 2.424838 
-6.153303 30.140934 14.720869 
27.677996 8.835079 23.080505 
-34.280830 -8.251485 0.963282 
-20.942122 19.473148 3.098120 
-29.619431 3.894628 1.805777 
-14.354215 15.207008 12.887859 
-21.418617 -2.671066 8.351906 
27.580629 -4.068552 7.946077 
-32.058495 2.482359 -4.384903 
-12.328990 21.863998 16.131632 
26.210562 7.357173 13.488032 
13.098502 27.120178 5.495102 
-26.290871 -0.656246 9.896605 
19.015236 22.655010 14.682918 
25.911219 8.201793 3.751650 
24.346071 -10.765450 9.629914 
19.187868 8.519705 9.743250 
32.066845 -8.389441 1.703375 
-20.756205 9.605875 3.616455 
-11.896691 17.996941 1.754138 
3.861691 24.094545 12.215751 
-22.622217 3.038970 7.974761 
30.396698 -10.000528 22.257345 
-5.727777 26.801258 7.174041 
-19.096493 18.703636 -4.539411 
1.879011 26.660746 11.047044 
30.519287 1.553349 22.749130 
-17.703083 0.768982 -3.259427 
5.818337 30.807045 17.479330 
-26.756620 -3.357993 16.727289 
0.451683 28.892349 8.024459 
-20.589960 17.738205 9.481117 
-20.041508 3.051151 5.960972 
-25.645363 8.816040 2.320087 
25.517424 12.572959 -5.384376 
-27.485292 9.152144 0.411054 
14.476900 25.041977 0.871284 
-20.588017 -4.983676 14.293061 
-18.139069 20.832941 -4.298951 
27.064440 10.036948 -4.838384 
-18.548424 17.115835 -4.325104 
-18.907938 -5.135199 0.075629 
18.887486 -1.153415 3.782871 
17.526667 11.699951 12.645589 
-10.109825 29.295336 16.727459 
-28.013742 -2.019935 6.913518 
-14.879439 25.516502 -2.160595 
26.484747 10.939578 23.179007 
-16.314444 6.419248 5.009597 
14.197997 21.560526 1.667701 
22.497377 8.836678 1.853978 
16.197653 3.383037 16.600006 
-2.136849 25.480003 12.350658 
-5.467048 28.434816 12.965648 
22.258957 -11.426877 -0.880198 
23.016455 12.744357 5.318618 
-26.112783 9.579229 2.684086 
24.130053 -0.666859 3.479131 
25.487362 6.402963 11.860670 
-10.247720 17.509201 -5.284301 
-11.376088 23.119364 13.305146 
-21.402918 14.927811 8.728005 
-11.499651 25.134254 13.447733 
26.951160 3.181120 7.131274 
-5.449754 26.918005 3.654142 
-20.756407 14.108634 8.254729 
25.603483 -0.977132 5.205616 
-23.803284 -1.731311 4.459915 
25.720991 13.702754 18.418131 
-27.685450 -5.055145 8.963013 
-29.647497 6.316686 -2.379608 
-2.440820 29.785147 -0.679043 
-1.176480 19.856264 18.787674 
3.417903 27.994650 1.915119 
-10.090991 25.732424 9.692574 
-27.639801 7.125438 13.942187 
3.527594 26.680220 15.181341 
13.242077 23.394247 13.338115 
16.411663 7.548399 1.773053 
17.572201 4.861248 11.583689 
-18.403942 7.119336 6.566340 
19.549248 8.971519 1.690729 
-19.413897 9.383278 2.715226 
-22.896711 0.910899 7.882782 
26.974796 11.622903 17.170595 
-16.927200 23.218990 22.596958 
24.285034 -1.320818 12.723738 
12.345970 27.577791 16.711542 
-21.898190 19.640564 9.689266 
-16.848528 24.009569 -2.317607 
-14.007032 18.866026 13.159094 
25.576920 3.928225 -0.080447 
-22.106884 19.016037 16.371176 
-16.895638 6.941106 7.967577 
-31.430521 0.517610 1.353117 
-8.843564 27.974255 15.655182 
26.979424 -2.194203 2.300974 
-1.586181 25.587637 5.609644 
-18.136997 17.240862 14.161201 
-27.454195 -2.208200 7.654788 
-2.959211 26.378941 8.918468 
-26.713600 11.549628 18.241560 
24.242922 16.348684 13.704758 
-5.373526 21.197435 0.632173 
-18.851797 4.178768 -0.284912 
19.301394 1.813774 5.201270 
21.314756 1.255952 5.482334 
-16.663200 28.741116 14.743259 
-30.570745 -3.195147 20.572767 
-13.490746 13.393220 13.974947 
25.660862 1.694659 6.916035 
-18.128569 15.336138 5.940107 
21.600922 -5.960176 13.465977 
26.090395 7.855575 12.642908 
19.764374 -7.704259 -0.072998 
-18.247204 21.913609 14.970685 
21.718491 19.373085 7.350050 
-16.388180 25.983376 17.599094 
29.474430 -3.861887 3.119102 
25.036942 -11.421176 12.121234 
28.479689 -1.710584 4.348918 
-10.911202 27.437836 18.512703 
-3.738057 21.331989 -0.026542 
0.941945 21.548773 -0.908889 
-26.746738 4.750347 8.017786 
8.895910 21.133381 1.818124 
-11.962976 24.654764 5.322137 
19.234617 1.205204 7.577878 
-23.809904 13.239858 3.622849 
27.873079 2.646807 3.271707 
16.282499 10.899260 9.109998 
18.523672 21.526922 7.540207 
-29.557924 2.757030 2.510906 
20.022068 4.821192 -1.251512 
-17.272068 -1.643162 17.975945 
-15.749863 12.995371 2.952539 
4.423191 29.398050 -2.937108 
22.468504 -7.728296 14.308019 
-14.899035 16.926609 1.284639 
-5.763166 20.143774 15.330980 
15.160804 19.970558 14.630046 
-2.095115 28.764137 0.121255 
-3.978925 29.333134 6.988436 
-19.275309 0.301583 10.893817 
21.280720 20.383957 15.115931 
-23.701738 16.080854 -2.009670 
14.846280 8.976551 -2.306236 
16.227285 5.454365 13.931374 
-25.618586 -5.641057 9.774094 
8.443060 17.926334 -5.386477 
16.908592 13.054531 10.638652 
9.439377 27.836376 15.359262 
-22.084801 10.892443 5.969240 
31.352304 -6.423944 12.224275 
-12.109507 16.032442 -4.552973 
16.516750 24.421272 18.871222 
-15.345872 20.450357 6.412275 
2.512304 26.006533 10.528691 
-29.264662 -1.003168 15.583142 
31.092260 0.743227 17.441767 
-16.983593 12.068404 12.767305 
-27.385582 6.409746 10.863298 
-21.983856 9.750803 6.280635 
19.669241 22.543091 9.301523 
-15.735952 14.798731 1.949124 
-21.298103 8.206626 0.407424 
13.457404 26.780981 0.162928 
-2.785972 31.492249 6.677456 
-13.567417 19.099274 1.041875 
21.408922 -2.279054 4.554341 
19.601543 22.398218 12.352613 
21.798084 -1.996912 0.822924 
-0.947905 28.027594 -8.108678 
-7.314319 27.939438 1.277061 
16.931082 3.713617 2.178546 
26.531164 -5.341369 9.672543 
-13.600047 22.028786 17.128054 
-2.245079 31.251547 6.010825 
-6.852931 28.399271 7.750582 
14.638896 24.234203 9.825384 
18.012640 23.435326 -1.205682 
-28.717615 -2.465945 6.986769 
-17.511473 16.456322 14.752625 
-17.742928 20.203941 -0.694247 
17.635416 7.496520 3.503685 
-18.921680 2.841827 7.922719 
-27.160006 7.511228 10.340347 
-9.968885 21.422104 2.096707 
-18.876537 -5.017946 1.081871 
-0.800638 29.716484 -1.106959 
-15.445384 16.126131 9.997911 
-16.218767 15.047866 8.310920 
-22.727791 16.783674 1.561100 
15.789108 24.219486 -1.665264 
4.520909 27.214613 15.986841 
-20.729845 9.617666 2.364478 
11.727674 25.864599 -0.015474 
-8.822121 27.750938 -5.011520 
-22.466499 -0.750481 8.858854 
-8.061562 23.795067 11.435109 
-7.563923 22.910172 13.468296 
19.795662 -6.906693 -3.214402 
-21.500599 -5.872093 9.803146 
-19.264486 -5.866104 20.811394 
-15.517937 11.455398 2.876494 
-18.306057 1.854367 6.810982 
16.657129 11.788349 12.138616 
-19.212601 -3.404216 11.272429 
-18.302532 9.512017 2.553134 
12.718955 24.501709 -1.985246 
22.092163 19.828047 9.086425 
-10.829010 19.327602 -0.805642 
9.812950 29.517412 6.003671 
21.181395 -2.327145 11.826486 
23.552830 8.256812 12.804335 
33.201687 -5.547445 -1.281606 
7.810783 27.417755 -0.796961 
9.015443 26.056202 15.582626 
-17.522766 7.591454 8.001782 
-10.509473 23.833660 5.330055 
17.785952 2.073386 7.850622 
3.852475 31.559292 13.791306 
3.836670 21.726265 0.869554 
-25.936684 12.394175 -2.548802 
-26.271624 5.914269 1.439988 
-24.659229 8.716027 6.912013 
22.459742 6.092868 -0.867508 
-21.783693 10.659388 1.420911 
-5.520011 30.120090 9.249113 
6.561352 25.780447 7.838418 
-13.022632 15.342360 -3.496484 
32.558384 -2.725559 -1.807639 
-22.881132 12.141840 1.399457 
-13.448084 13.979311 -6.181232 
16.025852 25.036158 2.633855 
-15.802452 16.849979 2.737040 
-19.568316 -6.962786 -0.268309 
-14.015343 15.808610 13.559718 
-20.191614 -4.131876 5.139121 
-22.747793 12.936995 10.146454 
-14.099577 11.758984 13.712667 
-9.930772 26.631466 -7.714911 
3.522426 24.069635 1.526663 
14.124352 16.821846 14.229403 
31.227285 -1.491195 12.852844 
-13.504939 14.217522 -4.560567 
-15.667452 16.673130 12.201479 
-7.221769 24.874382 7.159398 
19.371469 6.250382 6.910234 
16.188063 11.162974 5.268838 
-20.367319 16.529928 1.158432 
-21.769478 18.684763 1.386300 
2.626702 24.640526 11.771612 
-28.411707 1.610467 12.566468 
-28.499445 -6.769133 10.542050 
23.080664 16.118505 7.906012 
-9.286051 21.891445 3.721151 
-21.637970 19.879383 0.132879 
16.083458 20.271402 15.364996 
-29.071951 -6.881054 12.813287 
-13.789198 18.530504 3.389683 
-30.294445 -6.115546 21.153559 
10.047410 17.401949 -2.752872 
2.704046 28.050983 1.477180 
-21.278690 5.260872 -0.268890 
21.463039 -2.536768 2.661795 
-22.263100 14.890684 1.406655 
-27.585596 -9.149466 13.047303 
-16.829565 15.723324 4.963638 
-26.536762 7.812898 2.107810 
10.710019 28.748699 16.208677 
29.712431 -10.076920 14.533758 
-11.891662 21.701145 1.334054 
-6.293168 25.886349 9.163030 
-18.269463 -0.125605 -4.447935 
-26.201357 10.533984 12.923782 
-3.984634 26.861378 -0.188907 
-27.375370 4.277485 5.236265 
14.810995 24.956186 9.317663 
-19.803886 -5.946586 13.336553 
-7.530754 29.932005 9.399325 
26.177963 -1.480456 9.602738 
-18.789650 -0.317006 2.716202 
26.058245 -5.714996 16.362860 
30.851727 1.774158 17.389442 
11.391305 15.928675 17.314501 
-16.591789 5.869349 6.918957 
-14.920534 8.324081 14.665708 
28.242077 -2.411280 15.856520 
-7.486009 28.657505 22.464319 
16.586975 10.271483 5.385589 
2.717114 32.083866 10.178483 
27.996634 -10.794779 14.598547 
18.465878 10.284412 -0.777618 
10.800898 26.691778 6.861827 
10.246524 17.782784 -1.663572 
-20.248781 4.233138 6.481639 
25.560751 -4.106220 11.050746 
12.852079 24.166611 6.896122 
-24.837183 -0.238546 7.942817 
8.993757 29.004313 19.701305 
3.557997 30.946455 7.836714 
21.988737 19.479839 8.091874 
-16.709799 3.890559 -2.179534 
25.199480 13.687831 7.930746 
-25.107248 -9.432730 6.584671 
-25.361515 -0.459858 6.989448 
-26.618473 -3.023014 1.564937 
9.091926 18.953091 19.684683 
23.095890 0.422310 13.745306 
-27.111176 7.614340 12.602167 
0.843282 28.558846 9.841094 
-11.992912 30.130194 14.838614 
-18.224075 11.630963 11.507071 
-26.447317 11.067138 21.585445 
22.981606 -5.866782 8.564162 
-23.200232 -7.359827 15.460654 
21.439758 -2.107521 6.302808 
24.222822 -6.466225 4.320579 
33.168850 -9.329288 -2.278404 
-22.817814 -6.058063 0.335770 
23.082174 13.582648 5.038097 
-23.948145 9.674663 8.124785 
-20.098761 16.585909 -2.445454 
-2.273100 20.997496 15.751919 
-26.841349 1.641239 5.472412 
23.850283 -2.216113 10.572935 
-18.517748 -4.316586 12.356739 
26.084854 5.800802 7.013797 
-28.389273 -1.929651 10.009103 
17.556957 9.130491 2.453683 
6.626697 21.186258 1.099428 
30.573812 -9.536396 12.159313 
-7.925657 14.255789 23.573109 
-10.163031 24.851486 18.771576 
-16.979374 17.007896 2.139704 
-10.996146 18.089338 1.129442 
-15.367890 15.355209 10.110810 
10.531188 25.075909 1.709985 
-16.917034 14.828568 7.771594 
-3.850742 22.112986 2.097412 
22.797087 -9.773185 4.613877 
16.123135 7.288292 0.915456 
0.320789 25.361374 11.603806 
19.020536 1.706272 -1.065306 
28.885410 -10.579248 14.266602 
-23.121695 8.929745 8.739842 
-14.739832 23.698704 -0.966735 
26.266985 12.332852 13.020876 
30.648243 -5.810577 5.897060 
14.773074 27.134516 12.214921 
22.840414 -7.741718 4.440886 
-16.500622 23.747314 -0.078456 
-20.412718 20.548405 2.797185 
-0.551485 25.924734 11.132274 
17.910372 24.939112 10.389514 
-8.322604 29.363970 12.234130 
-28.988213 5.275105 19.786135 
28.969955 0.825395 2.696451 
24.713194 12.243133 1.740712 
-22.650202 -1.666882 3.131933 
-1.951653 29.200819 8.230027 
-21.151329 9.544691 6.670709 
-25.694382 11.559687 23.588623 
-19.680498 17.904526 3.178321 
-7.611177 25.128658 7.840173 
25.981737 2.880554 2.810099 
19.491325 11.100222 5.247049 
2.860134 29.399887 7.450033 
10.758420 29.987452 9.728065 
19.539919 -1.624651 11.452567 
-21.825972 19.191982 -0.439624 
-0.500550 27.446407 2.882866 
3.047505 32.045490 7.991037 
23.799278 -2.169930 2.842116 
10.820396 26.626841 -8.256490 
-10.256105 23.689592 13.353141 
-4.446199 25.443899 1.080355 
16.967037 26.793436 9.729810 
22.001802 9.822791 0.891291 
26.712206 2.851391 5.704534 
-2.893480 26.853672 10.531948 
-14.704846 22.135178 6.713796 
-10.224133 15.961854 19.675327 
3.624534 28.033175 -8.228764 
-10.446039 22.161253 6.871407 
8.293951 24.346436 -0.468769 
24.082314 0.925645 -0.383892 
22.662312 -4.586329 0.823280 
-21.692070 12.195030 0.645121 
-20.987906 12.332487 10.032685 
-10.244174 24.477600 1.084386 
15.166496 20.732126 13.200612 
-9.540076 28.791433 8.626251 
24.935953 0.550207 13.803474 
17.374750 2.196474 3.164793 
-0.216831 29.983858 7.982421 
-11.193751 29.743008 12.836085 
18.371275 21.247501 15.055234 
24.495647 -0.043626 7.590620 
18.378956 7.794465 2.883046 
30.899445 -7.520194 4.638591 
-18.592833 11.415035 12.549292 
26.708260 3.901519 5.412117 
-18.476871 21.907574 -5.825821 
30.795792 0.879557 -0.207046 
5.881695 24.698906 11.234344 
15.511626 26.496307 0.054535 
23.095150 10.888914 4.312768 
13.229283 27.159309 -3.198883 
3.152897 25.295673 0.153668 
-3.809305 29.543894 -1.534260 
-10.923238 18.106468 16.886887 
-15.744825 6.741313 11.507416 
16.437954 23.168041 3.425531 
-21.322165 18.696215 22.219244 
5.688499 23.019329 12.768680 
17.722588 8.249393 9.697508 
23.222645 2.222774 7.083531 
2.564846 28.577280 14.611429 
13.130043 19.621696 9.860432 
-1.988134 26.858387 2.111613 
3.628121 29.422268 10.649139 
-25.634106 12.622564 21.478304 
-20.717144 21.152174 0.269854 
-4.890429 29.339006 0.663522 
-10.544090 22.509352 2.064947 
-4.460063 27.455360 0.979507 
-14.831253 26.894926 13.743038 
-6.593215 24.603952 15.328172 
-1.737095 23.931398 3.475245 
-5.579421 28.878376 7.438770 
-8.409377 25.065058 8.065863 
-30.269608 4.272993 -0.233966 
10.964040 24.779133 11.559397 
-21.869822 -3.566101 4.765501 
28.909554 -3.348021 9.954527 
-17.133179 27.633057 16.044592 
14.926433 24.041361 7.977097 
24.934568 -8.183167 6.569955 
-22.155563 8.831473 15.019736 
-9.421671 23.145111 1.722040 
10.885684 30.164923 7.239421 
-19.840649 1.366892 3.102850 
-21.585808 16.493309 4.560208 
17.176828 19.667229 12.892518 
15.711233 26.533075 12.089755 
29.574879 -5.161966 6.279347 
16.801596 23.343807 21.780603 
-17.095146 3.375772 12.465384 
-23.945671 9.634381 3.096947 
-13.933485 14.968236 -0.861163 
18.452431 -2.667394 -0.822306 
23.050810 5.733695 2.232308 
13.231062 20.354380 3.038588 
18.130709 23.143095 13.329307 
-12.133780 19.225494 3.583281 
-3.268694 26.156656 -0.366072 
-26.563303 2.672576 1.574789 
-15.668984 16.677971 9.255862 
24.365688 15.701359 19.271629 
-24.196426 9.567810 3.901832 
5.832045 19.674637 -4.200743 
-14.221663 19.609352 1.071571 
-15.652348 13.225802 11.066597 
-15.254970 5.014231 12.933256 
-20.569235 13.244958 2.950213 
5.953596 23.884762 14.419971 
-19.623678 16.343941 13.167102 
-22.965105 14.247840 1.255446 
3.118487 22.910116 2.643669 
-19.583107 17.305573 -4.137156 
-29.396051 -2.087060 10.057895 
22.025131 9.224177 12.359874 
-20.108200 6.183019 6.126505 
-13.021609 22.462358 17.786350 
22.210779 4.988005 -1.105715 
24.480930 10.894932 12.018182 
-0.777076 24.532330 13.000490 
-0.954790 28.467249 5.674513 
-3.177320 26.071686 7.950574 
-27.303782 -3.319263 1.816188 
23.159424 18.054523 13.406614 
26.292450 -10.955872 14.851584 
18.680576 -0.800623 9.942520 
-27.937399 -3.692049 16.698727 
9.479524 28.489052 14.893499 
26.936670 6.803782 6.846576 
-24.547037 14.367259 -4.478498 
20.218639 -7.144526 2.732168 
-4.052205 30.135036 6.753295 
8.844507 20.633162 14.133014 
-16.387199 4.250358 4.404415 
-21.323513 -8.199692 11.347609 
26.750587 -11.348425 11.715370 
-8.638147 27.621925 5.055122 
22.869686 -6.220019 0.558379 
-18.333626 -2.667255 -0.953649 
-10.203509 19.830189 2.294146 
11.563283 21.278620 13.762438 
18.880716 6.127023 7.600812 
1.828714 25.802244 14.119782 
18.658491 0.451510 12.488345 
-6.630412 30.017544 15.777003 
29.055079 7.111475 18.039600 
-14.100512 7.507569 20.592358 
30.667198 -0.020063 14.038773 
-14.804598 23.291176 4.434716 
-8.900429 27.419443 0.853913 
25.025915 7.445925 0.375346 
24.362934 -0.033080 13.668098 
-20.775114 -5.362912 2.699450 
26.608454 12.319341 17.610989 
-10.730041 22.610197 13.734417 
3.439682 26.813030 14.224682 
4.209589 23.647657 12.802798 
-21.288658 17.345863 8.665112 
27.370272 -12.451261 12.124321 
-20.761864 21.032022 -2.632869 
16.671072 3.809401 -5.809144 
22.199104 -6.283263 3.082877 
-18.882782 13.361914 0.009651 
-24.937202 12.359257 10.600883 
5.214477 26.051701 15.865680 
32.168144 -6.719286 16.863256 
-15.371560 22.339188 4.547541 
7.405630 19.375164 23.678825 
-0.842945 26.870529 3.503567 
0.050528 26.483301 3.567770 
20.491089 17.604082 12.358627 
-22.637836 -8.459660 13.887743 
13.233438 19.506512 8.902695 
14.047875 19.644457 6.860948 
-27.365505 5.265067 8.993362 
26.520557 12.167562 19.258404 
-4.028398 26.073206 8.800781 
-23.837038 16.857512 17.452457 
25.714108 0.854432 13.802853 
10.917130 17.206314 -1.348058 
-19.567413 18.094898 13.817541 
-26.085669 12.770821 15.032696 
25.892084 10.397615 0.719948 
-9.699579 28.367100 12.459471 
21.930014 -4.675175 13.549502 
-25.020254 -7.210278 4.610962 
1.043380 28.830103 4.334762 
16.081892 16.058594 7.490909 
-17.742331 9.629325 11.528629 
27.354206 -2.063111 3.451908 
-19.411131 5.044287 7.253640 
-5.621458 27.065536 1.484934 
-23.862034 14.492121 23.700214 
27.750666 8.650319 -1.855313 
-13.884112 22.492945 -1.371272 
-25.843885 -9.421654 11.525235 
26.315685 4.728642 7.305519 
22.797091 16.217661 23.431158 
-25.472025 12.788260 -5.731390 
31.743965 -5.923698 13.590752 
-7.164548 25.603909 12.923213 
7.309432 25.649862 10.501597 
-14.018433 28.969967 12.576543 
-24.725105 14.093479 21.693546 
18.843952 8.245826 4.225870 
4.152396 28.704985 4.116469 
26.421299 -9.531816 11.506542 
-30.117283 -1.576842 12.820896 
28.257168 8.889159 15.664609 
-21.124350 -10.102232 -0.087714 
10.063316 24.898523 10.619259 
-29.113855 4.053503 16.545351 
-18.466354 1.815048 10.271571 
-19.738787 20.484392 -4.207104 
-17.051859 22.392843 1.682831 
15.455319 24.012196 7.193971 
27.265726 5.861292 13.628142 
-20.152168 -8.686622 13.664688 
15.257394 11.270061 10.327561 
-6.232183 17.604132 19.093172 
-1.311717 23.608799 2.865392 
28.901789 -5.012043 7.443672 
16.650909 14.627048 11.696076 
9.905463 28.394632 -1.044663 
6.590734 31.325552 10.574693 
-11.871082 18.633450 0.963980 
0.269971 29.231808 -4.225082 
-8.233931 21.503893 14.071650 
18.433481 1.192530 -0.883103 
-1.295901 25.753780 0.029388 
-22.509157 18.193317 -1.605176 
7.518730 19.115749 -3.389408 
18.108309 19.305462 1.655924 
-11.008018 26.245123 -7.642742 
-12.638645 22.874331 7.955354 
16.427702 24.074051 2.810626 
-15.045062 6.128829 13.608034 
0.756350 25.094519 0.734931 
-13.515085 26.346575 -0.987867 
-2.019766 29.063559 -4.743083 
18.291574 4.185940 -1.112523 
6.655385 23.982731 11.356949 
-4.208016 28.596874 9.479546 
-6.970372 21.063026 1.860315 
-4.386693 28.038456 7.314832 
10.288062 20.352705 1.717692 
15.508019 20.982880 10.838577 
-14.406269 12.544552 -2.793538 
-9.983665 27.141487 14.972098 
24.235909 9.086783 10.559875 
27.036257 4.135690 4.663500 
-22.320658 -8.746864 11.567924 
14.329783 20.982264 9.677740 
18.720850 16.162512 3.702914 
26.822786 8.300600 9.208549 
-16.729580 0.489130 20.333441 
-26.817654 -6.298122 7.270514 
27.039274 6.710243 13.505726 
-31.264442 2.459283 -0.584656 
15.692760 24.012484 -8.085854 
-21.008137 18.803055 3.508744 
-9.458755 24.551580 0.915337 
10.468570 24.445625 5.188912 
-19.626419 10.665889 10.688132 
21.270792 9.226068 7.503998 
17.719910 21.714672 23.702845 
7.300138 19.676445 -1.907334 
-19.362404 -0.633000 1.895833 
-16.329109 8.481632 2.407940 
5.573303 25.829210 -0.244061 
-24.087046 15.844999 13.957719 
2.241302 32.074615 7.209322 
-24.436951 9.532544 4.651037 
8.167524 19.710085 18.750662 
-1.211464 25.907114 2.906561 
-19.616158 20.152403 -2.071648 
-23.848236 -7.882151 2.448047 
-34.990376 -11.266532 -2.741538 
-9.157279 25.083035 8.414091 
-8.473506 27.840017 24.156395 
-10.860667 26.308027 2.797596 
28.665071 6.082346 13.233460 
26.794096 11.707243 14.325610 
-4.691087 25.927361 1.906413 
32.286911 -3.319476 16.702145 
32.146503 -10.725990 -1.887810 
14.268085 19.031775 6.385321 
14.823485 26.378201 -0.673615 
-21.654917 -9.939404 18.046576 
-17.800644 15.823661 7.355413 
16.872955 1.455155 19.110699 
9.449164 19.075336 -0.682810 
-4.259754 30.659397 9.350717 
-25.149340 -8.573798 14.185163 
-20.069981 21.124018 -3.663167 
-26.402914 8.259923 3.141984 
26.981026 -0.113308 2.412982 
-7.315403 28.013088 3.609905 
-17.079493 -0.577430 20.293308 
8.940607 23.498133 2.543425 
-15.655657 16.001520 1.091844 
-1.895806 21.083649 -2.573859 
25.899376 5.100717 12.371218 
21.784224 -6.936244 13.712455 
-18.850590 -2.742863 -4.134501 
19.226164 -1.397097 8.871446 
21.984699 19.746183 16.132805 
-27.650829 -9.418644 20.299232 
20.216972 -1.833529 7.246262 
-19.339504 -5.278054 11.161495 
12.723627 23.774532 6.139159 
-28.487026 8.183845 -0.950529 
-20.498049 11.884713 8.669637 
-29.572147 -5.781996 6.450285 
18.794136 14.855297 7.193598 
22.437643 4.778092 6.531784 
26.962919 0.371822 6.731809 
9.442583 22.047907 11.277228 
-20.985861 13.474612 14.668919 
19.766712 13.817147 13.381822 
6.768794 23.262707 -0.031229 
25.958937 -6.994568 4.766047 
-1.614061 28.861982 8.975248 
22.845133 18.542297 14.278553 
-23.069304 -4.866324 8.259619 
-8.424550 26.493917 -0.237045 
-25.724749 2.868911 7.941747 
-17.767630 4.552415 13.298986 
28.075581 8.289441 -4.800928 
23.207491 16.670820 21.175135 
17.299547 13.837596 10.091846 
-20.533449 -2.598917 14.100133 
23.872644 12.010118 0.493972 
6.552621 28.358730 -6.262721 
-14.407183 15.930962 1.003382 
-19.808729 21.116228 2.695405 
17.216780 -1.021985 13.890935 
-21.793165 -1.043425 9.162388 
3.268551 21.023424 -1.653747 
-2.646909 28.521713 -6.456408 
32.441994 -0.992829 -5.673902 
-24.256777 5.884297 8.180989 
-17.292953 2.177531 2.656429 
17.999384 0.254008 5.318262 
5.212858 25.980249 0.728278 
24.330940 -7.661831 4.752337 
-3.285659 25.164743 5.324936 
12.378295 26.720226 -6.194622 
-20.068907 -3.296998 9.723695 
19.060949 12.729157 -1.305026 
-21.175163 9.000607 14.824526 
-11.307736 20.412302 1.621782 
-18.991467 16.110922 8.416736 
-0.441651 25.788410 1.976118 
24.737835 15.611373 14.243630 
-10.060913 27.727798 0.526994 
-19.109875 22.605953 -2.682157 
3.210789 20.263897 21.148314 
-11.255665 24.428501 19.258381 
19.980680 1.939472 13.358534 
2.448178 27.334888 13.997003 
1.823033 30.716198 6.258483 
16.610825 22.251936 12.144729 
-11.177995 21.431129 -1.409954 
-25.799435 12.479158 -1.271183 
-11.127722 24.162191 5.980177 
16.362411 12.173926 10.558409 
17.129807 24.367619 0.288398 
25.173971 -6.508578 16.089146 
-18.470163 16.758661 5.711952 
-20.187241 9.383589 4.169425 
23.605619 -6.221165 8.146592 
-17.525227 1.424406 5.139089 
-20.534824 16.693138 -1.702624 
4.624814 24.949816 14.863129 
-21.654932 15.059070 2.707137 
17.459053 3.274817 8.083412 
-29.315601 -1.747724 15.950605 
-22.616179 14.041286 6.622858 
21.919928 -1.190288 6.030341 
-13.994895 13.323655 -4.157183 
-13.481413 8.726145 23.378111 
-16.660633 13.566652 1.676367 
-1.761891 28.067831 -0.012849 
-5.639832 30.029558 8.296795 
21.132732 8.567313 1.788713 
-9.485460 21.730139 4.463761 
-25.340660 -8.731913 13.355524 
20.398609 -5.695931 2.714087 
5.291472 27.013273 3.180250 
-9.017130 20.907862 1.241646 
-14.651972 25.418606 22.235741 
21.944784 17.753452 -0.763653 
10.464661 28.209385 6.901954 
18.893049 22.041821 13.381227 
3.461282 26.795731 12.691196 
17.669851 24.174803 10.175725 
-24.689312 5.146605 8.098409 
20.605503 16.338337 9.074876 
6.574372 30.636204 16.586304 
11.445090 26.372232 12.905048 
26.421703 10.911770 11.677051 
19.207407 22.388947 17.452869 
-15.316499 20.557220 12.858314 
-19.240585 7.396267 14.378248 
4.979209 29.346733 2.230172 
-15.257713 9.798362 -2.566158 
-7.153780 19.522028 -3.352366 
-0.669619 22.396389 14.390330 
10.583305 28.204638 -0.548736 
-21.942690 19.287622 -2.643050 
-20.789286 1.898309 11.023667 
-24.462460 9.320322 2.294932 
28.141712 -0.799810 9.925881 
29.322012 -9.887241 10.594602 
-33.319836 -0.453231 -4.017423 
-25.951181 3.498672 8.531306 
19.129904 15.439104 7.606253 
24.468456 15.059298 9.385112 
21.082718 10.593027 -0.542679 
11.545924 25.607191 2.812295 
-15.765147 26.211201 18.173018 
28.796955 3.995171 1.993061 
-11.100691 22.132036 15.261716 
-23.035656 -3.846872 7.725225 
16.739555 0.282756 15.628310 
18.532120 9.476305 -0.311993 
20.927670 21.788416 10.975728 
11.041951 27.740543 1.781984 
29.057919 6.333569 -6.420383 
16.524302 6.483846 12.400148 
24.941801 1.672390 7.256637 
-23.950161 -5.655203 11.839942 
-14.929072 4.787323 16.296684 
25.071596 -11.702120 10.578165 
-17.966820 13.549221 14.380226 
1.319938 24.906866 11.562435 
-26.799809 7.529227 3.659056 
-15.828090 9.235169 1.954554 
19.662615 14.564528 5.889025 
4.034791 30.003483 12.805317 
27.758820 -0.078333 9.836578 
-24.328979 -0.859725 7.792861 
-22.656446 9.832440 3.844551 
-22.065456 19.090570 17.246796 
-26.012646 7.002625 8.317883 
2.747924 31.632900 14.209859 
-29.185894 -2.011546 4.544808 
25.776348 4.505259 6.292162 
19.634895 16.596777 10.555554 
-27.169519 6.449562 13.986708 
-21.305758 15.990769 6.680047 
29.768806 -4.576416 6.763493 
-6.485691 23.300241 3.978167 
-11.954808 28.534519 18.878010 
-0.471203 25.025665 2.395169 
29.580866 -5.222739 4.098958 
-23.803341 17.401352 12.736864 
-12.128401 25.525602 2.639683 
15.360748 21.369246 0.132444 
-24.061085 0.896054 8.300880 
5.073223 27.160980 9.690736 
-19.087088 8.482697 3.230372 
18.784454 9.698217 5.529516 
-16.563160 4.264777 12.381084 
2.590809 26.338879 7.050365 
-10.267616 27.765310 22.885643 
10.982805 26.620977 3.498420 
-2.392159 20.832842 -4.195289 
27.978981 -2.240585 4.027133 
13.679125 27.868277 11.840680 
-19.041479 -4.717597 22.845669 
16.248053 4.746092 -0.551471 
-17.552374 16.904808 7.466435 
14.973233 26.349016 3.843685 
25.665186 -6.756333 6.279717 
19.780006 -2.095294 9.242357 
19.245455 3.999805 13.182420 
-31.055422 1.389303 1.135881 
22.988344 -6.827439 5.856197 
19.215025 -5.540874 0.245670 
-1.021312 26.200680 6.659039 
-17.856812 3.262601 9.743465 
-21.989717 14.257670 2.757465 
-13.791632 17.982910 -3.089166 
3.877766 27.611649 15.718212 
23.345800 -10.213805 9.759942 
16.668276 21.520973 8.701848 
-10.330911 28.710037 19.757994 
15.433255 9.110069 12.035414 
17.331947 24.190054 9.176157 
-13.175563 26.100143 -4.545540 
14.363365 18.006945 6.639985 
14.517340 19.527193 14.226328 
5.044316 26.730869 6.238324 
29.884237 4.678363 -3.240590 
8.624507 27.988461 4.531105 
-25.002352 -8.862902 12.049448 
15.022690 28.319223 9.041803 
18.438082 1.431458 7.758447 
0.099114 32.208504 10.129860 
-18.465124 9.344730 7.664204 
26.156376 -12.384893 11.339950 
-15.689979 27.204758 17.932264 
24.395994 10.912395 6.609045 
25.451479 -1.543154 7.914612 
4.317501 26.977030 10.009023 
-19.270428 14.362491 0.183557 
-19.226473 -0.668708 7.089568 
0.400929 27.021330 2.109534 
20.465796 7.898580 10.987661 
16.779072 2.456009 -3.246914 
-0.202523 25.517176 3.598585 
13.844576 26.889893 0.996308 
-31.957201 -11.588816 1.916197 
-19.900715 -8.273418 1.365286 
13.228418 27.634260 12.435980 
-31.395428 -6.737903 6.236226 
3.400934 29.009970 4.799475 
8.210237 25.556633 10.146463 
1.322171 24.924364 4.384395 
9.463511 27.371103 6.932950 
-19.168749 21.669725 -5.100874 
-7.370945 27.202328 9.433923 
11.081087 25.943987 7.036972 
-13.631863 24.043493 5.094393 
21.472551 -2.645104 10.828279 
