12.176737 22.694921 11.930119 
0.943462 32.543919 12.887125 
-22.387180 14.187356 13.348850 
4.313288 26.679939 5.241793 
11.544993 27.918411 12.845794 
-21.992634 14.753440 15.311075 
14.020159 11.488381 2.753161 
3.346019 28.888716 0.364594 
-8.997842 29.163574 5.501419 
25.385254 -4.739697 1.600409 
15.132484 27.950405 12.731586 
-20.448576 -9.293221 6.032010 
-0.536473 25.790751 11.671442 
-21.986153 6.984597 6.174078 
11.330180 24.759329 -0.200635 
-25.170357 -8.300242 14.311010 
11.379963 17.062836 14.347924 
17.262535 8.103152 6.985460 
-16.186813 8.217438 12.040760 
8.641082 28.268698 -2.912931 
16.175966 27.643829 5.837508 
-10.380897 27.993107 13.576015 
9.721487 31.288425 12.831161 
4.866036 22.251995 0.769116 
-16.424301 16.301661 3.827636 
-15.315794 20.450747 7.686049 
13.683649 7.093895 3.783663 
-24.249914 -9.621998 4.159243 
-19.474939 19.377974 7.960334 
18.033047 11.139971 6.836448 
-17.089552 8.537303 1.720617 
0.660457 30.239702 10.737295 
-21.845676 -1.271350 2.538235 
22.993019 -8.137400 13.470925 
28.114449 -3.393672 2.891450 
13.043435 18.137804 2.725367 
13.203597 20.554422 1.839519 
16.410805 8.604339 -0.852691 
-13.888665 6.683502 10.821886 
16.205956 5.599782 10.489534 
-20.879711 12.575332 -3.266312 
-13.460211 19.281006 9.123403 
-22.908064 7.776556 0.691181 
-15.288933 1.748631 7.300758 
11.329453 24.214735 5.552179 
17.277090 -2.528144 -2.254534 
-21.867199 1.569197 7.014072 
-22.032734 6.154931 5.723423 
23.673588 -8.468221 2.592695 
17.539286 21.864986 9.554003 
22.127005 1.109721 6.149794 
26.135872 -0.960781 2.779281 
-16.436659 8.612169 5.268824 
-12.953434 13.523550 0.550771 
4.422682 28.814213 9.484324 
-27.411674 -7.508629 10.314342 
15.125431 10.680967 5.168800 
19.519762 -5.281737 8.852469 
-12.963883 11.188122 8.603383 
0.200460 28.839182 10.360581 
2.044094 31.064951 13.967040 
-16.490576 -3.879647 14.189489 
-7.625621 20.832506 15.354296 
-23.030506 1.908751 4.774870 
15.830824 7.768646 -1.014197 
-14.380414 23.780325 6.015849 
-22.042803 7.725078 1.162122 
-20.565536 5.800261 -0.540204 
13.006914 13.740602 2.858268 
-19.663082 15.871802 7.810914 
13.054032 11.027596 1.073742 
16.559820 13.189150 -1.231357 
-5.117756 26.007421 -1.549288 
5.291853 29.590393 13.631634 
12.509344 23.673410 0.174565 
16.624134 21.243347 10.937729 
16.377764 26.629002 3.619609 
25.549780 -0.757430 10.271892 
-17.622839 17.035892 7.074346 
4.067272 26.456911 2.477819 
-12.647894 11.746234 11.096817 
-17.129025 11.528900 12.808730 
16.756824 -2.487846 0.003066 
12.478765 30.669020 8.428768 
-10.135891 20.575237 1.137091 
22.728735 11.686528 -2.357749 
4.872697 28.333916 0.222346 
-24.552862 6.567142 12.792295 
-16.736511 21.003553 -5.111632 
-16.845829 8.257337 5.886840 
25.078596 -0.109066 12.327258 
18.404177 -1.201000 3.109089 
-10.636429 13.350975 -4.263493 
6.448948 26.329298 1.833777 
-14.160017 23.971613 -5.359892 
-13.925580 25.096031 -0.800754 
-10.045945 23.857346 -1.866747 
5.202567 24.647615 3.636385 
-19.945583 -10.396291 6.572997 
-18.976477 1.511340 6.312564 
4.756562 29.343914 8.145026 
16.443808 27.202238 14.050423 
26.529072 -8.075722 13.360593 
-21.947037 -4.322488 0.823528 
20.615648 20.550461 7.425791 
16.104162 27.403595 4.783183 
21.271072 8.113103 -0.162806 
10.729701 22.030647 4.456322 
-15.534884 11.913899 12.429694 
-13.969769 17.460920 10.348008 
-19.319664 4.322184 13.353290 
3.358897 29.738235 0.096401 
17.780703 -1.643660 4.647404 
22.087439 3.889094 7.452034 
-17.433126 8.134395 9.022546 
1.708688 24.569242 15.382215 
-5.836640 32.104092 10.205248 
-17.537640 24.309570 5.052356 
-14.876437 17.839834 6.948443 
15.596299 3.661527 14.406375 
-25.056133 -4.113150 2.300829 
21.639374 17.245636 9.409510 
-20.458389 10.306061 12.202775 
25.320034 1.002735 7.716406 
23.175537 -8.867460 12.166694 
9.323455 20.329096 15.399487 
17.235270 0.523225 7.703063 
-21.232555 -10.352391 4.157888 
-14.669789 18.774958 10.778803 
-20.147318 14.313885 -0.881266 
-15.285993 27.234110 12.667879 
-7.715176 26.323305 5.042722 
-0.986715 32.719757 4.155130 
14.196647 20.514963 8.603269 
21.582529 -1.161705 8.139080 
-23.003819 -10.159068 5.067935 
-16.852062 0.175406 12.485087 
18.334074 25.614374 9.258905 
-15.490121 10.778211 5.732687 
-22.198940 8.981965 -0.413467 
-6.352684 28.709295 7.249024 
16.487955 21.840284 6.260521 
-11.667830 24.165884 8.869081 
-21.421721 -10.515777 7.658156 
21.206755 6.928088 6.908742 
-6.592937 19.022293 -3.665508 
-16.500790 26.256645 10.927902 
-2.637841 26.090290 4.427066 
16.130371 28.044588 10.741670 
25.076618 8.358875 15.432809 
-24.443666 -6.975189 9.629930 
16.190964 22.216665 12.524019 
-15.721370 -0.769517 4.111887 
23.997347 4.687558 6.482660 
-3.563176 31.861254 3.330712 
-20.679062 -4.983307 13.988876 
21.671427 15.549929 10.109680 
0.239519 33.675991 10.357344 
16.637974 16.788992 -0.658634 
16.483240 27.634516 11.354830 
28.655405 -2.074762 8.648188 
-19.433981 -6.420539 13.291407 
-20.347830 -5.632968 13.898252 
-25.464355 -4.964475 8.109586 
14.868353 9.734227 5.421167 
16.566544 5.775633 8.650713 
-21.508966 -6.866564 14.382367 
-16.157125 21.676783 6.373983 
-22.287010 5.138261 5.974285 
-17.693962 -3.032919 10.223217 
24.371794 7.484076 -2.191435 
-7.621002 25.437292 6.501578 
-12.610551 14.638547 3.309561 
18.970741 -6.915423 4.387028 
23.066952 6.413589 10.765828 
-19.207096 -9.658544 10.941118 
-6.377714 31.286501 7.324180 
-15.981385 4.534719 6.102838 
10.526381 27.849619 1.747545 
-15.608843 -1.354583 13.414600 
18.829887 16.337919 -0.510014 
-27.429232 -5.096502 10.266315 
4.368077 28.696100 13.122691 
9.830337 21.557178 11.972673 
-19.274977 -1.773576 12.158610 
19.394562 -0.218200 2.951979 
22.766359 -7.321915 13.680120 
-13.456095 4.934343 1.691219 
-15.655581 10.321097 5.153232 
-24.883619 3.754315 10.774796 
9.437865 20.517197 2.571876 
-24.777262 5.934261 12.472207 
-23.405161 -6.343985 10.260485 
14.293413 15.582560 12.233596 
-17.462889 3.640883 13.076999 
17.985319 10.867753 3.393390 
-16.752838 3.534448 12.830680 
20.758400 -8.533600 10.017154 
-23.436485 -10.141837 7.717285 
-2.074890 30.974096 5.245156 
-14.853826 20.544823 6.478639 
14.259180 8.203726 3.358421 
18.779980 14.153527 1.352298 
25.251661 4.788750 12.496587 
5.255268 28.927101 1.712674 
21.995834 13.256990 9.373615 
-23.588797 -9.623803 13.413181 
29.735092 -6.021393 15.434480 
2.229188 26.964909 4.889831 
-9.844062 30.471264 13.406482 
16.604038 8.453079 5.391956 
-12.365479 25.948807 3.134886 
8.378127 32.257828 7.083003 
-13.257629 11.917840 -1.065975 
4.103759 25.463762 -0.185270 
7.241858 33.732479 6.464002 
-17.727888 23.164068 4.759752 
24.193270 3.894829 10.847463 
-23.586969 4.210185 6.444762 
19.005743 4.789092 6.297759 
-7.061006 19.018213 -2.501263 
14.737554 24.065645 4.611324 
25.628717 -6.954117 14.335176 
-8.948310 22.469265 -1.456417 
-11.034493 23.838892 0.759973 
-23.961657 5.758506 -0.192093 
22.468580 5.707329 6.662736 
18.955004 18.328232 5.646671 
11.776429 27.050825 3.928782 
23.889994 -0.315164 8.620500 
-24.821127 2.846002 10.676037 
-18.252033 21.015289 7.925445 
-19.160210 -10.586904 2.771759 
-12.467790 17.947702 10.407064 
-21.334177 18.171318 6.279788 
-26.062567 -1.222711 -0.178119 
12.506419 22.797211 8.278486 
-22.625160 0.539291 3.814187 
13.945107 5.991332 -0.013794 
14.326216 25.256754 -2.673857 
18.484657 0.362759 4.749907 
19.292637 -1.287699 3.984222 
-15.340876 18.628115 13.097655 
-20.390890 18.670956 7.097741 
18.708656 19.855656 6.145170 
-17.396673 -6.408763 11.122299 
5.593748 34.646114 4.651946 
-23.333841 -3.605547 14.296203 
18.527740 15.680801 8.991405 
-13.572393 12.371838 -1.557163 
-11.081209 12.428130 -2.953081 
25.578135 2.827488 6.502133 
-22.531780 -10.357431 10.355021 
-26.857027 -6.457846 4.889579 
20.658182 -8.048199 11.557075 
-22.056293 -6.266912 14.596364 
4.065286 29.187801 10.185561 
17.460222 21.487335 -2.813131 
20.420027 5.628300 -0.987152 
17.212112 -1.713669 12.344825 
-12.768480 28.204655 7.615162 
5.171548 28.818382 -3.222142 
11.251541 30.495358 11.135509 
16.651077 27.582115 6.603086 
-8.314587 31.348389 11.799136 
20.211176 10.791087 1.917710 
-19.247252 -0.708875 6.050365 
-17.584648 20.752987 11.339905 
8.353548 23.152079 12.217419 
15.942663 25.178127 13.521621 
-16.189291 6.242406 -1.177891 
10.715638 27.742104 2.614590 
-20.893932 16.244690 13.956878 
-22.783066 9.048953 9.916467 
-12.924911 8.532742 1.288119 
-7.808589 21.107306 0.367160 
-9.509444 27.396666 7.506560 
-15.410829 7.517150 7.482298 
-5.874651 28.424473 10.037864 
20.657326 -5.307265 0.934968 
20.005093 -8.861598 4.889532 
14.733254 8.885689 4.372203 
-11.081443 26.304871 -1.296108 
-22.536983 12.919975 15.308228 
16.441946 0.832462 11.708757 
21.389879 3.957466 7.090135 
4.516883 26.043278 -0.363231 
-18.542400 -7.986318 6.365550 
-17.470720 10.055349 -0.590256 
-14.090122 4.389101 11.186290 
-20.970686 11.406688 5.770483 
-2.591528 28.201714 -4.066399 
-20.930473 7.063758 6.196940 
-11.778015 24.794943 0.346780 
-0.594347 22.062412 -1.012615 
19.626593 -4.386027 1.052931 
27.590828 -1.148498 0.856737 
-21.250294 -3.511883 13.763432 
-13.792664 10.742236 5.250382 
15.376168 5.392761 15.404487 
-16.020683 7.142419 10.182729 
-20.131985 5.045313 -0.889528 
6.318499 30.268169 8.876998 
23.460129 3.955382 4.328987 
21.338535 12.038956 5.711111 
2.701887 27.977152 -5.476408 
28.254564 -1.806046 13.347436 
-23.551975 -7.447281 1.356843 
20.233814 0.866536 6.863050 
-10.872991 22.797277 11.302424 
19.510799 11.029276 5.831652 
-14.802423 3.517484 7.789222 
14.747635 17.521978 13.043622 
18.316896 1.381859 10.374084 
-23.447119 -0.568689 8.226299 
-22.705105 -8.595621 9.675393 
-4.178835 31.371798 3.394483 
-17.458935 12.942178 6.365857 
15.900301 14.095368 7.656429 
-2.581419 26.958309 1.400331 
-23.136162 11.045305 14.262099 
-11.001713 26.554478 -3.759766 
7.133782 32.333450 11.692781 
14.788396 8.202950 7.690540 
-24.507259 -5.936618 9.703188 
-8.126206 31.300877 4.934997 
16.726261 -2.184441 1.693143 
26.373503 -0.273638 4.089767 
6.125226 24.416977 1.243236 
-18.310038 20.732691 0.237776 
14.270357 23.914808 5.453164 
18.898899 4.804963 13.155412 
-7.312026 30.139256 9.747931 
-20.564512 -8.860418 13.368971 
12.170403 24.125168 3.795460 
-15.864415 16.891926 -0.962313 
-13.483863 28.020964 10.254878 
-14.792437 8.825844 1.249249 
-24.199375 2.537588 12.623657 
-22.092144 18.101757 6.396138 
-8.786423 31.539545 7.840423 
24.742462 7.342443 9.324504 
24.360086 -0.547506 8.014163 
17.578949 1.186069 6.187440 
2.802737 30.514153 7.200906 
17.327265 13.762394 8.593069 
2.237656 27.410172 0.183485 
-9.661222 30.905466 5.950794 
-19.535397 -9.563153 7.233965 
10.559128 30.932095 10.585257 
-16.666237 19.667917 9.445018 
3.228307 34.496902 9.916210 
-24.349094 -1.690715 5.715830 
-11.465377 19.986900 3.383277 
21.956308 11.001269 6.844333 
-20.172029 3.941069 13.461559 
12.845145 30.425156 7.057470 
21.480192 10.205894 10.581898 
-18.557680 21.153212 8.940050 
2.511564 34.369289 8.460226 
16.082901 13.846499 -1.322292 
-22.274628 -9.136606 7.091972 
-16.970512 1.738745 -1.326625 
8.767121 31.029352 14.735496 
-13.698976 22.063492 1.227655 
-4.233995 26.246248 5.362957 
3.716521 27.616877 7.110513 
-20.251669 -1.900576 2.335072 
-17.989429 -7.218111 14.460814 
8.082783 27.760801 13.755119 
24.854664 6.620093 -0.244562 
-3.488929 29.053823 5.745481 
7.296898 21.998230 0.937676 
14.550283 21.171980 11.795537 
-2.018497 29.608955 7.704784 
-26.816458 -2.313786 9.512953 
-8.211240 28.483635 10.568748 
-17.605846 -8.346220 0.540034 
17.660803 21.499853 3.125100 
-3.443986 31.272079 13.483197 
-14.986187 -0.180649 -2.010726 
11.764339 22.336010 -1.352478 
17.083155 21.202934 5.518669 
-9.983471 20.127607 2.537755 
-13.747470 25.488865 13.023754 
16.257658 14.848697 11.459851 
-16.273968 -1.183696 11.654562 
6.902369 19.821964 -2.018612 
-18.796202 7.520872 11.369815 
-14.119464 16.328138 9.468859 
-19.379332 0.233301 -0.575946 
-0.713501 28.603180 -3.262124 
27.600632 -7.354382 13.537879 
21.050297 -4.395763 6.121906 
10.743024 18.151857 15.401661 
13.098969 25.323570 2.386771 
1.792056 24.994118 14.271824 
16.654095 13.317696 6.573735 
6.684407 22.882095 2.314842 
23.038109 -0.469805 8.129623 
16.208321 4.785756 -1.293091 
28.511187 0.660297 13.825436 
3.362548 24.772287 14.312837 
-18.974173 -7.088320 6.157128 
26.954842 -5.017338 6.365262 
-12.205384 29.112297 7.263454 
21.318266 19.608707 7.713915 
18.317852 20.134325 -2.323126 
-16.293072 11.721102 12.663520 
-0.995295 26.085283 10.803279 
9.851789 28.497522 11.194412 
-12.915709 20.568665 11.836955 
29.000668 -1.282095 15.436082 
-25.276114 -8.959109 13.563744 
18.735760 24.504961 14.106544 
-22.451765 -8.341064 8.934457 
-7.845527 17.986994 -3.131020 
17.057306 0.692945 5.427700 
-0.055405 28.716286 12.168545 
-18.689993 18.997868 -0.125193 
-0.872897 28.545174 0.819944 
-18.211622 -8.900364 4.653935 
-23.662596 -9.647981 6.601274 
-13.330770 11.518909 6.652845 
1.269467 25.123064 2.642906 
24.558037 9.643957 14.248732 
-10.470163 23.670206 6.549421 
14.631796 18.266298 13.009120 
-10.938017 17.069267 14.022784 
-12.419953 17.017075 10.802019 
-25.632814 2.145272 13.703433 
-2.885414 27.477142 0.744037 
23.885555 10.218254 11.387364 
-7.062929 23.722425 0.509060 
28.322315 -0.178325 11.752813 
-23.321220 -0.479499 7.429655 
-4.485433 27.428408 11.531414 
-5.623303 26.426891 10.714539 
24.924263 -2.481456 13.897416 
-19.768396 15.605767 -3.446153 
-11.806461 26.270897 3.881386 
19.114023 17.285578 3.283096 
14.045551 8.591133 14.375718 
2.611069 28.898701 3.061722 
-4.849931 22.731630 0.390284 
-16.410660 0.001276 -0.073498 
9.317692 30.393837 15.407070 
-24.812368 -7.603476 8.147254 
12.285500 27.135157 7.096058 
26.147200 2.694011 -0.042150 
18.166265 10.219057 7.242664 
21.085266 -4.481114 0.716915 
-5.387395 23.794872 2.842951 
13.937354 5.313183 3.415236 
-15.109341 18.823931 7.361876 
20.324326 -8.897346 2.567815 
29.410814 -5.443583 10.415135 
17.282942 0.438166 11.984221 
15.876299 24.257086 2.392890 
-4.060540 28.928129 12.847448 
-12.737919 10.484587 9.637337 
-5.954879 23.654654 1.341094 
-16.460316 21.808149 9.893519 
-23.039881 -7.903055 9.676436 
14.670346 16.444212 12.775121 
-23.461191 5.941751 12.321136 
21.031368 -7.624691 8.924273 
-10.634221 22.553255 4.546836 
9.424469 21.093231 13.488949 
3.192209 29.309832 2.510577 
-20.888769 16.736206 12.016007 
19.703375 -1.234284 6.703188 
-22.541670 -1.053160 9.324687 
-17.974531 2.204952 5.243670 
-11.916012 24.636400 7.143487 
-13.402608 4.583761 4.882791 
10.784761 25.543556 11.124072 
-25.672014 -10.045349 13.485997 
-15.815785 -0.209650 15.316388 
19.674469 18.257206 5.086733 
-16.769470 10.613739 2.004617 
8.346452 29.744461 13.870917 
25.023008 1.987926 6.166821 
-7.494211 27.392321 3.872212 
-25.888590 -5.802855 14.480708 
-26.754978 -7.885336 2.486337 
13.033878 17.823986 7.675455 
17.428406 7.786940 6.141158 
1.243822 31.213923 6.676040 
-16.935621 -6.297013 -2.444441 
-20.453981 4.275673 7.186710 
8.436798 28.714643 13.979176 
28.395369 0.635347 13.086980 
18.546873 21.806158 7.532297 
16.167467 5.352812 11.440536 
-11.074050 27.085255 12.538334 
-17.657572 17.348543 4.755157 
-5.573159 28.718121 2.757388 
-24.459854 -9.685427 12.494572 
-15.020523 15.162330 10.109796 
-19.123043 -3.511979 9.163540 
4.694736 29.667864 6.379900 
-15.531284 -0.452604 10.395186 
-2.456864 24.586761 13.352173 
-22.171736 15.410030 13.607134 
-12.900371 11.128251 7.413054 
-21.292738 16.857056 14.034215 
10.750585 26.504440 9.393703 
-14.296135 24.435106 0.500378 
3.444749 27.622118 10.816682 
-18.132235 10.495089 -0.356607 
-22.490105 7.571019 8.427395 
-25.087738 -2.096594 13.386000 
14.678109 17.463305 5.846128 
-13.636636 28.215080 11.444180 
19.295208 -0.012583 4.704828 
19.453997 -7.013227 11.533958 
-6.486597 25.570269 9.632062 
-26.642572 -3.526644 4.262402 
20.433941 0.221552 12.719700 
-20.506819 14.661370 12.371376 
-22.343876 18.887075 12.108396 
-24.259087 5.176178 9.211411 
-19.163973 -7.215332 8.175131 
-12.288953 16.707140 1.647136 
-16.905260 15.463326 2.166735 
13.100193 9.840846 -1.335420 
8.941421 26.503098 8.662477 
7.982812 28.989336 -0.456527 
1.678518 28.317528 2.310231 
-18.771988 10.680475 1.450041 
-21.519396 14.524061 8.818346 
18.909971 21.466122 6.949361 
-3.416736 26.779177 10.241502 
-16.414820 -6.338777 0.574622 
-2.427060 24.710705 1.311748 
3.093221 27.904274 -0.490103 
17.770285 19.251188 10.706099 
14.357827 24.424011 13.331284 
16.316704 14.044910 10.719728 
26.382221 -6.117633 9.251781 
16.490261 16.272295 5.575231 
0.164566 23.007816 1.643876 
-19.124310 4.994069 13.161760 
20.107653 15.479180 10.062067 
18.804651 -1.591142 9.149647 
-17.190619 -2.286623 8.934914 
16.555868 11.597473 2.511764 
-11.732990 19.461069 0.759408 
-12.164635 25.252769 -5.452633 
13.841997 23.739899 7.613649 
-20.898815 8.240889 3.806789 
-19.023525 3.887734 6.993062 
17.454710 20.242319 10.119647 
-17.583996 15.063617 13.494922 
21.075819 17.321810 12.393431 
-0.201286 29.969322 7.327539 
-16.142685 23.117220 -1.528593 
13.957137 17.320621 12.691215 
13.931607 20.785263 6.896217 
-21.054064 12.081205 11.277805 
13.903964 16.315367 4.555678 
-16.327967 3.992610 5.497865 
-16.758472 19.463293 7.240135 
17.758482 -3.298020 13.134448 
-19.612274 -9.276323 11.586384 
-12.868715 24.867516 -5.426444 
17.268259 22.408798 6.732097 
24.428375 1.622369 3.984210 
-19.631216 2.467001 6.284026 
-19.634472 -10.328931 5.901549 
26.947638 4.256845 12.701217 
23.904503 -8.500822 3.965712 
-20.017836 19.815912 7.584972 
-4.444442 32.873322 6.361687 
-16.278488 16.265583 13.585733 
20.932467 13.493179 6.575025 
-18.564392 -6.891903 8.726637 
4.889236 31.434645 8.505941 
16.939617 -3.124318 2.233452 
-13.862119 20.033539 5.492165 
-13.764605 24.474619 6.145578 
23.180605 10.291222 -0.410856 
-16.366179 6.560260 9.866004 
7.216652 31.313494 11.186448 
-25.590031 1.992792 12.415809 
7.085440 33.185188 11.374024 
-6.554877 27.548187 0.379410 
15.725945 3.344345 9.230124 
19.149103 -6.663136 10.078211 
17.498676 2.216527 2.765875 
7.349433 29.046799 10.385562 
13.894372 8.926852 1.245784 
-16.333403 -5.361295 -1.303089 
-21.316727 5.278893 -0.291192 
12.578189 11.737371 0.422964 
-24.950188 -5.976974 6.096305 
20.665413 -3.909967 6.739009 
3.629204 32.311253 15.393223 
15.035008 24.762951 1.263302 
-18.200874 7.289286 11.934066 
21.914795 6.934192 2.561502 
10.780367 23.193060 10.974436 
-26.962311 -5.519374 5.000187 
10.001323 30.593704 12.570032 
-15.561047 4.306324 1.672591 
13.095428 26.960760 10.003557 
-17.676216 -1.982234 11.725325 
17.768923 0.316050 7.028812 
-0.077400 33.607994 6.653718 
9.609393 26.884560 0.736081 
-12.662325 16.278334 3.021800 
21.591448 10.400583 5.829909 
13.280348 17.017643 3.542477 
21.412100 8.714852 10.343443 
6.167986 29.426058 12.754888 
-12.261897 17.454288 -0.813597 
17.889889 25.431633 4.975476 
6.514081 29.908895 7.117811 
14.293731 7.483694 10.619529 
-18.925837 17.803528 -3.654553 
13.006658 17.401844 1.778509 
-17.573793 20.520144 4.965223 
-20.909849 10.938413 12.093815 
-25.073500 -2.092177 5.321192 
-13.641420 8.616279 15.328897 
-24.179731 -3.666130 14.318032 
-17.878527 -7.628766 11.565153 
24.086620 8.476009 -1.341077 
15.892523 1.579485 3.614525 
-14.542651 2.851093 -0.388134 
-12.694159 9.318325 1.223836 
27.598627 -3.010925 3.527526 
17.019657 0.394185 15.405132 
17.392145 4.517568 4.870409 
-17.819120 15.640681 9.835939 
-15.829794 15.564333 4.722192 
-8.199704 20.350822 1.292709 
17.187618 22.355019 -1.772575 
-5.124270 28.512241 7.515820 
17.426497 22.323551 3.247293 
23.170271 -2.318433 4.148816 
-18.948324 9.046508 2.268642 
17.187061 21.560167 0.522013 
22.092878 8.861670 9.376959 
16.530195 22.260027 6.910023 
5.233187 20.991907 -1.801014 
22.391466 8.913649 8.204361 
9.682927 18.154861 0.704410 
6.658968 26.091822 -0.191455 
-20.415705 1.483197 3.464895 
22.228733 -8.038085 6.768924 
-21.247934 2.572010 -0.460013 
-20.222656 7.716368 8.462234 
-3.197938 26.579247 11.071195 
-2.960035 26.228331 2.913752 
-26.859287 -2.206213 10.228499 
20.109713 15.909035 3.086808 
24.524128 -9.011606 0.159699 
-20.709705 20.979280 9.240615 
-9.835217 26.255213 7.039222 
0.605493 28.051809 -0.549140 
-22.508358 0.984990 13.007865 
11.505239 30.581446 10.373824 
24.373583 0.013163 6.929805 
13.389310 14.840635 2.043549 
-17.093739 14.614806 2.117977 
-0.991414 24.637014 14.375710 
-8.909254 20.766987 -0.384861 
-20.066078 -10.283136 4.816772 
10.872984 31.376600 8.292068 
16.205097 27.922930 7.219284 
14.010512 7.607715 12.474958 
-11.448960 12.662309 0.605963 
8.982637 26.135792 13.010113 
-12.105066 22.410681 -0.797936 
1.310498 28.823042 11.059789 
20.620872 8.747528 7.246298 
21.657843 18.923107 9.194859 
-17.344410 12.027663 -1.261898 
19.032497 11.884111 4.266752 
-6.451830 31.978420 12.880412 
-24.539637 4.747497 9.800838 
8.586128 28.694384 3.587903 
8.856796 25.332701 7.166872 
6.837142 28.854839 6.426194 
23.738094 -3.690039 4.446403 
-7.790579 28.689131 13.385857 
-3.601063 29.550835 7.432327 
-18.408943 -7.832617 1.928977 
-9.091073 27.674448 -1.989083 
-11.663787 24.983082 7.785982 
-4.988706 29.941099 12.755877 
-14.775396 17.170168 7.430120 
1.562208 32.816196 5.103970 
-21.512779 -8.283484 14.028945 
-26.735476 -7.870640 1.077320 
-14.423646 27.472874 8.644549 
-24.698023 2.222694 8.621276 
24.290291 -6.175385 1.463012 
21.443411 17.257933 11.436773 
13.000780 26.427666 6.070334 
-27.727680 -7.079326 14.122193 
-18.479563 10.374250 0.780947 
-17.709391 2.123768 -1.380454 
3.865994 25.431948 3.953121 
13.597499 18.131174 12.541977 
-22.213093 -8.599648 14.119699 
21.439840 -1.427403 6.903811 
-11.986963 22.570665 9.562530 
18.292444 5.105310 12.907640 
13.052934 25.921310 -3.857712 
-10.755619 23.970001 -1.789165 
18.028942 16.947916 -0.479191 
12.472784 11.477075 -1.708863 
23.394547 4.378759 4.916549 
-21.297838 -9.521446 1.600953 
-8.184544 25.522482 7.222088 
1.453731 22.082811 -1.544452 
-11.150321 24.591486 10.743704 
-22.504150 7.562512 7.700382 
-13.732828 16.565237 -1.161935 
21.520855 1.561871 13.236177 
-18.077158 -7.769514 2.707865 
-23.448519 5.641359 3.031755 
22.816641 0.005863 7.508311 
-14.126987 23.126125 6.730363 
16.823410 19.046320 5.786200 
1.254668 28.339867 0.995523 
10.623800 21.119684 3.856530 
-20.311274 -9.403369 1.493190 
25.167370 7.953720 11.922224 
26.004982 6.243880 11.793755 
9.877569 22.321991 11.111599 
-6.656054 30.292046 9.420392 
20.433643 11.243705 9.176411 
-19.051834 12.259921 -0.085856 
10.383680 22.604822 1.225416 
-13.186770 9.624092 6.720086 
-16.982597 20.949734 5.602860 
2.875748 24.571321 2.100254 
18.452200 16.787012 6.367711 
10.497532 19.247047 2.858233 
-1.837427 30.882437 13.493802 
11.629312 18.378889 11.368275 
-12.611124 14.099881 3.851242 
14.181360 7.157362 -3.252476 
-19.745214 -2.187226 10.514812 
20.290369 -1.245415 6.271770 
-15.650255 22.816063 2.023560 
-20.392101 13.491665 -0.981634 
-14.776915 0.269410 12.460462 
-15.921928 8.867432 1.666849 
17.754665 -5.575267 1.511376 
18.150188 17.386915 6.793619 
-17.135084 20.861847 9.275744 
16.126293 7.790241 11.108090 
15.716819 18.118525 13.360137 
-12.448340 21.832428 9.779937 
7.911404 33.436172 9.747776 
16.142527 10.675334 12.355676 
3.676813 20.968630 -4.774943 
24.328175 -8.336591 4.593286 
-24.373901 5.433330 9.975400 
25.252798 3.401702 12.542702 
22.367954 -9.802943 14.250912 
-24.510117 -2.821242 7.172758 
-17.863070 -8.243363 -1.248812 
-18.674597 -9.359964 -0.938907 
-22.766565 18.410769 9.326272 
-16.250534 -1.264347 5.090687 
-19.682249 15.447719 -4.616273 
-7.141811 20.026476 -0.370794 
14.297753 15.406304 2.782476 
-11.827262 26.776913 -1.654600 
-26.340820 -1.720334 9.812209 
23.207775 4.670497 6.636395 
-15.923137 15.338042 7.965952 
-24.274677 -9.626147 3.426048 
13.913189 6.162622 5.485085 
20.388390 -2.302800 11.611220 
-10.766599 22.616425 9.541502 
17.353373 22.414570 1.401244 
5.824071 29.624697 7.239578 
9.094410 27.588732 -0.692973 
22.599319 3.732186 6.240981 
-15.688601 23.462332 13.463233 
-14.982033 19.694574 -2.591843 
17.967407 5.112449 -1.409945 
2.545602 30.923227 5.968258 
-26.033857 -1.457719 12.722019 
16.787254 22.036327 -3.806881 
-1.082783 27.542259 9.369267 
13.555593 25.268972 13.185104 
26.845167 4.506499 14.640658 
12.742839 15.432667 10.320114 
-14.323746 9.819549 1.503780 
25.936607 2.835267 7.310680 
19.787476 -7.006611 9.648158 
-13.747413 11.279827 5.981793 
-1.778733 28.667751 4.554155 
-12.519253 10.246599 4.544895 
-9.686546 18.850000 14.320217 
3.915664 34.761860 8.562675 
-10.658914 26.844862 10.257832 
-18.972450 17.568470 11.745820 
-16.104948 16.831190 -0.173711 
14.448220 6.856010 11.513604 
19.897999 9.938329 5.444390 
-7.628097 19.016148 -1.314465 
24.973337 6.350262 12.260261 
4.122350 27.390825 11.368793 
19.178450 18.639709 -3.178503 
-10.383330 14.735119 -1.845690 
19.664423 6.348546 7.323147 
-18.715860 -8.521677 14.390080 
13.605177 12.427861 4.004972 
15.553688 24.181955 11.161071 
-16.752028 6.337959 2.025579 
8.370405 22.519066 13.105551 
-7.752071 30.190126 5.335534 
-13.334532 21.618465 0.648456 
-23.419741 -11.066383 14.215894 
11.395255 19.717445 4.724837 
-15.153493 26.992418 11.879637 
-25.361298 -6.890531 8.088615 
-26.410648 -4.591610 14.151263 
19.969166 22.168350 14.659246 
8.640696 30.400661 6.135427 
-18.195807 14.616812 6.798632 
9.107289 24.743069 -0.987631 
-20.702721 -9.649670 10.348808 
-12.279221 19.400827 -1.564226 
-4.948005 32.764210 5.774741 
26.279779 -5.758734 7.039608 
6.175546 25.716986 2.990513 
-17.266087 22.073923 -0.189585 
13.792084 25.644608 6.203542 
-13.787971 2.898676 -0.959234 
-17.870070 10.039906 4.931992 
5.848687 30.051716 10.632117 
1.797617 26.427214 5.430167 
-17.311161 17.287920 10.609724 
-22.522869 10.209743 9.874215 
-10.891459 27.062618 1.083641 
-23.029869 -11.186741 3.308740 
-18.750324 7.654048 9.306263 
23.040798 10.045351 9.645040 
10.858962 27.114082 -0.523873 
-25.263508 -5.189060 14.571351 
-13.686566 28.245499 12.882401 
-22.052559 18.809849 6.739518 
18.702223 15.085540 11.105518 
19.720839 7.758616 12.269207 
-3.813331 24.321369 -0.849768 
7.112676 24.243229 4.585693 
15.184377 23.692436 5.215436 
4.151070 26.146770 4.651483 
-26.259939 -7.798276 4.574551 
27.652180 -3.777967 3.520573 
16.032591 1.732296 -2.691592 
10.902623 18.980900 -0.504045 
-21.334614 15.455440 7.050682 
24.408279 -5.539684 9.018757 
16.072903 0.671218 -1.553125 
1.488798 21.490503 -4.861713 
-16.998171 13.487773 12.051817 
23.063055 -5.344833 6.779440 
-15.601498 13.904068 8.201500 
24.500942 5.903234 12.591819 
4.471945 21.901358 -0.295804 
-15.302099 23.843243 4.639918 
-8.464204 28.002934 -0.878053 
19.804390 -3.151333 7.062732 
9.835981 25.246071 7.180583 
-18.071524 17.820845 2.976888 
20.300028 18.754875 4.866775 
23.845522 6.655911 3.758917 
23.055426 -9.563593 2.585822 
14.379822 24.314142 6.928193 
22.611412 8.528430 11.328928 
-18.754662 18.601944 -2.003866 
-18.481449 14.602010 7.676321 
-5.124732 28.502125 -2.848516 
-17.552542 -2.764353 5.506615 
-15.285477 7.790433 6.802330 
24.273376 7.382979 -3.109781 
-14.267068 26.900339 12.073543 
23.471003 9.107656 9.736576 
23.954836 8.234093 -3.198234 
23.043215 -8.914691 11.005337 
-14.609644 18.499481 7.991525 
-25.019289 5.106615 12.263811 
-25.079002 -8.777223 6.045727 
-18.468126 19.174356 0.565411 
-15.274863 15.728974 7.970006 
18.110779 1.865846 -0.734621 
-16.123661 22.204206 13.136827 
2.986663 32.255348 4.527062 
-12.056264 9.864605 -3.945651 
-20.199211 11.112786 5.227672 
13.748149 7.182703 4.561946 
16.908705 10.751477 2.318157 
8.065060 22.848482 -0.108000 
-3.432165 33.216572 9.693873 
-17.332705 -1.977734 10.156781 
-8.551778 24.057888 10.271151 
-14.804485 23.414494 1.238030 
13.115438 9.959214 -0.463492 
-13.650656 20.948826 12.385442 
16.724033 17.354273 2.297029 
-10.372163 21.465240 3.456437 
-18.678461 13.005034 4.895117 
20.434313 16.442375 -3.191074 
-12.596768 19.719360 -2.206178 
-24.303745 -8.920809 10.086555 
-7.546305 27.808674 13.241576 
22.819347 -8.723439 3.338284 
17.330559 6.817360 11.932162 
-10.619211 20.170105 2.888701 
9.043157 27.995157 8.778563 
8.937994 17.595325 -2.976780 
21.511559 17.082609 8.184099 
26.524212 5.175754 12.000169 
18.853468 0.357780 2.366673 
-4.427259 20.186352 -4.830733 
15.138012 15.791573 12.637244 
-6.288058 31.013859 5.712519 
5.573249 21.082510 -0.923995 
23.932869 -10.205503 15.415719 
-11.971919 19.401949 -0.273613 
-6.350140 27.700256 -4.406478 
-15.086872 19.103632 11.526187 
13.515920 18.353889 5.245450 
-25.929531 0.249309 14.464403 
-17.948900 13.684274 11.456172 
-24.206926 0.284452 7.919558 
20.474012 -8.830120 1.743514 
-19.339380 11.167019 5.362978 
23.842058 -8.967028 11.645617 
-5.125136 22.124796 1.305919 
1.670662 27.993855 3.025147 
25.293776 -1.804507 13.595242 
-15.589228 10.183450 -1.407419 
25.458893 1.050048 8.495159 
17.005625 21.387409 -0.175274 
17.512951 7.080017 10.835648 
29.095358 -5.320232 9.510979 
-18.113535 13.833085 5.171696 
-22.244394 5.872138 0.474719 
24.791656 9.032244 13.255746 
18.249397 19.813780 6.718424 
-27.013048 -8.123840 10.350575 
-17.639559 8.532580 6.534541 
14.420358 25.507092 13.420113 
-7.823555 22.545290 11.483990 
20.845131 1.235202 4.315422 
-21.819078 -1.292158 7.916277 
-21.176128 11.868186 -2.059825 
14.109365 12.881614 5.705743 
15.733207 17.674797 5.169411 
-24.460571 -4.917172 1.684392 
26.398897 3.613900 10.339500 
26.558069 0.930815 10.145605 
-20.580620 -8.676117 8.941267 
-15.766660 -1.223171 14.294930 
-23.002209 -9.221546 7.925933 
-22.845421 -0.663373 10.510937 
7.202433 33.279984 7.226963 
-12.602551 18.166275 5.625911 
15.264803 11.356303 4.719821 
18.528908 21.103977 11.901088 
8.764734 20.982767 15.398479 
-5.096945 29.341427 9.389250 
-13.042209 10.208372 0.417000 
-0.259795 29.067204 -1.725948 
22.652334 8.059977 12.156486 
-17.577330 -1.656378 3.714743 
16.640398 11.157202 4.960086 
-21.966904 19.696741 8.266146 
-18.083019 18.663170 8.338858 
15.263594 21.626133 7.842243 
-20.842466 -1.682855 10.265029 
-13.337338 10.274408 4.869039 
-6.550538 28.347649 -2.419126 
19.859119 -2.220748 7.027494 
-14.439269 12.304360 5.427858 
-10.426261 30.326286 5.327607 
18.144117 -4.056491 11.157956 
-19.018986 17.934011 8.320363 
-22.088562 9.356593 -4.059748 
17.329462 20.118618 1.170385 
27.647238 -9.169716 14.348226 
-19.971769 7.844830 6.915376 
-15.761952 16.101196 4.202797 
-10.952255 21.487415 2.546197 
-19.288342 8.388866 4.962481 
0.243572 28.831337 9.551036 
19.147022 21.654392 10.392302 
15.500902 28.280592 11.371300 
27.676395 -5.910884 3.211481 
4.605776 20.961533 -3.037496 
25.473913 -8.611908 12.749293 
-14.102399 9.320913 11.923439 
8.150586 21.585209 15.397284 
19.590563 19.402851 13.263655 
-7.406441 30.860834 5.310177 
-3.823424 23.502407 -0.310401 
-22.664577 -1.184708 2.468653 
-22.913164 11.704528 15.306298 
-6.301210 31.302702 8.364495 
13.268392 19.432478 8.244779 
-11.937570 21.712263 1.243677 
14.519260 16.737843 5.023657 
18.803795 14.205953 11.630137 
19.839766 -3.652494 0.947138 
-12.888546 21.257719 8.246072 
1.877351 32.760567 11.631693 
-11.217581 28.188332 12.096994 
-17.577698 16.418188 10.332865 
0.346165 26.071495 -0.830032 
-23.392178 9.709727 12.175920 
-19.852997 7.889023 9.550447 
17.052088 22.699432 0.763650 
16.848036 21.761787 9.342575 
-22.744091 18.334551 10.377328 
14.640935 11.521137 0.024311 
-9.538851 23.497387 1.020733 
-0.584462 27.876474 -0.814461 
3.337235 34.584347 8.097246 
22.040424 17.457785 12.102537 
-13.788557 5.857837 13.170609 
-15.639454 26.128370 15.336745 
26.387819 1.474680 -2.497332 
16.495899 18.788631 3.393026 
15.775651 7.776276 7.849522 
13.160477 19.370207 9.491141 
8.047606 34.370163 8.608193 
23.520741 8.143625 11.932425 
-24.416239 0.959154 7.447340 
-21.687494 -1.474294 9.363757 
-19.467808 -9.852123 13.447670 
6.448918 34.865738 4.877224 
-11.573562 25.915983 -4.668439 
-1.542755 27.199564 0.199672 
-15.545446 25.569483 13.335360 
-0.219698 24.718563 -0.263306 
8.639261 28.811562 8.150228 
-24.069881 6.177079 10.443007 
2.884685 32.275517 14.397662 
0.803035 27.850422 -5.495014 
18.475660 17.646334 2.748550 
-1.623440 28.335581 2.289058 
21.630341 13.983598 -3.798580 
-12.411016 26.478312 8.443452 
-25.625765 -2.607437 13.595162 
-12.694506 20.265202 4.450947 
12.249168 23.776421 1.707423 
-24.256065 1.143947 6.557922 
-24.566244 3.380364 2.156221 
-13.782952 27.084059 5.900619 
11.839252 30.137747 12.807949 
-18.743019 17.609158 -4.812364 
-26.786180 -4.568231 -1.455437 
18.007050 -0.945477 11.551664 
11.257294 23.760365 1.153654 
21.434072 0.059459 10.019017 
14.164608 13.518415 9.338674 
25.999716 -7.640998 14.146694 
-15.947979 6.111133 9.012641 
-16.759363 -5.682248 4.803229 
19.695148 -7.123753 6.443331 
24.649084 -8.769117 -1.523708 
-20.307959 -2.776741 12.835915 
-13.850579 25.013084 -3.375177 
23.408228 -4.028718 7.370768 
28.428911 0.708769 15.436048 
17.490910 1.262801 12.386423 
-22.596321 12.244996 11.260098 
26.663216 -2.190235 7.960927 
15.686016 15.412006 -1.092271 
1.048714 26.626621 2.883245 
25.711849 1.824214 2.647549 
-2.203788 23.165085 1.866778 
-16.643206 -4.813554 13.351768 
4.052004 29.193157 -2.324903 
13.304248 18.533003 11.666493 
-18.445072 10.491004 6.286749 
-9.286243 26.615379 -1.053595 
-20.935452 11.897688 -0.365186 
19.978203 13.846868 1.595181 
21.255810 -5.774236 0.965971 
-6.354202 21.622459 1.299100 
18.953634 -2.331172 1.369646 
14.353971 4.884272 -0.819950 
-0.025393 29.944515 8.882174 
1.673481 25.951702 3.535594 
-17.767879 17.878803 5.290267 
-23.747332 0.001221 10.298806 
-2.881976 23.311480 2.229035 
11.893601 17.537569 10.612812 
-19.131588 -2.153409 3.059830 
-6.334857 24.841776 -0.094390 
13.890306 10.633506 2.108780 
11.615730 26.891434 6.477313 
23.464539 -5.342467 10.471227 
-14.348039 16.535053 4.357157 
-7.587534 25.515013 0.913404 
-25.825356 -3.417791 5.919384 
3.108272 32.041946 5.266179 
-7.931145 24.003885 -1.258146 
-17.926846 -2.544206 9.120775 
-24.681841 3.583410 0.765013 
6.916645 28.291252 -3.965065 
20.651150 -8.637181 4.202264 
-15.874333 2.580265 5.811672 
6.703806 28.863556 5.655848 
22.640842 1.798849 10.455070 
2.826929 21.506056 -3.404253 
17.409660 14.969646 12.377962 
-17.322601 14.938163 4.772176 
-12.107221 17.310757 0.373091 
-12.102863 10.586069 2.590080 
24.093348 -0.075628 9.507330 
-13.323275 15.138360 2.739905 
-19.954258 5.725298 6.953848 
17.439793 6.767495 8.274706 
-21.562988 4.874705 6.411410 
18.340282 -3.104910 10.598326 
26.944166 -3.453779 6.274821 
-25.237333 -9.921956 3.264474 
-19.641306 -8.042953 7.326911 
15.487706 2.305820 3.860788 
-15.701115 -3.210299 0.696811 
-15.929922 13.238692 11.972433 
-19.366043 7.675370 5.803719 
-12.607685 27.928303 5.749254 
-11.567528 16.456039 13.167476 
-16.828672 17.644709 6.283790 
-20.174084 -3.814061 3.856258 
14.505153 11.364484 0.932072 
-14.553893 8.679095 11.875905 
-27.396301 -3.269321 13.028302 
-13.173438 10.701478 -0.347235 
-26.705202 -7.073584 4.522052 
-11.223054 29.808102 8.135302 
25.699335 -2.457142 13.943064 
-2.169550 28.537622 5.652721 
11.223955 18.572020 -1.351059 
19.980335 19.666946 5.127673 
-3.728008 24.490927 2.052308 
-23.353821 9.074231 11.208167 
18.301519 14.494662 10.686674 
-27.182777 -4.189359 1.769680 
15.389935 28.582327 8.456778 
-23.784311 2.488480 2.349525 
-18.068922 9.182752 6.772562 
21.111507 7.732906 6.937973 
9.781906 22.134979 1.678873 
25.737995 4.900561 9.651018 
2.573998 21.903357 -1.940980 
-10.968683 29.584967 10.473037 
-20.182568 6.967414 -0.300897 
-21.339241 -0.539161 1.987150 
17.148548 8.807039 -0.824382 
11.395652 23.658909 2.293627 
-11.642611 25.512886 6.690699 
24.210176 -2.087079 13.582678 
16.539267 22.050629 11.315790 
15.369087 8.535290 0.522348 
-12.443748 20.049063 -0.937854 
-14.518911 17.986511 5.104619 
-17.470457 21.126724 4.334137 
-12.527201 8.118526 -2.698951 
-15.807405 1.464233 6.767253 
23.089066 2.675559 3.398879 
24.365051 -6.197456 5.635434 
25.914158 0.707362 9.553189 
26.151402 -9.825500 13.282492 
17.920801 19.944454 0.159513 
-3.588088 29.566710 13.256465 
-24.502037 -10.162908 -2.189824 
12.934619 17.978901 10.890847 
13.221507 23.139631 8.162280 
-24.824419 -6.304493 9.012752 
18.254730 12.962434 5.277567 
-18.636721 19.265686 1.472186 
-27.169086 -7.161685 13.219558 
-23.124424 1.185961 1.145017 
26.076748 2.473820 -2.600143 
-8.511530 23.034456 3.722685 
19.672590 8.282953 9.913128 
-0.274420 29.221966 -1.009056 
12.819124 28.798349 7.312991 
25.201963 5.588379 -0.770631 
11.548285 25.745077 8.572214 
12.168336 21.122845 9.518861 
-22.529142 8.542045 9.399686 
20.323639 -7.532246 9.635022 
-25.804995 -4.193149 14.227404 
-14.816765 2.351791 14.459989 
-14.922092 2.016041 -0.630428 
18.563093 10.673497 6.658603 
-23.276999 4.404593 12.840187 
-20.623844 14.253651 10.365764 
-14.491991 1.883410 2.897171 
11.524812 18.961063 4.881050 
-19.655422 15.775783 -1.450051 
14.495970 28.769587 8.333269 
-9.223621 19.048958 15.348653 
24.392744 1.370456 10.028890 
15.440363 8.309446 6.546805 
13.639530 19.673903 10.230176 
-6.415101 19.533298 -2.522434 
5.448252 26.058516 0.249883 
17.279663 25.616764 15.424872 
-19.021709 9.667933 2.760594 
16.255337 24.431910 5.235593 
23.948694 8.780849 0.665765 
10.007296 19.805700 14.288012 
17.281572 19.547079 4.470070 
-0.478776 31.502192 12.993401 
-14.639390 24.809496 13.387075 
-19.088903 15.088345 1.418554 
14.113578 9.533729 15.404219 
-7.309011 28.429165 -0.381789 
-16.476549 -1.676946 10.895051 
6.286247 30.948769 11.017991 
2.339148 26.374929 0.305719 
14.646286 11.530622 5.645598 
13.829436 24.297499 4.699344 
-18.200901 18.080399 2.304921 
3.578415 26.551254 5.151410 
-25.661341 -1.577691 -3.048526 
-14.218653 16.282955 0.230661 
-10.868240 16.502460 15.342308 
-0.226145 30.695797 6.126410 
-3.802709 24.332617 3.283616 
-18.770897 22.394484 10.361386 
-16.931973 9.230360 4.459036 
19.587631 -2.728345 10.310171 
16.027784 4.604544 8.375342 
24.406328 -10.121338 11.672448 
21.549879 -9.075871 5.430439 
4.555405 29.618704 0.135289 
-18.628597 22.655985 8.788109 
-10.385208 25.216312 9.011285 
17.274935 20.354895 5.601406 
-15.959812 -0.451574 7.740057 
-11.527827 10.847093 -1.675607 
-25.275980 4.126390 13.224519 
-0.894621 31.017551 5.696129 
-19.341450 14.087902 9.369996 
-16.437204 10.590305 6.724403 
7.770315 22.312696 0.412035 
-13.870660 8.166811 2.422276 
11.244072 19.320435 -1.505601 
10.623648 20.006556 2.618954 
4.288212 27.973715 7.960602 
-5.564142 26.687239 11.424189 
12.836953 12.849122 14.131147 
20.936882 -1.469230 10.749914 
5.951954 22.459867 2.100805 
-20.470112 0.263778 -0.212670 
-10.070864 27.612732 -0.166599 
-22.775291 1.389453 6.279041 
11.654020 18.053722 3.679180 
-4.169487 31.890955 13.218997 
15.121058 3.682700 12.008370 
19.856483 22.411474 11.104099 
-11.776161 21.719149 8.283311 
-9.318570 23.315571 4.761261 
-18.484043 23.394566 11.196156 
-21.279242 11.276198 11.163284 
-19.575994 13.173884 0.479487 
-12.725458 9.498190 9.419907 
23.137732 -9.473883 1.459973 
15.906842 8.603592 9.614708 
6.749457 29.281254 2.092337 
-16.880817 10.729607 7.415673 
-24.231241 4.494819 12.449784 
-3.461623 20.677757 -4.863035 
-16.668921 22.791138 5.071891 
-19.076271 -5.499984 12.965028 
-21.531649 -11.277569 6.072345 
13.901588 7.131322 3.020036 
-0.009441 26.552244 10.735271 
15.825764 1.873780 13.154556 
-10.350235 30.027544 11.213195 
-20.016327 -1.523956 12.342301 
-27.263563 -5.502707 1.367970 
-20.612730 -11.073342 1.161821 
-21.640070 6.034242 0.110324 
-21.452576 -9.441574 9.671809 
12.187407 12.157510 -2.774208 
-16.947897 -5.673990 13.468809 
20.862543 -1.848940 3.914547 
28.966852 -2.562972 9.277164 
-18.360895 -3.284650 6.107272 
25.587570 -8.629819 1.665753 
-16.603157 6.146426 7.421146 
-19.291117 6.433746 -0.811143 
-20.795904 -3.877140 0.814806 
-16.654005 16.462999 3.163327 
-20.058504 -0.865412 0.561541 
6.227723 29.972527 8.167276 
-21.710224 -0.351347 2.860003 
-16.395473 17.041061 1.949767 
-15.100117 22.735518 4.358816 
-12.756742 25.410988 2.385102 
-14.455887 1.579092 10.269894 
16.826712 8.171535 11.464340 
-10.997945 27.259943 -1.273458 
13.653532 19.615068 1.946075 
19.370159 9.216406 8.956810 
-16.861303 -7.316098 1.248546 
29.631094 -3.469798 14.513131 
-0.844083 29.381416 -0.027527 
-8.595114 24.090624 -1.588650 
-16.871346 21.663649 4.547849 
18.627337 -0.609796 3.697677 
-26.522532 -4.742861 -2.752981 
20.113777 -5.598288 12.355186 
12.490628 14.126056 14.108692 
10.445766 27.580196 7.028492 
17.401699 -0.492099 11.575352 
21.570597 12.282785 11.089361 
-0.349654 29.147142 2.345868 
1.555876 31.940300 5.406131 
-12.493189 9.929857 2.069937 
-23.782398 3.779049 1.432720 
-22.763395 7.037933 1.382368 
-3.657771 27.767151 -1.329325 
27.765018 -5.777923 -0.256027 
6.426242 24.901012 4.477268 
-12.247576 27.292217 9.966397 
26.709341 -5.880139 6.277067 
2.913215 33.568123 13.696454 
10.382496 16.320152 -0.683775 
-27.350870 -3.985562 13.390775 
-14.609252 5.141395 4.969236 
5.642048 26.417004 10.816983 
1.024116 30.843143 7.640092 
-11.802937 19.523979 9.950016 
-8.524542 31.120226 9.810240 
4.689102 22.822580 1.650942 
-21.346312 -9.154880 13.597171 
-14.581911 3.239119 14.375842 
-19.071310 11.230926 2.243147 
15.490119 28.440046 7.630725 
18.427084 -6.619768 2.156428 
-15.301773 3.468356 6.521530 
22.270725 -1.277678 12.295656 
14.881815 20.294420 8.921486 
11.819618 31.012186 8.334752 
16.933504 20.845140 6.221519 
-8.685951 16.459051 -4.535670 
-16.059557 -1.234845 3.273459 
1.704482 28.706205 7.339167 
15.765767 9.371140 11.950313 
3.292149 33.820049 12.876671 
11.758294 15.525612 1.568300 
-21.913742 -4.679110 8.327633 
-15.650368 17.007225 9.658547 
-12.968894 6.609185 -0.532104 
5.683016 28.204224 11.205749 
-19.455988 -10.458394 0.657281 
-20.122957 21.201950 10.933906 
23.954771 5.676578 1.143128 
-18.993017 15.388866 13.804305 
19.263351 -3.266956 1.147929 
16.435507 16.860369 6.939649 
-13.600815 14.376404 4.610354 
6.525165 30.951878 8.570112 
17.087854 23.564152 13.000875 
-17.372375 12.150668 6.589256 
20.937166 17.057180 5.730541 
-15.212388 25.636173 4.358244 
11.283292 18.759890 3.817331 
1.530551 33.130344 14.262612 
25.107084 -3.441445 11.150898 
26.436136 -4.951551 2.394330 
16.174141 -0.372125 0.590160 
-10.523608 15.590241 -0.229658 
-25.898443 -9.963771 14.309663 
-15.265306 -1.282415 1.568628 
-16.701300 17.589653 13.888052 
-12.247900 8.993154 -2.860579 
-20.634750 -10.472095 5.269891 
-22.376116 12.851386 10.693398 
-8.447674 24.310282 9.458111 
-6.549089 27.935043 7.850995 
-20.339308 13.652016 9.444014 
10.273108 30.485071 5.180156 
17.320488 2.770342 6.149631 
-13.115703 11.669584 8.023487 
4.162270 28.891376 0.336584 
-16.827604 7.158508 8.194626 
-11.904488 22.333628 5.418720 
-2.335265 27.394197 6.209329 
11.086802 30.363663 13.385734 
18.302572 22.996645 6.463024 
-21.574018 -8.749459 1.264423 
-25.081610 -10.500278 15.283706 
-17.441084 22.123144 -0.922522 
-16.013365 14.477030 12.146266 
-6.233523 31.717133 5.366944 
-7.164868 25.028563 3.043286 
-20.945820 -5.339299 0.591271 
-13.123556 12.345854 4.648889 
-0.551911 29.400309 7.990710 
15.829446 27.860291 13.402002 
6.350465 28.778009 -2.838954 
-19.106121 2.874248 -1.280788 
-18.816990 16.325556 14.148951 
19.662806 -6.171270 6.556292 
19.208780 10.732327 4.197265 
-5.053732 28.206949 -3.665046 
-9.978756 26.788944 5.512158 
10.301085 17.108419 0.641291 
20.354191 3.602825 7.341002 
20.825615 14.072426 7.988434 
-7.676871 27.862211 6.480862 
-25.502129 -0.146608 2.013810 
26.728966 0.906111 0.999126 
18.358244 1.234159 3.516552 
27.147472 -5.387391 5.297519 
13.526334 14.328308 1.074986 
-22.846941 -11.049817 11.916330 
-24.446596 -2.041398 6.422333 
-7.726614 26.100611 2.596524 
18.037237 5.003263 5.142800 
-8.983212 25.669588 -1.391729 
-2.040934 26.296057 1.655746 
0.271899 28.680214 -3.267690 
11.281122 15.063214 -0.150020 
-5.077121 27.654882 0.918004 
-15.814787 -3.278829 -1.449303 
7.097226 23.734257 3.889855 
-8.968135 23.411110 -1.689595 
10.671127 21.222733 0.785187 
15.132378 10.967432 12.039202 
-12.930518 11.599333 -0.401777 
8.068169 28.037563 -3.965444 
18.151617 8.001470 7.542858 
23.230635 1.320087 7.138560 
-18.358805 18.430927 0.883776 
-21.952778 -10.396960 4.650959 
-19.212719 7.353363 8.552582 
-15.069026 16.388502 7.572956 
15.290584 28.489126 10.686489 
15.515653 15.007119 8.293400 
15.597147 2.050557 2.738200 
-16.438921 9.580796 5.387185 
17.774427 23.861975 5.075337 
11.424860 22.963938 1.641892 
8.218997 18.082026 -4.418430 
-3.291295 32.819092 5.297319 
-15.361663 17.382166 5.368795 
-9.640347 15.541833 -3.242064 
7.756146 26.096659 9.832427 
5.716962 29.431374 2.032660 
-10.124945 24.532724 10.266361 
20.603701 7.889446 7.477864 
16.353146 8.291382 6.430082 
-14.927209 13.244789 10.511825 
16.347561 21.271645 6.850488 
19.693892 23.068274 13.134645 
16.830317 14.722597 10.196552 
20.113041 -0.578256 12.270982 
5.623923 29.666073 6.520880 
-10.441890 21.994169 3.986703 
8.123015 34.671043 7.933774 
21.745834 -7.995041 8.969534 
-4.691734 32.532753 4.628327 
0.665109 25.479937 12.977242 
15.838279 10.836721 4.121472 
-22.370604 2.097908 6.520365 
-8.972007 31.304415 5.063721 
-15.721025 17.997185 6.113313 
-24.850529 3.594170 11.570743 
-21.167757 11.693733 -4.273325 
-9.381565 22.803848 9.894679 
19.213820 4.071101 6.245458 
12.496382 12.732332 1.348182 
17.309086 21.357292 -3.649253 
27.182529 -7.816628 13.136998 
-22.774982 17.763821 8.534111 
27.178074 3.583647 15.434854 
-5.292002 29.159441 12.263677 
9.646477 28.376858 2.315468 
-11.847093 9.945701 -2.195691 
11.637527 21.994499 5.005496 
-14.248664 12.789860 10.371026 
-13.746317 10.285579 11.902976 
22.376104 4.022511 3.481324 
-24.629467 5.738886 15.297180 
22.234274 -0.537422 7.843207 
0.145766 29.331909 11.660630 
-16.320164 10.719553 9.755818 
16.721588 -0.364201 -2.475272 
21.235880 16.993143 6.529019 
-17.911430 -4.626523 9.869040 
0.809114 33.414268 13.416654 
17.615374 10.593579 5.486054 
-24.837280 0.471428 10.395208 
-5.476332 24.759958 10.745188 
-17.234564 8.706713 5.263400 
9.828502 28.454536 8.090270 
14.117124 8.604726 10.988894 
-26.956661 -8.091453 11.522193 
-23.070145 7.197052 9.534650 
14.705009 22.376759 -1.865232 
23.084587 3.648387 5.206318 
-19.675991 -3.424918 10.092201 
-10.297166 27.499582 6.754265 
-4.189773 23.665915 14.121419 
25.732340 1.693943 7.770217 
19.250959 21.073730 11.684768 
22.167860 2.156940 6.142010 
18.863297 24.663090 6.940561 
-16.481876 7.325615 5.952823 
18.454805 11.609451 9.501770 
-19.933979 -0.376731 -0.138936 
23.223925 0.957745 2.448399 
-7.401107 22.613997 2.318111 
10.765157 14.905011 -4.066097 
15.634691 7.870951 2.103624 
28.572226 -7.366290 10.523440 
26.548267 5.345388 12.871000 
-6.908808 29.798897 11.053551 
6.323279 35.139507 9.468534 
5.773787 29.347223 -1.049337 
-23.513676 6.505739 -1.707453 
-26.918041 -4.651066 4.734392 
4.535015 30.422806 14.182459 
-7.413917 21.971872 1.195136 
-9.074572 27.424042 -3.088388 
-18.132067 9.797938 12.715007 
2.711656 32.713615 12.421244 
15.349352 3.598610 4.545348 
-12.887429 28.222832 15.345726 
25.495661 3.580574 6.494377 
14.218352 12.267963 -0.544261 
18.932934 20.606714 10.597342 
-26.125793 -9.871072 15.281373 
17.318701 2.041559 12.513078 
-18.804773 22.364323 7.639692 
-18.723267 22.873659 14.674088 
27.853985 -6.717994 14.179673 
-25.347057 -6.498985 14.607197 
16.477781 27.469112 13.381334 
20.764330 9.961714 4.902497 
-18.694817 -9.619421 5.034218 
22.882088 8.629700 9.501025 
21.156334 2.483773 7.254175 
-15.930117 -0.180804 11.944063 
22.096960 6.983934 12.776902 
-18.800838 14.032225 11.191489 
17.881273 20.775999 -0.972495 
-0.206695 33.397976 9.416461 
3.179247 25.605450 12.725322 
-15.189558 14.913498 12.488926 
-20.842075 14.616426 11.617024 
21.215769 -3.724666 0.656545 
-16.910603 16.680279 2.363227 
7.606049 35.241676 7.762541 
-3.617890 25.995146 10.388597 
-15.708308 3.335987 5.878239 
16.221184 24.309162 13.372306 
16.724430 1.260307 15.404993 
