0.822680 29.547956 4.582784 
14.538321 13.555477 -4.880294 
30.345322 -10.320684 -1.230846 
-27.701094 -1.537757 -0.058860 
23.596889 10.588601 5.035466 
-10.052335 24.762192 -11.159033 
7.894331 19.242804 -4.431849 
-19.153399 12.534698 2.344699 
25.072561 -6.376160 3.295672 
-8.667395 26.964808 -2.775675 
-17.683271 -5.007298 -1.849397 
13.114935 16.117168 -2.628613 
22.451513 -8.035156 2.787357 
-27.990984 -0.820031 4.193909 
27.197905 -0.047429 8.166362 
15.844429 11.846382 9.328904 
-2.371058 31.558416 3.854883 
-6.889605 28.685143 1.320409 
-28.826235 -0.543266 10.744456 
-18.873417 18.024960 -1.100849 
-11.395126 26.240723 3.869218 
16.550968 9.779411 -0.018852 
-25.458567 -5.155786 3.493432 
-20.994862 14.868472 4.022829 
-4.782150 24.919445 11.681086 
-20.598625 -2.724880 2.063053 
-20.155857 9.719016 3.014359 
-18.783468 15.732042 2.290807 
-18.476126 17.530205 7.702381 
-14.155062 18.763802 1.221814 
28.584244 -1.066489 4.892869 
-20.114044 10.224465 9.815989 
16.853939 -3.763190 -5.440898 
12.589706 25.522087 3.828794 
23.775059 3.560621 1.478843 
22.998865 6.438054 -0.206622 
-21.776318 1.843192 -1.481708 
14.916817 24.575779 -3.997450 
-8.070871 25.699705 10.179473 
22.590359 -12.197912 8.690812 
13.023170 22.275427 10.697741 
-23.450132 -10.070721 5.488607 
19.557501 -10.487643 8.440981 
-9.336893 16.559826 11.190115 
13.863190 17.738844 7.181314 
8.757318 18.377522 9.970573 
-25.497866 4.224239 -9.452203 
7.705412 21.575251 -2.069558 
-15.240754 4.936143 1.244372 
-3.818009 28.782875 12.034374 
24.009106 -9.958425 1.332996 
1.605256 28.505781 10.927620 
12.393830 11.401443 13.672768 
28.663015 -1.712457 4.395708 
-3.074384 29.684137 1.185038 
15.259697 19.682846 -2.294797 
23.466225 -6.032055 3.269876 
14.415659 4.880392 -5.046594 
-12.950732 24.529577 -7.175807 
-21.043697 -1.534626 -4.653915 
8.272028 26.606611 -3.426135 
-7.921046 23.105721 -3.128404 
20.546730 3.727544 0.728480 
-10.672341 18.994246 -0.334216 
-11.885517 18.525785 6.688786 
12.384027 17.722040 -0.022310 
17.530157 -1.292923 1.955945 
26.120070 -0.059996 -3.067920 
-19.370680 17.305267 -1.136733 
-20.081863 9.815553 -1.270200 
14.718428 23.226124 7.053936 
16.642126 20.870129 15.060741 
10.721980 21.163687 -1.204111 
17.020603 -0.904056 8.003166 
11.769593 22.673355 2.301553 
-11.700577 17.816183 -1.798409 
-3.331133 27.558805 -9.915174 
14.142293 5.893379 -6.254995 
-24.936184 -5.415390 -2.964204 
1.906586 29.249289 10.311024 
16.771965 -2.159449 11.078520 
-16.947819 -4.942809 -6.453743 
-20.598766 14.658790 -7.209252 
3.816512 25.743170 -0.362075 
17.819344 -2.825127 -4.351661 
-26.903154 -2.450321 10.648751 
13.747056 21.168848 -1.690813 
20.359909 16.607258 -0.662819 
22.484505 5.359009 -2.416192 
-22.803514 2.064686 6.447753 
-0.735256 21.241085 -9.329598 
-18.291531 5.354728 9.489509 
28.181309 0.020512 -3.668093 
1.903335 21.283859 11.950010 
22.024162 -7.425924 0.149404 
24.311420 -1.627400 -4.170990 
29.023722 -3.320659 9.060805 
7.041983 23.378155 8.057425 
-14.454993 6.854129 -1.956882 
8.490986 23.191055 -1.435686 
18.067324 18.535666 -10.621378 
16.285378 1.178908 14.860069 
20.418314 -0.985871 7.180070 
18.206253 2.997743 -0.931831 
-13.185195 8.084270 9.868850 
28.548859 -10.810048 2.808179 
19.116793 13.739724 8.720800 
-18.552999 20.595022 10.229133 
-16.805645 12.958354 4.372264 
-14.850994 1.525283 -6.014047 
-9.061760 24.060127 5.588439 
-25.322922 0.888696 9.807255 
24.065481 -6.131559 -3.435726 
4.373337 28.658531 -7.455688 
15.199978 2.788271 -4.271295 
19.771536 16.859922 16.113291 
-13.012660 7.274927 -5.491004 
-2.367007 22.882042 8.191796 
-0.283815 25.251024 11.137101 
11.578028 12.257617 -6.029992 
-11.318378 18.954432 -1.085269 
17.043846 10.761621 10.031702 
-4.532064 26.655062 -1.472249 
28.037941 -10.292593 7.540399 
1.406205 29.114532 -1.809536 
21.532120 -9.700011 0.427225 
22.059362 -0.888076 1.968180 
-18.342428 16.375463 4.736703 
-21.117720 13.269266 -4.233401 
23.225565 9.589422 3.344698 
-22.161503 -8.334058 -1.070210 
-23.064583 -3.965536 -4.043983 
8.317041 25.390114 8.743355 
13.139944 23.660370 -11.052677 
-19.004068 6.247253 6.107316 
-11.393536 20.022646 6.718709 
-21.045980 -9.414409 10.788736 
18.782425 16.188700 -2.355867 
-10.044503 19.995340 9.489036 
-22.200035 -0.106379 3.031452 
15.351763 4.997702 -1.160886 
-11.712846 24.716730 8.867406 
-18.828520 8.048991 5.003520 
12.366978 21.553341 11.666984 
21.543261 1.259526 -4.288474 
28.710386 -1.064569 5.830872 
17.813969 17.215700 4.100591 
14.275079 6.076548 -3.904295 
-18.045841 11.375292 2.052739 
-21.521215 15.976112 11.890049 
19.854347 1.779103 -1.122335 
-6.464328 20.599953 8.015929 
-2.330924 27.567526 6.433691 
24.690735 0.495810 4.599462 
3.981061 29.673477 0.342482 
14.536098 10.473838 -1.580542 
25.434587 0.406748 4.263486 
11.857553 12.578272 -3.148951 
4.577013 29.239038 11.570603 
11.906456 24.528158 -11.125957 
19.763342 19.038593 10.808336 
20.168234 1.554044 8.875196 
-20.361736 -8.840711 5.142920 
11.872553 11.559069 -7.026809 
-21.451162 15.798651 13.058519 
20.937208 -12.668725 -6.433268 
8.930703 19.600674 8.246536 
12.949528 13.398100 8.760499 
12.195514 18.235912 8.932594 
17.619425 6.542418 6.424067 
-22.726227 2.288865 7.781677 
15.042811 12.811385 5.343509 
-12.347249 24.497797 7.892206 
-13.708620 13.229707 4.823571 
-15.604873 6.205365 2.485731 
9.654216 19.485155 -2.603273 
28.480227 -8.472364 3.144317 
8.066640 26.832712 -9.963470 
-2.860535 29.732029 2.174559 
-19.607651 -8.252556 9.942232 
18.786608 15.691584 -4.670900 
-28.346766 -7.776199 7.391063 
-23.646847 -3.446415 -3.996013 
14.786463 10.246307 9.242174 
5.069589 25.782291 -1.696386 
-11.392553 15.383767 8.736670 
0.382120 21.084328 -10.845253 
12.126805 11.754945 -3.724075 
-19.959364 11.298661 0.994030 
-11.207995 11.871501 -5.658413 
27.979687 -8.994371 -2.026886 
-12.777206 8.798610 10.245887 
10.204563 14.652213 -10.301682 
12.195371 21.169861 -1.603241 
-25.272457 6.197088 12.456649 
22.841360 2.446944 9.389740 
-14.552594 2.568914 -6.292207 
-16.671560 1.606995 -0.787600 
18.258921 20.094322 2.306779 
8.012413 24.035208 5.898448 
11.436107 13.211260 -3.666019 
-0.816900 26.710184 -5.367259 
16.084991 18.951477 1.307967 
-1.088829 29.315516 -5.480637 
24.152710 2.555545 9.161990 
-1.681650 22.687109 -3.437474 
23.467705 -8.292735 0.322835 
4.947752 26.870676 1.444226 
29.476021 -5.484114 -2.086945 
15.766371 22.285128 4.626173 
15.383024 22.796591 1.304919 
19.768322 -11.208141 -4.876040 
-28.911877 -5.096823 8.884454 
-3.796313 22.304462 -3.162126 
14.996311 16.740076 -0.848715 
16.518629 0.327996 14.793949 
9.609352 27.353827 -6.703202 
14.296917 6.350867 10.530054 
4.920696 23.195023 -1.970171 
15.775600 15.680550 6.641510 
27.450521 -8.995648 8.120742 
-3.621623 29.095747 -3.828016 
0.868487 25.590414 -3.319230 
-17.487875 8.362779 8.916072 
27.001308 -9.904564 5.511657 
16.668957 0.742893 1.213737 
1.976853 22.247311 9.956910 
24.586027 -4.236026 4.563874 
14.770247 13.680910 1.066539 
-12.780910 24.503193 9.924882 
24.625202 5.946115 -3.501377 
22.910378 -4.170550 -4.370198 
-9.174463 23.508827 0.261034 
-12.542580 21.015121 -2.176809 
-17.635677 19.659786 -2.955769 
18.993971 18.495577 15.046419 
-20.499159 5.864681 6.412755 
-3.045684 27.738829 15.973408 
26.872755 -5.618465 0.733442 
-27.253078 -2.673189 0.904809 
23.435188 12.040666 7.459906 
23.683205 -1.157288 2.810720 
-15.160820 3.060733 7.284690 
10.790439 27.033661 0.966765 
28.478355 -3.595400 4.425282 
7.323169 27.045019 14.730925 
-18.839741 17.290878 6.526610 
3.591072 31.041513 6.655736 
19.401098 11.062025 7.850915 
22.083469 8.643751 -3.949027 
-1.950979 29.233509 4.825778 
-6.885133 27.851034 9.376966 
-19.211329 10.174382 3.279324 
-20.552055 15.455170 -3.629980 
-21.395517 14.191750 9.614263 
-12.949629 8.829618 8.581315 
7.015712 25.109402 11.648862 
22.090799 3.416009 2.308380 
-24.734324 -6.053699 1.504715 
8.518850 25.944088 15.512941 
15.171613 4.186710 13.151454 
-24.063684 8.760159 15.278445 
-12.548461 16.534031 -2.309767 
-7.304519 27.838177 -5.500030 
-29.777567 -4.964335 8.823826 
9.584949 22.176670 -1.054618 
1.253756 28.998091 3.768240 
-13.711807 21.407921 3.477542 
19.859388 9.921185 7.606411 
-6.667101 19.345524 9.654888 
-13.455748 24.141632 10.090286 
-2.242242 31.472878 4.626765 
13.181346 18.738575 10.278410 
-5.068570 27.051863 -2.938505 
-26.982435 -3.720595 -0.695165 
14.333302 22.039627 -4.098043 
-18.309752 5.081513 -3.706730 
12.409682 16.702765 -0.189527 
22.091589 14.888525 9.074060 
26.261600 -2.863339 3.275487 
22.059149 6.477286 -4.005615 
-16.502102 5.858628 5.417503 
-13.644823 19.218372 -3.323759 
23.642859 -0.137148 3.126518 
26.407360 -9.576414 4.843828 
8.058161 26.443016 6.935673 
5.862038 29.566927 11.017031 
10.444695 27.506878 4.550898 
28.523907 -0.894537 7.457005 
11.584538 21.691544 11.907972 
24.734455 5.539199 2.543527 
13.978162 20.210545 10.598296 
-20.123247 12.152962 10.167993 
28.770378 -8.799175 -1.448639 
7.407908 31.729053 3.777964 
-25.714533 4.769541 -6.075309 
-21.854462 9.963020 -0.834907 
-14.368190 15.025291 -4.967081 
12.817204 15.655991 -1.806421 
-25.856894 -5.454822 -0.077435 
-19.180403 -0.765988 4.925654 
17.831463 16.581505 7.618279 
15.367404 21.894455 15.037924 
15.054526 21.035353 -1.388917 
22.071043 13.769986 6.044809 
21.987717 12.482841 2.061062 
21.484833 12.812373 -10.140985 
-2.911466 29.174471 -4.805353 
16.884539 0.745148 2.001431 
-6.531311 26.644482 4.700740 
0.330474 26.262999 7.032924 
17.072094 -3.854757 -6.407065 
-16.774315 11.154267 3.630900 
-15.536984 9.498668 1.619868 
19.052519 -3.254709 3.931427 
-3.489496 28.757290 -6.518282 
-11.509776 12.155916 -2.721337 
13.281435 18.116066 -0.670381 
-15.861601 21.479383 -9.255578 
-23.299791 8.266932 -6.982008 
16.784666 22.332090 -4.582455 
17.700520 -7.512059 9.535851 
24.279184 10.798602 10.134518 
7.726675 25.611252 0.489140 
-14.355992 20.651726 10.985877 
28.117758 -0.127847 8.170165 
-18.907410 15.221928 3.241018 
10.271067 27.187176 -3.451664 
26.213190 -10.145367 0.830661 
-1.361395 24.036654 -1.943832 
1.973205 29.982586 9.476768 
16.604628 18.254999 8.604411 
-17.806520 -2.724250 6.566359 
-20.512529 9.616020 9.293236 
25.631901 3.712806 -9.377988 
4.053501 25.169533 7.312868 
-15.025175 5.865850 -2.489174 
11.353957 24.579266 2.853229 
9.863031 23.323067 0.067769 
14.071076 10.304957 -2.158207 
-12.278943 25.552273 3.896883 
-18.623159 6.779717 -4.291609 
-3.793209 27.303263 -3.868833 
-21.346712 10.033840 3.046573 
18.407019 0.258960 -3.934066 
-7.790068 29.616549 5.498445 
18.909779 -1.101239 -4.604859 
25.967087 -10.284896 0.076653 
-27.989735 -3.454903 4.116063 
29.489779 -5.412045 -6.513949 
17.112091 -4.869426 -4.745903 
19.449268 16.847181 9.081082 
-28.029650 -0.337644 12.460482 
26.548389 -5.371832 1.722887 
-16.307089 -0.151306 12.942811 
-5.827262 31.654015 3.167664 
15.675869 22.516886 7.538839 
10.114531 27.616201 0.987906 
27.397705 0.373907 -1.515213 
29.432955 -4.449990 9.124091 
-14.822156 3.147161 -2.338638 
13.486023 21.730734 -4.337631 
-24.636005 -6.022696 4.328154 
22.680412 -11.654588 -1.756394 
-21.964277 -7.920031 8.671841 
14.736009 23.100260 3.306698 
-16.308825 18.897028 10.924096 
29.113613 -3.738865 14.529146 
3.716829 28.482271 12.618342 
15.086951 7.910030 8.453019 
-21.678085 11.356337 -1.880933 
-3.622642 24.797150 -2.559655 
21.592653 -10.306592 7.162805 
23.373217 8.269010 -1.728545 
24.187946 -2.275580 10.096181 
-15.250952 11.670501 -1.600396 
10.208665 25.375383 -2.099118 
-25.614054 2.779495 0.716746 
23.499231 12.428429 9.285013 
-17.049643 21.752405 13.229675 
5.536273 26.338388 -1.134902 
-16.921659 -2.605187 1.758249 
22.947626 12.126398 8.887341 
21.312235 9.026977 3.224000 
23.751364 0.066782 9.178698 
-22.373594 -5.633370 0.882873 
-23.512972 10.852352 8.425340 
-14.444806 22.799427 1.241863 
-17.536131 11.425709 -1.088414 
-23.700407 -3.620923 3.325894 
20.636543 -0.601387 5.463795 
-19.004532 14.666122 -3.355837 
-19.942587 0.630918 7.624024 
-10.493322 20.308664 8.920946 
-14.979275 23.141029 13.600789 
-2.589532 21.635788 -5.816749 
28.341881 -9.468412 -1.492827 
16.563469 0.437115 0.341040 
13.228203 19.762423 -0.883980 
-12.638308 23.421518 4.417814 
17.214540 21.930746 6.924643 
-22.948685 5.220528 9.157863 
-23.563311 11.805340 9.836959 
-26.927286 0.799354 14.637341 
29.264864 -10.226358 2.399864 
-22.128017 10.801684 -6.997686 
-12.283457 16.508217 -0.993503 
15.249434 15.838414 2.409710 
-8.000060 24.916376 -5.410403 
-18.247461 7.311621 6.972219 
7.407378 28.367374 3.217544 
-5.705363 24.669384 10.981666 
25.207226 -10.708947 -2.141974 
-25.251938 -8.245596 7.478460 
26.703272 1.516773 6.921493 
-14.841071 12.008704 6.741930 
21.844986 15.438078 11.669612 
-0.082622 28.635084 -8.142699 
10.561324 24.642717 0.247496 
-21.016445 4.813808 2.156263 
-3.589849 29.825922 3.903368 
-25.486044 0.494588 7.972414 
-26.031242 -7.506500 9.258624 
20.301445 2.892092 -0.990259 
-0.789592 27.242397 -2.186579 
28.438120 -1.577469 8.480571 
25.696526 2.942612 3.130592 
-21.835596 8.760755 -2.838688 
18.513916 14.845826 7.437026 
14.036066 18.897766 1.570369 
21.641277 -8.008561 2.397638 
-8.948331 22.690674 -0.105044 
-16.610603 2.301954 3.000088 
20.641224 16.403847 7.420670 
-17.126711 22.416765 6.593828 
-12.435957 9.352783 -4.823607 
-15.240242 -0.633158 -5.877396 
-17.721815 6.145976 3.584469 
-8.626620 20.581430 -4.225820 
-10.684968 22.766222 8.501637 
-19.345995 7.448808 8.225028 
29.032078 -8.278113 -0.613059 
28.576454 -1.084156 -4.036345 
3.113408 31.304399 2.949326 
-12.641991 24.902708 3.791261 
-8.074734 24.577015 -0.089702 
-0.468973 27.754299 4.933800 
-26.911140 -5.529020 -6.276714 
-6.808847 27.365219 4.668542 
-3.006378 28.798647 3.749553 
28.967321 -9.094131 8.432988 
-25.251177 4.477038 -2.713880 
9.423339 26.860685 9.670725 
3.649983 28.060045 2.640233 
21.163200 -11.528307 10.465004 
7.486143 17.670179 14.645408 
-0.378739 31.152777 6.091883 
3.763835 25.007242 8.330415 
-15.640283 -0.755312 -9.029997 
1.034933 30.344673 6.753734 
-5.868342 26.536583 -5.474579 
-18.373512 16.963537 7.222809 
-17.315086 14.737578 9.792883 
17.205883 -3.239089 14.515472 
19.484446 -10.441385 7.497885 
24.688948 -14.309129 -1.925673 
-21.463999 3.588714 4.200897 
24.746517 -1.657252 10.003623 
17.448967 0.168576 -2.289566 
-19.758142 7.199720 2.560351 
1.503991 24.765476 9.314775 
19.939823 11.131973 -1.507947 
-5.067648 31.566076 5.571901 
-22.289705 4.619664 2.278908 
-15.511639 19.539957 8.635620 
21.869879 1.007918 8.775978 
28.935024 -7.921248 4.504770 
-0.250156 29.034012 13.771113 
17.081320 14.223779 3.328337 
-12.536361 21.129366 2.618892 
7.912789 23.999025 10.816396 
-21.770569 -8.551291 6.577490 
29.467939 -6.228436 14.334230 
4.116902 27.224136 6.706490 
22.880285 -3.239875 10.009620 
0.255744 30.837172 5.753339 
-17.900126 0.286323 -4.322591 
-25.250170 2.057684 1.523975 
-4.286458 30.949858 7.220669 
13.951805 7.013241 12.187974 
-22.515850 0.755259 -4.286956 
13.926042 24.814240 8.263411 
6.601617 29.854151 10.487606 
18.630577 -2.031823 -4.579616 
0.774522 29.114056 5.871989 
-22.140463 9.619893 3.609117 
17.615940 10.968658 -0.412096 
-27.265703 1.831406 -6.327680 
-9.789476 25.809284 -1.980869 
-6.021817 23.636587 -2.182185 
27.634747 -9.301377 6.571070 
14.734646 18.009705 1.784903 
-14.265345 6.995944 1.823779 
-12.137552 25.729397 4.653536 
16.144787 8.809430 9.601814 
19.583923 6.439884 1.523224 
19.087179 -7.433974 -0.334257 
-14.925542 1.867655 -3.619650 
8.793439 16.655495 14.135615 
0.339517 25.994921 8.704805 
-16.501280 -2.395376 -1.940674 
-6.791345 25.303459 8.061728 
-26.614792 -3.103207 2.016010 
-17.979567 20.003128 15.011372 
24.607075 -0.238577 4.085255 
-1.642891 26.526905 0.178302 
-29.549450 -2.841165 8.206963 
26.670271 2.947548 15.045991 
-13.934068 21.039413 8.749396 
-12.961417 23.824293 5.526561 
5.509933 20.964474 -4.906880 
-17.158894 13.681785 -1.181618 
9.286306 23.580200 -1.676257 
2.561974 29.069098 -6.823197 
20.116407 2.599781 2.699701 
27.763334 -8.555619 8.659628 
-5.404680 28.119625 2.144589 
-17.035074 10.081430 3.567509 
2.823062 26.079050 6.763044 
-23.879972 3.097917 5.188389 
16.972057 -2.786486 -7.482853 
-19.656998 -6.529428 2.777775 
5.498906 29.202173 -3.610140 
14.796893 8.010082 4.045258 
19.301159 16.181705 8.749977 
-3.898254 28.581511 5.741264 
-15.718372 10.638165 2.855190 
23.806622 4.090208 2.621565 
-25.353045 -1.232210 4.509017 
-19.634861 15.805809 0.143853 
3.045397 25.583515 -0.650639 
18.000486 -1.842673 1.741407 
-22.879747 11.837674 4.819690 
16.253431 18.102953 2.790278 
-28.195820 -0.315940 -4.496894 
14.387435 21.901922 16.487228 
25.620626 -7.843075 2.111789 
25.665993 4.388185 8.607010 
-16.609116 -3.315552 0.346779 
-5.534389 19.619761 -7.225617 
-9.513507 26.748640 12.332621 
8.099974 30.123148 9.079149 
-15.467344 14.042953 -1.208001 
-16.954062 22.450211 8.583857 
28.667543 -0.117750 11.030909 
-16.209564 10.099733 2.075177 
-15.052915 0.663151 -4.636213 
-19.331770 0.261458 6.774728 
10.329844 21.488749 11.801791 
-12.264310 25.003950 13.034898 
21.929113 -2.432438 1.678007 
19.272245 7.542333 9.414114 
28.365654 -9.015985 3.702924 
-24.451468 8.465939 9.666213 
-28.376245 0.690356 8.224673 
16.446684 20.324423 -0.929184 
11.527308 22.276327 6.380807 
-15.907906 1.668947 4.900355 
-6.691552 26.423077 10.598594 
-10.595873 20.684965 0.207216 
5.511803 30.525238 3.083443 
-9.515945 20.841011 -1.556269 
13.005527 14.527218 -3.968169 
9.013509 16.972466 12.526435 
7.250197 22.973166 7.315391 
-23.708555 5.215078 3.699671 
-15.609769 9.415498 -2.770310 
18.045904 3.857380 -1.095300 
-2.262745 24.914404 7.305847 
15.761588 13.272896 1.058668 
-16.851543 5.939189 7.386630 
-17.506329 18.354546 1.036389 
7.727941 20.547384 8.941734 
1.283298 30.023016 8.574013 
-3.366276 24.447880 -1.361101 
13.306934 8.520330 -6.376384 
-27.108278 -2.999103 -2.355065 
-14.901039 11.295333 0.230802 
-21.186209 8.799077 6.337671 
14.959106 24.145882 -1.006244 
-19.695381 2.743697 -3.377889 
2.608714 29.769089 0.358968 
-13.416795 7.044844 -2.660744 
15.959440 8.400998 0.401040 
-23.351791 -1.847012 -1.038621 
15.333456 12.237973 7.592708 
29.097683 -9.035275 10.145443 
-17.863184 1.648124 6.732312 
-5.466372 19.326124 -8.828845 
22.229076 3.461306 3.731300 
-24.191177 9.125451 9.443142 
23.531696 0.455120 6.466114 
8.087320 28.838524 5.007064 
-29.531286 -2.604991 5.915392 
22.770933 7.698624 5.680829 
15.702624 22.742870 11.610101 
1.457322 30.201372 3.255251 
4.755828 21.238434 -5.153401 
-1.263456 27.317976 16.844887 
18.299849 -7.189893 6.109901 
-22.302433 -5.409018 2.625767 
18.993448 12.345303 1.751680 
-9.790913 25.155680 3.980392 
16.230404 0.339220 -2.920351 
27.510569 2.642040 10.362565 
-27.249502 -0.058387 14.568204 
19.802761 10.151971 2.160722 
20.146347 6.578226 -1.735449 
23.615398 9.442605 -6.154898 
12.768927 13.544694 -0.142509 
-20.324554 8.396886 4.889638 
18.509691 16.452387 4.433384 
19.807707 -3.121890 8.671423 
29.012754 -4.133387 4.713898 
26.815815 2.773639 7.912138 
19.072962 3.176448 0.411862 
18.463030 20.732634 7.387410 
9.985544 27.310200 -1.032157 
-7.942824 27.328690 -6.469988 
8.380635 27.113716 4.693193 
13.674588 15.864603 -4.628567 
19.461864 5.012509 8.749618 
-20.552872 17.502003 11.706476 
19.219820 13.063797 -2.535588 
21.648527 -3.107233 1.517704 
21.629274 14.147784 -7.176188 
3.769538 31.254475 5.966997 
-13.534290 5.881786 -5.174190 
20.181519 18.262337 11.729831 
-19.979504 8.771775 8.039931 
-6.298338 31.767673 3.789821 
25.666273 -11.847916 6.568539 
16.740459 10.805447 2.994683 
9.751468 17.105909 -3.402940 
-26.899307 1.403875 -0.726733 
-22.561068 -8.890241 5.208246 
-9.830462 24.661409 11.392983 
22.847689 11.249470 -4.586103 
13.208955 13.984386 -4.540481 
-27.297094 1.612819 8.185108 
-11.957034 21.743465 -2.463772 
17.390369 1.326507 6.292531 
24.145317 -12.033440 5.737461 
12.774711 21.543764 3.224611 
-10.310717 26.349413 2.621799 
-20.037823 5.888775 2.050132 
28.762592 -2.943458 -6.998188 
-15.772952 19.421719 3.524497 
17.350529 4.831300 -4.565088 
10.949265 21.004217 6.876206 
22.250040 -11.692795 0.359833 
-9.131413 20.030451 -0.794346 
-5.392870 19.337221 11.848746 
-17.257914 3.816383 6.780932 
15.471441 19.655951 -1.230903 
-16.218897 16.083437 3.754472 
-17.842793 20.750599 9.937892 
7.779934 23.243713 -4.508776 
14.690300 21.078825 4.899106 
-27.195652 1.350753 11.926966 
5.558876 26.728113 -2.929743 
15.781840 15.274942 2.709876 
-2.228625 27.875536 2.208665 
10.125341 20.970211 8.123975 
-16.116955 19.397516 -1.303671 
-6.682343 24.093176 11.245561 
29.472580 -4.767806 13.570549 
17.674963 -6.662156 12.782117 
20.013739 17.521315 -1.347882 
-23.937315 -6.077852 10.048545 
-13.820172 10.312764 -0.761758 
-17.768330 17.194384 4.403247 
11.379618 23.296782 1.955099 
18.302271 -7.601244 -3.140771 
21.038881 -7.560660 2.795599 
-23.823822 -0.344623 10.076442 
-15.773521 -0.383588 2.082856 
-2.475777 30.326433 3.103251 
16.274059 8.650856 6.778893 
-16.725681 5.215225 3.713693 
29.851341 -9.593482 1.806618 
18.878542 -4.035229 3.613400 
29.557392 -7.636400 12.940323 
-14.275665 19.512182 -0.798298 
-1.827252 24.579042 11.383451 
23.525320 -6.893642 3.465637 
-4.096637 31.397022 5.715798 
17.378620 17.786741 11.077245 
18.121000 11.024806 10.206410 
-26.483778 3.406413 -3.915359 
-27.087910 -5.159026 0.771691 
18.115694 18.827904 16.261232 
17.610167 -2.261082 -3.834660 
20.435085 -6.350182 6.221227 
22.231251 5.413147 0.865804 
-17.651495 -5.786746 0.520211 
15.701476 20.958349 16.418613 
-15.632620 23.027163 11.887959 
15.426021 7.049267 -2.771429 
-10.119934 13.836379 -10.246013 
-21.731787 14.758041 14.406520 
-17.830681 10.371896 4.284265 
24.495096 -9.584956 3.820179 
9.333013 26.386063 -9.914697 
-2.496265 29.797890 9.909258 
-18.891558 -6.880085 1.299783 
-19.583460 14.943350 9.769069 
17.041451 -1.018466 -2.128121 
26.796034 -9.671804 7.056200 
17.153709 2.317519 4.591139 
-9.968168 21.729431 5.563643 
-19.052692 8.852870 3.570539 
-22.723236 10.144392 6.554595 
-24.777512 2.676368 4.982038 
-21.917833 7.006265 -0.063033 
13.948599 17.346384 -2.676364 
16.422390 8.094088 9.460381 
4.081879 21.441460 10.226040 
-19.988251 16.831217 15.933657 
18.595745 19.399426 -2.401687 
-0.439934 25.815460 11.665614 
11.274380 26.395197 2.276424 
6.211884 25.613035 -1.957923 
-16.797457 5.001321 -3.786784 
-14.785056 19.453215 4.604027 
-18.794353 8.301953 3.084350 
15.180923 4.419229 10.047904 
18.855715 17.960922 -3.928629 
8.497417 27.638237 11.844946 
1.623984 29.658985 0.006034 
21.277132 -13.044351 -0.908878 
16.030725 1.569905 9.059047 
-12.867647 15.856188 7.483903 
21.995550 13.586337 4.729219 
18.412291 17.806889 10.866007 
-7.113950 24.343460 -2.400282 
18.421856 11.132794 4.069535 
-14.417109 22.826414 -2.546645 
-21.996496 -5.808536 9.623110 
-12.019076 14.619046 -0.463128 
28.467131 -2.126472 -7.250121 
14.984450 24.349592 -5.332255 
-14.655411 9.070104 8.632066 
19.019913 -3.467169 1.322461 
-22.764643 -8.233074 3.293880 
14.099265 12.108473 0.515786 
10.360373 27.099518 -6.252847 
10.266788 24.164558 0.805562 
0.661107 21.649616 -7.211504 
-21.861954 -9.600354 5.219902 
23.261618 7.713866 -0.703672 
-22.756014 9.155678 -7.264984 
9.025252 15.999468 15.997437 
25.683598 -1.093915 9.889241 
-2.199486 29.421928 11.014127 
-29.429562 -5.391062 6.688356 
22.598207 4.068763 -1.494915 
12.739735 10.690621 15.594993 
-25.143595 5.961664 15.052749 
19.795183 3.425165 0.711362 
-11.918001 19.513662 0.744729 
-17.834385 -2.757306 1.530284 
15.541658 14.387576 7.011612 
-15.629256 -0.388422 0.428498 
-18.246458 15.582428 3.211240 
-25.847805 -4.897600 -1.979072 
7.172305 22.609068 10.042943 
9.509953 22.143436 -3.290452 
-27.404152 -7.184923 7.958376 
-27.444830 -1.620277 0.821111 
20.686991 -8.154117 0.948258 
-13.085273 17.329966 1.155411 
-22.710552 11.312330 3.892358 
14.040537 17.980509 -0.983404 
-15.838124 18.864386 -2.737264 
17.294359 1.682344 5.160300 
25.530931 6.139980 5.670399 
4.223515 29.307783 12.329467 
29.937166 -12.207779 -5.776455 
22.597836 9.866930 -1.625898 
20.879744 5.919591 2.185111 
-24.725649 -6.191002 -0.813354 
-3.557859 21.203983 -6.038504 
15.964573 7.482404 8.751531 
-25.111055 5.413810 -7.706134 
-14.675968 18.338602 -3.002761 
-21.783745 -5.017884 9.754530 
16.107431 -0.454858 -6.010364 
14.629074 20.531940 10.783060 
-7.618536 20.758022 9.956222 
-27.237225 2.374564 -4.209368 
27.916622 -3.002621 0.102052 
4.511587 22.419687 8.615214 
13.364065 13.642994 7.970821 
-19.535507 -7.136737 -0.048436 
15.417101 23.463831 -2.001961 
-4.703197 27.040657 0.644322 
-15.804276 15.153231 8.485517 
-12.287340 17.204830 9.493618 
-20.901520 11.146095 -0.143689 
3.063738 29.271357 -3.944098 
18.620567 6.506170 6.384392 
-5.532792 31.844557 4.549571 
19.913773 -11.004807 -0.383359 
-29.170706 -7.362744 12.342035 
-19.462849 -5.831339 4.470365 
-7.249424 27.278034 -7.843732 
-13.285706 19.299576 5.879079 
-29.253429 -5.945046 6.124926 
18.519108 -8.696699 5.819419 
0.565733 28.556566 14.705015 
-14.053221 11.437121 9.402247 
-20.230968 13.762525 1.639155 
28.870024 -1.553386 13.440449 
6.831406 19.766640 -5.492321 
-5.594518 28.143051 14.004188 
25.295753 -9.681695 -2.936523 
17.161896 -4.532101 -1.833972 
-17.924805 12.387338 -0.332632 
12.718627 25.625023 8.185857 
-14.112238 20.180546 -1.360748 
18.489916 -6.380310 -1.850776 
18.684977 4.650356 5.648594 
-0.121969 29.665182 -3.553905 
21.225407 10.270099 2.327411 
8.878962 29.378681 8.316140 
24.167406 -8.016344 -0.310077 
-10.894217 16.770641 8.238290 
8.582128 27.762247 9.577701 
-12.796981 24.161022 15.091076 
21.021372 11.747411 10.050684 
27.046593 -11.204690 7.912805 
24.856255 6.295042 7.865053 
-14.545756 12.622096 -0.624868 
-23.425152 -6.589640 -0.674908 
16.244558 -0.849838 -3.286609 
21.671146 -13.631963 -6.155474 
22.288780 8.504382 1.145356 
20.501499 -6.589170 8.990057 
-21.579695 -1.162309 2.219845 
14.539845 11.882618 6.396130 
-22.788872 13.212182 6.821961 
23.467688 12.206269 12.565650 
-14.449491 18.747036 7.848239 
14.706118 24.212982 -0.048650 
-22.757696 0.471881 6.761232 
16.947641 3.952878 0.845689 
23.645706 8.738992 6.166170 
-10.905518 20.853148 10.396914 
17.516510 7.974988 3.233639 
17.900238 18.669222 0.610411 
-25.462782 5.607173 9.280955 
-9.245698 26.700163 8.821415 
-6.581124 23.433661 -1.131311 
17.323790 -2.828155 -8.836479 
19.450514 -1.079370 5.727357 
18.294353 -3.063974 7.001102 
2.884577 28.026550 -3.497971 
-4.744312 25.558460 12.157440 
-6.159664 23.752485 10.821663 
22.457674 11.561158 -8.292116 
19.769205 13.167302 1.128467 
18.196062 -1.133513 6.450227 
-6.797027 29.243961 4.521149 
19.716614 15.170326 5.070130 
-17.681273 21.065041 13.362508 
-9.819609 25.827192 9.879317 
11.707233 19.313532 7.220519 
17.055609 0.518315 -1.220305 
17.632931 20.332172 -2.630921 
10.719995 25.065382 1.972976 
-28.869095 -2.401178 13.574004 
24.334972 6.311560 -9.595963 
14.193012 17.745375 -2.037244 
11.510075 23.346012 6.031095 
-5.042909 29.292124 10.907724 
17.643034 11.503983 1.636737 
-23.207958 4.246173 -1.648319 
23.014919 6.316097 -2.246240 
-21.074804 12.961469 -8.374675 
11.468614 26.471140 -2.715729 
29.122803 -2.540233 7.369501 
-13.399770 23.060898 7.098171 
18.044638 -4.988304 -8.655517 
14.561769 21.483755 9.152007 
21.581806 15.581262 8.649971 
22.973886 7.222957 7.084330 
20.369986 3.526260 -1.942612 
15.808346 18.142265 5.005924 
-15.537081 14.882792 -5.086630 
-22.124413 -8.218189 -4.156694 
-6.511188 28.452402 -0.539974 
17.941103 7.346941 -5.053920 
10.177842 26.004974 13.519658 
-25.937954 -0.603406 4.019939 
24.422018 9.228448 13.891980 
-8.962406 25.840706 -9.810987 
7.669721 22.591343 -2.969034 
17.247608 21.839518 7.887001 
-18.463877 11.109599 4.064672 
-4.733043 21.044210 -4.875520 
28.303076 -10.165640 10.729929 
-19.977386 1.007073 -1.752835 
-12.088202 16.002287 0.494743 
-18.086548 1.796582 -1.070419 
21.613914 -1.396864 1.466832 
-15.707843 4.360631 -1.102997 
-18.521027 3.841568 0.718442 
24.056759 -4.180361 10.346840 
-28.145626 -1.930161 -6.023674 
18.469528 1.340311 8.089915 
22.900293 11.720551 15.721608 
-25.712538 -7.500963 6.164023 
13.743029 17.644348 0.840564 
-18.727413 7.923297 6.387049 
12.807005 16.293381 0.510729 
25.619772 6.592782 12.670804 
6.713975 25.099598 -2.372755 
25.419613 -0.896498 2.996552 
-8.694748 22.082289 -4.323269 
23.218794 10.524673 -3.982598 
-29.707712 -3.622489 6.528742 
16.387774 0.756428 7.935619 
17.657562 -7.453171 8.669451 
-13.732409 19.822721 2.383784 
23.171177 0.422259 4.155816 
14.141376 20.397423 -1.153959 
1.466694 26.561729 11.848371 
-7.405629 22.205427 7.817022 
13.164502 13.004986 -1.711130 
16.109385 19.468420 3.811134 
18.042793 13.525455 3.361107 
-20.398626 15.243784 -2.474747 
2.453017 26.692207 8.764243 
19.032389 14.377923 3.014579 
-9.986469 23.564806 -4.236485 
26.292509 5.352342 11.165220 
25.400204 4.820861 2.640448 
21.860149 7.450727 5.519355 
-10.399602 25.805367 2.124107 
-16.552931 0.229318 -1.894840 
16.012011 8.849399 -2.407104 
18.795692 5.313093 8.257253 
-1.409641 28.341099 10.860842 
-18.335409 -4.771031 5.915131 
-19.370745 12.949377 10.272068 
5.977579 27.880074 14.513760 
26.274866 -7.696774 -1.276437 
15.362426 15.760930 -1.247084 
10.895374 21.943514 6.761191 
15.496546 1.716592 -4.924758 
-0.361049 31.526983 4.146049 
-21.254646 13.149559 1.759416 
14.935141 11.716583 0.742635 
-18.701040 1.824064 2.241038 
-4.345253 19.337557 14.286266 
7.612449 27.580893 5.809325 
13.405705 11.342042 -1.538442 
-25.430803 3.529146 -0.179485 
5.454949 25.965651 -0.007578 
29.939981 -7.007838 -4.927645 
-9.998342 20.074833 -1.557163 
-9.176651 18.440342 -3.307477 
13.682593 16.230108 9.852757 
16.304260 21.472120 -9.284116 
-2.134694 28.343861 15.068596 
24.925068 -6.861752 -2.744143 
-6.175364 27.836876 -7.205565 
14.004811 19.263384 -3.334947 
-19.389893 -1.535604 -4.623698 
17.540287 19.399174 16.303755 
-9.304010 23.618864 8.735981 
-22.731895 9.577283 -3.521808 
-12.546420 20.426615 1.877094 
21.069000 16.854578 10.675498 
-10.010093 26.361820 8.262532 
-19.486393 -3.841829 3.549880 
-18.369682 11.383968 10.341969 
-15.236093 4.113300 6.938179 
12.431042 20.352379 9.755535 
-17.746855 20.386129 10.653110 
-14.473517 5.781611 9.028336 
-6.190678 27.244585 -4.266368 
16.442453 6.704357 6.024979 
-7.583202 24.482622 11.688004 
-24.604397 -6.630640 3.524049 
11.735002 26.504612 -5.326343 
22.275980 -9.120739 -0.166751 
-20.108776 18.269489 10.694243 
-18.919947 7.711759 4.092331 
21.747387 5.863194 2.088719 
24.111893 7.765999 -2.957892 
-19.654692 0.185505 2.357913 
8.008783 18.422325 -5.819451 
-29.242256 -7.286367 13.988825 
-8.305141 24.256527 -4.454832 
-23.814234 -7.570480 3.715664 
15.712918 22.040232 -9.458609 
-10.687750 24.926237 1.784319 
-18.427483 13.824594 -3.492549 
-17.845984 6.352677 8.889284 
-12.798862 21.458431 10.316335 
27.457731 -1.055396 0.250573 
12.622805 21.183525 6.224603 
-3.934353 23.028265 7.852931 
21.922604 -13.680964 -7.926689 
-16.415176 -2.787893 -0.424487 
17.673241 3.672213 3.232648 
29.812778 -12.593620 -8.012700 
-10.363570 23.833801 1.817138 
-17.485653 19.641430 -8.990768 
-9.351832 26.793211 -1.909459 
14.851025 22.164495 -10.926617 
-22.437233 10.959344 7.731377 
16.878178 6.907161 4.520584 
12.781179 22.016064 4.286901 
-9.468087 27.002760 10.347550 
13.132610 13.635853 -3.196079 
2.839948 28.028469 -5.549449 
13.378519 25.522997 -3.785879 
-26.496326 -1.548558 -2.874503 
-12.261887 12.579470 -0.807161 
-13.891240 13.010378 3.799544 
18.770493 -7.779144 5.307186 
-20.538458 -9.355498 7.467604 
-17.813782 8.316219 4.571939 
25.351789 5.121898 -5.053747 
-18.625906 11.871893 0.412998 
24.199812 -12.212821 7.453267 
-8.700843 27.804159 0.505348 
20.173115 14.281149 0.803790 
-21.259125 -0.360352 6.523781 
-1.487545 27.323153 12.775943 
-8.600013 20.862720 10.573114 
19.541283 -8.964132 4.348466 
25.796173 -10.068828 7.109417 
3.547644 27.243685 10.300543 
-2.886241 28.974094 -6.074755 
-8.075102 24.600843 5.717768 
-15.018678 23.611668 7.218594 
27.751112 -5.469271 0.393935 
-17.212740 7.978778 7.211607 
-27.356783 1.777520 3.974376 
16.262323 22.985825 -5.095922 
-25.096310 -8.109086 8.315928 
-18.249027 20.084524 7.347244 
22.169353 11.234038 -10.008662 
-16.781397 -0.417550 -2.742312 
4.683160 26.530170 -3.895588 
-21.094866 5.689321 -0.917267 
15.549707 20.117481 1.093470 
-20.385893 14.410958 -2.357469 
26.091089 -8.046823 2.696188 
15.602547 23.786531 -3.636976 
-7.151028 29.021461 8.872548 
-15.894755 21.432407 16.315081 
-25.121754 -4.064590 -3.297688 
0.640053 29.367645 12.858468 
-18.413721 11.711021 1.104265 
18.939585 -8.950139 -6.461532 
8.618378 30.939445 6.052321 
13.701622 25.400423 7.595253 
26.657528 -11.049412 5.784597 
22.846088 -6.867645 3.151958 
15.910417 7.257052 7.856855 
-21.135994 5.440897 0.139640 
19.135174 10.879617 10.266164 
13.214123 21.947321 -2.073704 
1.324963 27.173101 16.844999 
-12.394791 19.426237 7.245898 
18.627066 20.107525 3.084407 
-3.237031 22.797386 -2.853782 
21.478956 3.558448 1.895104 
-13.327479 17.707859 6.108864 
19.660423 -11.136449 -1.638534 
20.175686 16.920959 6.539877 
-26.517380 -8.549180 5.646914 
-0.647596 27.545527 2.288064 
18.437519 -7.374143 -6.830345 
19.293781 12.983638 2.042351 
3.037761 30.466522 8.442300 
-14.736541 21.436398 -2.408769 
-13.725578 6.144599 -3.046802 
-23.337049 8.425220 -5.818754 
14.152333 5.947873 -5.365749 
15.572064 22.259027 13.760899 
-20.223587 11.423323 0.297739 
-19.019455 -7.431981 -2.820166 
19.819757 -1.891540 1.559233 
18.995779 -5.563440 2.677279 
19.653357 5.848358 8.456620 
3.084172 24.579340 11.402264 
10.598954 26.644707 -0.658120 
-3.653965 23.050804 -2.269404 
20.601469 6.239067 8.630380 
20.193127 7.280438 5.535852 
-27.991058 -0.557351 -6.536492 
-22.442879 12.458675 8.797169 
-7.598948 27.406425 6.727844 
-11.751931 23.785154 9.774961 
-3.833519 22.804770 8.570476 
-19.102127 -0.405054 -4.574723 
-3.022413 24.267891 -2.294302 
-16.631865 -0.096889 14.612531 
-22.478676 -2.563216 10.176971 
16.268513 14.007109 8.777451 
-11.898344 18.518694 9.826070 
1.218126 21.010187 -10.838543 
13.169374 10.690227 8.045861 
27.060785 -8.067652 7.188388 
16.215378 0.453981 11.894939 
9.063139 19.762180 8.970346 
8.329319 27.573484 3.337292 
18.735415 9.179671 10.065567 
14.385639 5.794231 -9.558852 
-12.058742 24.832689 9.595797 
13.795650 16.368881 1.757716 
29.229473 -13.560293 -7.932276 
21.055164 -0.331479 6.063833 
4.303385 27.733082 -9.907102 
-18.071032 -5.860179 -0.256106 
-14.967822 5.452944 -1.870639 
26.059713 1.830980 5.678580 
-17.939484 5.667395 -0.897476 
-13.860710 13.374418 6.527360 
-8.427287 23.575893 11.882960 
-5.471622 23.341097 7.958560 
5.395738 23.741884 -3.930050 
-4.629513 26.927025 -0.560267 
17.630486 13.628950 6.193895 
12.340710 23.393284 9.943331 
-23.394136 -9.375397 4.630638 
17.565880 2.023942 3.637917 
27.573421 -0.569042 8.635984 
-15.958450 -0.162641 9.305497 
12.294353 11.834041 -2.922730 
13.711590 22.347782 16.519403 
13.508261 25.955189 6.286563 
28.370277 -0.283216 5.905180 
20.905521 -7.906387 5.701153 
4.988091 29.142212 -5.004579 
17.852438 10.865652 0.381364 
23.880823 -4.698385 3.172848 
15.514766 9.615344 9.527322 
-19.431057 14.802653 7.646911 
7.102388 28.502792 -5.963352 
-20.069593 14.436534 2.403298 
24.830196 -5.427674 7.867857 
19.613089 15.596183 5.828426 
-19.135843 1.198856 2.226319 
15.757030 20.873083 -2.682422 
-3.512476 31.215954 6.267533 
-29.298710 -4.734961 8.282874 
25.894526 -10.034095 5.217616 
18.940878 0.462781 2.208416 
-13.554242 10.814320 8.110357 
26.609896 -9.741934 3.799046 
-18.059114 -3.690989 7.599863 
-1.246426 28.481627 11.949728 
19.550280 -5.697585 -4.076194 
29.285145 -6.490003 -0.486294 
18.945572 -5.694127 3.996105 
-9.214472 21.337185 6.355555 
-1.160331 29.620428 0.751978 
-16.975269 4.696994 3.157357 
-1.162340 25.166460 -5.031331 
-15.364666 5.603298 2.078680 
14.407275 11.114889 3.380053 
-15.237919 9.923552 -1.303718 
16.076710 1.932052 14.918584 
-9.500355 23.565439 -3.209437 
23.393530 -5.597574 -3.851837 
26.775234 -3.122806 2.590377 
20.936390 -2.546942 2.241941 
8.746355 25.416182 4.955849 
21.296057 -13.235816 -1.958305 
-16.337337 19.181479 -1.998011 
-15.050789 5.438937 7.593100 
17.621000 18.908197 2.945769 
-24.405447 7.078253 7.296238 
-24.971066 -7.517079 -3.677261 
-11.906537 21.257109 1.944113 
15.246341 13.997141 6.253724 
29.337465 -8.356542 0.607859 
29.100039 -2.438687 6.503619 
18.871714 15.906872 2.838893 
7.926801 27.726545 -4.089500 
14.003568 18.715683 5.595038 
27.438845 -9.702131 4.156319 
12.388164 25.358023 9.295074 
7.939556 23.991663 -5.148420 
-18.293488 19.397873 9.135127 
-18.220139 13.175828 10.303412 
11.688165 26.583115 -4.300494 
-28.377310 -0.086270 4.342721 
-13.452710 15.044512 2.395431 
14.171274 24.146584 -8.134394 
16.207890 16.126488 10.593271 
-29.927742 -4.807879 11.099030 
16.360012 7.310523 1.513371 
-8.770020 24.715176 5.315660 
-12.209164 24.184505 8.642493 
8.412122 25.615330 0.837502 
2.841462 28.928768 5.041942 
-27.991848 -2.074634 -0.738260 
-2.751852 25.143448 -1.906721 
-6.472586 28.172319 -3.609763 
17.324768 -4.141904 14.444745 
20.237059 15.402427 0.637259 
22.853722 -5.161960 -4.124833 
7.688876 22.223976 7.281267 
4.727487 30.287638 9.177634 
15.307848 17.445045 2.084297 
-21.410093 16.201334 9.952001 
21.442493 3.758949 4.068567 
-1.829980 29.463537 12.220283 
-1.359612 21.000330 12.469109 
18.373976 -5.214158 4.597547 
12.298233 25.598795 -7.816830 
-15.737741 0.782271 11.814529 
29.966333 -7.989397 -6.601313 
27.280119 -6.307998 10.245401 
19.564083 19.096931 5.909400 
18.509966 -7.113548 0.205050 
-8.553051 22.529470 -0.757668 
24.661041 -3.627549 -3.923099 
2.349864 30.215717 3.314105 
14.553902 17.219961 10.716779 
-6.604475 22.518078 10.764400 
22.919069 -5.057704 2.202739 
-25.692837 -2.629971 3.485884 
-26.624826 1.659843 14.706606 
8.752688 27.651350 -3.612337 
-19.109564 7.114914 8.941294 
23.212698 1.954991 -3.745743 
22.023117 11.763633 1.766009 
-26.202450 3.593876 13.319881 
-3.159481 21.055752 10.642658 
15.635658 9.533751 -1.089822 
2.080592 27.220934 -2.768272 
-24.659163 -3.966220 4.559793 
13.583538 11.535861 7.777843 
16.836771 12.304749 3.814205 
18.151701 5.557730 -4.909467 
-16.948057 19.011576 0.075730 
19.243145 18.718885 13.987319 
9.717471 27.187918 6.888867 
14.285243 9.832341 8.020272 
16.869904 19.883991 9.575643 
21.787811 2.691041 9.501201 
21.892326 10.279754 -0.259659 
21.958151 1.004421 6.152801 
26.370058 2.963700 5.582132 
-5.560350 23.538876 9.021171 
-15.818123 -0.650440 -0.347541 
-16.741226 21.241957 15.127467 
-5.120471 31.353813 2.906309 
18.535967 -0.175445 -1.577992 
5.065552 22.896618 8.818429 
-22.396130 4.372161 -1.393488 
17.490667 15.450005 10.096731 
9.596948 25.347794 1.894323 
29.186071 -5.627700 -8.595222 
5.074032 24.107626 -2.579293 
-0.988653 29.457630 -3.487460 
5.808806 20.601583 10.513932 
-26.712330 2.021993 8.891526 
-11.288065 19.073898 0.164700 
19.840702 15.691648 1.210030 
29.780344 -8.326440 1.558734 
15.973158 5.152141 -3.150542 
17.478037 -5.031186 14.375239 
9.903128 25.576342 -11.214787 
-14.498097 8.623278 6.338356 
-11.683785 11.003174 -10.010207 
-10.329387 17.064762 8.666218 
28.984596 -8.991660 2.354838 
-22.645773 8.954019 -8.487849 
-17.727333 12.731970 -2.487674 
-21.318159 10.216853 9.043189 
-13.508765 7.481983 13.476287 
16.262743 -1.726245 -2.564305 
20.478603 -12.524327 -1.503849 
26.861221 -4.060791 -2.593336 
-2.847779 29.246397 11.337924 
17.878304 4.406158 7.978935 
8.217399 22.607315 6.909118 
26.046793 4.975526 7.404447 
-15.603383 9.808544 -2.121558 
-18.767080 17.489449 -9.203141 
-22.477081 8.707456 -9.825001 
22.756357 -0.081025 -1.266825 
17.818924 -5.373080 -1.856773 
-10.048450 15.828138 -2.665639 
28.836206 -1.580133 6.697691 
-22.544142 14.447633 10.712307 
-5.939728 26.932518 -2.941180 
12.898779 25.304594 -0.721130 
-18.976881 19.698198 12.618486 
0.299112 30.830078 2.818984 
-17.152596 2.702857 1.604613 
-20.014360 -3.881720 3.027589 
1.888168 25.344286 -2.071583 
-1.405559 29.790966 2.616192 
-22.321753 -2.893799 7.090727 
8.715602 26.447737 14.402428 
-15.725087 7.374595 6.117988 
2.647999 27.476992 6.065260 
23.705687 11.394942 13.275577 
23.647110 10.880757 6.821730 
4.228689 23.818947 7.776361 
28.964161 -5.062418 -1.259390 
10.825281 13.636559 -10.216422 
16.496729 15.222898 6.291219 
-0.459901 26.650549 0.706643 
-16.118940 -0.076473 7.842402 
24.566242 -0.289574 2.747721 
-18.334263 -5.887993 -8.602720 
-6.551461 25.588785 8.789532 
-10.591306 25.009874 3.522102 
-12.713819 19.127563 -0.875868 
23.013107 0.494104 -4.257883 
22.461811 9.535610 -0.166323 
0.128232 28.871685 1.005012 
-17.063213 10.033783 2.297382 
9.590158 26.732416 12.466988 
26.437866 -5.510411 -2.469045 
-17.939051 12.282511 4.053874 
13.785022 25.973312 5.584477 
13.944095 24.097923 10.404582 
-16.528965 23.011112 7.348899 
18.525345 11.771059 1.222394 
-25.947395 4.573203 12.117342 
23.422667 -1.648892 3.300923 
-8.868963 25.186956 11.151730 
-16.669353 13.361653 -4.543924 
-14.508468 21.862452 -3.214706 
22.179195 -6.793702 2.796362 
-16.200087 23.289370 6.618708 
-17.895241 16.377077 -2.542847 
28.854727 -2.093001 -3.531053 
1.058235 28.186966 -1.596805 
26.101847 0.953445 5.147848 
27.150768 -2.822590 1.975928 
18.516247 16.609838 2.776926 
-26.336185 2.521488 14.775902 
9.314334 24.171234 6.062252 
-16.863705 19.609480 10.894474 
-13.543357 5.798931 -6.104220 
-14.027201 19.108868 10.950162 
-27.369526 1.159665 3.375824 
-16.638062 12.080729 1.478408 
-14.549699 21.104601 4.060517 
-22.089640 9.504376 -9.891360 
-19.892187 -7.593312 6.170189 
25.862331 5.894245 12.833243 
-0.104380 28.096636 -0.954925 
21.603346 6.456057 8.778990 
24.067413 -8.289590 3.593881 
22.304197 -4.165644 7.045276 
11.851440 23.441349 -1.827500 
-8.515760 26.831108 -3.530282 
30.403450 -10.599922 -2.628551 
-22.261660 3.424192 9.210283 
2.938485 19.741320 16.265621 
-18.676329 -0.678183 6.723985 
20.108267 8.030708 -4.885928 
-26.089825 -9.827715 13.802304 
29.578495 -6.668678 6.205272 
4.712322 26.444317 0.674509 
22.110098 3.885012 0.708754 
23.070606 9.906386 -8.401814 
-16.351725 18.807014 3.656007 
-19.098713 19.811136 10.855690 
-27.400913 -4.344983 -8.737252 
21.897907 4.491908 -0.735110 
29.309029 -13.100492 -5.512932 
-12.801160 23.150600 5.993559 
-26.634466 1.955183 3.971141 
-16.709934 7.784524 -4.399195 
19.321413 17.615320 -9.007002 
0.721586 23.474337 8.577132 
-12.366362 13.632265 -4.025467 
-14.331224 23.099230 -0.744926 
-10.212154 26.236330 -0.701784 
-24.121548 -6.402166 -1.393691 
-9.519300 26.889463 11.557294 
-7.661367 26.835636 -4.579406 
22.756104 10.618196 -2.085051 
-18.751408 17.527960 0.412662 
-25.748293 -7.731222 5.116185 
-15.005750 11.995026 2.709863 
29.395430 -4.348122 5.450930 
0.761775 27.250231 -2.704390 
-1.018409 28.034538 5.383489 
7.185516 27.173439 12.634201 
-27.568956 -0.737581 0.135962 
-13.267901 24.456934 1.069722 
-22.214306 10.726218 3.008902 
-11.407455 24.867601 3.138615 
-8.835855 27.087952 12.123222 
-25.267580 -4.493443 4.241001 
16.204769 22.858013 -5.993219 
-20.002312 15.239998 -8.863473 
21.361879 -12.614833 0.706094 
-26.386881 3.262933 -1.831271 
22.049789 -6.767547 9.617927 
-14.516332 20.804726 -3.016725 
-4.099037 28.909122 -5.171060 
-21.477858 15.521806 8.289538 
-26.386177 -6.221331 1.278587 
-11.204432 20.873449 0.731676 
-10.747532 25.695942 13.492411 
-27.452253 2.076860 4.684315 
-22.518938 6.478745 2.710546 
26.040882 -5.890187 2.390367 
-16.780336 12.205379 -2.406207 
14.883041 23.889942 -7.175284 
-13.917673 18.573206 -0.884951 
-15.694473 23.522057 5.881691 
-15.763480 -2.891354 -6.255975 
18.791744 5.024088 -1.445265 
13.784586 18.345003 -1.834698 
-15.578506 0.750139 10.667934 
-4.419504 19.805616 -10.741348 
-4.079939 28.718740 3.650214 
13.935027 24.123783 11.295579 
-13.098800 16.067995 -0.396331 
18.938225 -4.921788 3.679550 
16.836014 21.959509 4.739859 
19.039749 4.446785 2.793496 
13.919350 10.512232 4.009408 
16.631365 -1.690863 -7.446783 
7.943386 30.136574 4.128907 
19.669678 -10.505502 9.550340 
-12.031987 25.425467 6.462075 
18.216095 -4.535699 7.695268 
24.671936 -6.970095 10.143339 
16.071569 13.287941 4.479874 
19.045729 16.981157 4.007504 
13.045503 24.328094 12.954949 
0.007265 30.043564 8.726140 
-23.812485 7.672125 6.669570 
17.000208 -1.834915 -2.127130 
-13.411860 19.651094 -1.135531 
-29.650375 -6.163578 14.075624 
-10.974456 12.632516 -4.802624 
-15.830524 4.441855 5.278148 
-18.720472 2.882245 9.651523 
-18.148640 -3.169104 5.330153 
27.734821 -10.256076 6.355264 
-24.683584 -1.789592 10.558964 
23.819342 -9.385921 0.852579 
22.131517 3.015828 -2.358076 
21.136080 6.048260 3.547706 
18.903257 10.301758 -3.124496 
21.199785 16.072277 -4.842979 
-10.310121 13.528522 -6.786091 
-2.887405 28.661495 12.334369 
19.860893 13.070540 2.797186 
18.794315 14.878675 6.311103 
18.969318 -5.099537 -4.181151 
23.153276 8.859539 -9.809622 
-19.292938 5.573195 -3.668823 
-11.024645 17.950945 7.282160 
6.393443 26.694038 -11.310353 
-19.602964 19.013268 11.165485 
29.024548 -7.950490 1.655799 
20.950531 14.616970 5.947085 
-16.384834 22.360374 13.040406 
-7.441575 28.278181 3.233464 
-27.786694 1.282358 -3.577314 
-7.249689 23.608040 -1.615589 
-19.096201 -7.365526 -3.976078 
20.322956 18.226208 10.212647 
-3.663592 29.869835 9.734511 
7.708048 19.259710 9.964093 
-16.818829 5.913122 -4.165568 
9.450557 25.815184 -4.098795 
15.402567 11.946521 8.294962 
-22.943314 2.858994 3.967906 
10.146577 21.136400 -3.695039 
-17.620075 18.611568 -10.649689 
-7.427557 23.326796 -4.716125 
12.663135 14.374543 0.027447 
17.832642 8.217061 -4.898770 
-14.379219 9.458722 -0.136261 
-6.413137 28.205618 12.693811 
16.042240 2.168645 -2.303840 
-14.133550 6.623146 -0.988331 
16.924463 -0.688379 1.999872 
-5.218904 25.264145 8.357869 
24.924675 6.876433 15.348304 
17.176474 18.404316 2.304187 
-18.933754 -0.628438 5.807630 
-13.122130 23.796484 9.173424 
21.329269 -0.825541 -4.730357 
-24.629782 -5.929937 -1.955680 
17.160427 -3.906883 -1.103390 
25.910986 -2.417154 -3.413513 
-15.852340 13.153647 -0.882801 
0.702381 27.696047 7.854599 
10.246932 26.577711 10.826442 
21.243624 12.546678 9.903657 
23.534363 10.363358 15.617316 
18.261040 19.323774 2.724248 
10.027140 23.944485 -0.309614 
22.580494 3.101942 7.210187 
1.491061 27.409410 -2.166114 
25.302454 -4.761258 3.236651 
-22.745169 -5.036983 3.336879 
-3.836090 28.712914 -2.205698 
24.377459 -10.378867 1.931055 
28.469065 -9.232620 1.630947 
14.956491 3.670793 -7.961879 
-21.670080 9.606677 -2.598959 
-29.598303 -4.471540 6.654746 
4.720399 26.544054 16.810495 
9.358709 21.368311 7.523369 
-17.085848 20.349592 16.224302 
23.117674 6.243912 6.909241 
-8.179824 28.132647 4.316638 
-9.665190 25.427114 1.862361 
-15.030800 13.724177 1.086339 
-17.529322 20.876862 14.227644 
14.464551 18.075792 -0.003264 
12.766378 18.611181 6.466142 
-26.289381 -4.839251 -0.475437 
-16.443851 14.659829 6.379820 
-6.081249 26.929497 6.250269 
-15.651234 0.302617 0.000698 
28.966049 -6.238404 9.172967 
-5.464201 19.655914 10.807990 
17.005346 9.925413 10.001783 
18.810213 -1.819894 1.626123 
14.863361 18.454992 7.934822 
11.399473 15.728235 -1.687037 
12.930388 9.975382 11.015295 
7.725312 25.409985 -5.734365 
-20.488388 3.333874 9.747861 
-17.590019 5.228891 1.665383 
8.904592 25.986481 -5.216915 
-27.233143 2.247305 7.129855 
20.956871 -11.917696 -0.989263 
-0.106475 29.394617 -5.546750 
-14.081303 10.350246 3.046000 
11.150908 26.109341 -1.704305 
-11.283530 23.792038 2.398798 
-26.783348 2.347734 10.678453 
2.116610 29.451248 -1.531996 
-13.593947 21.218855 -4.852395 
20.139385 -10.238759 -0.280288 
14.951303 5.921003 -0.968661 
-0.640223 24.241510 -1.821147 
-7.653645 18.616426 9.710829 
-12.828654 24.951790 5.047892 
-19.834219 16.166231 -7.848102 
25.925528 2.547390 -0.591008 
-16.643303 -2.000408 9.852999 
-11.462371 26.223021 4.696397 
