-4.564193 20.070662 -4.205873 
-23.244761 -14.437218 -0.918178 
-5.284178 27.788818 0.293615 
10.047508 26.312597 -3.138787 
1.302586 25.995373 9.045368 
-22.428278 -1.108196 13.387791 
24.131704 -1.794643 -2.448962 
18.943466 17.126738 14.004273 
25.947241 -11.212571 13.943117 
-5.136814 29.215851 4.964892 
-22.100492 9.213196 1.093547 
-21.986433 -15.388941 -4.181191 
-22.171440 -7.208383 5.328734 
-9.816984 22.654644 -2.576961 
15.536725 14.508636 12.113485 
18.083006 22.458582 8.499231 
-7.506280 25.242603 2.693621 
-28.475452 -3.223833 14.678590 
-23.283455 -15.773498 -4.123498 
-6.980830 25.968740 15.345236 
-0.347752 25.959707 -1.189847 
-24.222948 5.290548 5.367062 
-1.112368 22.696157 -1.030397 
-17.111649 -0.267532 6.593016 
3.134366 28.006521 6.118202 
-1.562517 23.779469 -3.403859 
-19.752085 -8.744440 9.179845 
-23.248407 -8.886234 5.714651 
-26.825516 -1.078433 6.010799 
-16.218479 -2.702252 3.680465 
-18.153509 -3.876042 -1.154221 
-19.728603 -7.518458 -1.370894 
15.971350 21.010302 -4.095722 
16.593128 11.431438 3.122502 
-3.215342 29.661003 9.762136 
28.927195 -10.856485 6.560470 
30.173515 -11.708980 1.332296 
-3.017590 22.460295 15.226974 
26.384668 -10.821641 6.327995 
-9.570294 19.526304 11.246974 
-15.892820 0.650180 -6.232576 
24.033108 -9.819779 4.813901 
24.745367 9.314775 10.392085 
-3.856542 26.866339 4.647285 
19.799774 19.607145 9.150223 
19.480780 16.919802 7.319019 
-14.215377 24.503094 7.790054 
25.005888 -2.209822 14.422851 
27.914324 -5.654161 6.359646 
28.529676 -6.967381 9.052930 
-2.875675 22.083469 -0.389948 
-21.938957 -14.687486 1.599802 
-13.492695 11.726570 -1.112201 
25.412352 1.346638 11.890688 
28.464762 -2.121044 7.950137 
8.765769 25.040575 -4.776160 
8.094590 26.252417 3.514394 
-22.327986 10.810466 0.098411 
19.110172 -9.852839 -5.177538 
-26.212875 2.029263 -3.221783 
12.805354 24.756960 -0.222199 
16.920773 4.373273 12.563264 
23.763891 -10.274373 5.413196 
-14.961649 24.269075 -3.928888 
21.363035 2.444885 7.247478 
21.023146 -10.392200 4.663538 
-25.955374 -6.854122 13.029190 
24.758472 4.613633 1.214410 
-2.734410 22.918991 1.011134 
18.019058 10.635269 4.002695 
-21.823944 7.746602 4.395350 
19.733574 16.994730 -6.334838 
20.483635 -12.489208 -0.093725 
20.438246 -11.750237 -0.580488 
-16.668024 -0.506787 8.762166 
-20.960815 -13.253160 6.220402 
20.523668 -14.134630 2.155792 
14.577047 22.422413 -8.251960 
-9.025633 26.197859 6.306929 
13.955118 25.948467 3.330275 
26.096678 -17.403250 8.757005 
-4.584612 21.838449 -1.025942 
-27.330673 -1.996665 10.319789 
-25.529922 6.412199 14.240902 
-21.897005 1.838484 5.110547 
-1.285438 29.630339 9.616831 
18.226484 -2.413550 -1.234752 
5.767145 25.178364 -9.460941 
-1.619943 28.831127 2.674640 
-25.583990 -9.016864 6.723677 
19.674995 -0.986880 -0.849791 
20.576118 5.792233 4.625926 
-11.550767 21.146338 -3.904114 
14.178340 24.597174 10.297943 
16.099953 7.094921 4.469766 
-16.587524 -3.309955 -3.946347 
-18.159945 2.132612 9.011049 
15.297990 20.529816 3.967778 
29.176840 -13.104166 4.550662 
11.789534 26.803469 7.679351 
19.992941 6.910095 11.647800 
-28.190166 -9.117331 4.105162 
10.428013 23.129311 0.329554 
25.191824 -17.341492 0.306351 
-3.842642 30.319651 7.322233 
-13.947784 9.797970 12.251396 
-28.864670 -13.357537 7.043328 
-19.678545 2.775599 6.123505 
26.249765 -5.548648 1.804422 
23.626776 1.578169 11.714525 
16.856178 0.996519 0.313096 
19.589911 17.411144 12.219576 
0.056241 23.454405 12.550278 
12.094799 15.522952 11.701671 
-20.269878 -1.125782 -3.490792 
17.969009 12.785243 1.085502 
-19.506557 11.138828 -3.039826 
2.952869 21.186689 11.378005 
21.116268 6.391560 5.146883 
22.934210 -1.038340 -2.939636 
8.890029 26.483438 10.647911 
29.065798 -13.540886 0.890140 
-18.077984 5.346388 0.214406 
-21.240631 4.592418 -3.263928 
23.169954 -6.242714 13.633640 
-20.899889 -10.751957 5.273457 
-0.868522 24.797350 -0.568368 
16.130987 10.018182 0.471191 
1.784795 27.058756 8.071918 
16.404867 4.585074 16.352474 
-8.732101 27.405518 6.570171 
24.602644 -14.778088 6.353526 
-10.970798 13.976974 -5.237181 
17.944445 18.068396 6.199930 
21.141024 1.468399 9.026776 
8.128326 23.931736 8.925584 
-18.280769 -5.613922 9.485533 
23.787027 5.078022 2.847430 
26.915527 7.090169 9.623560 
15.729859 20.896637 5.921817 
-20.827274 8.304180 4.711174 
-28.570692 -12.889006 -1.730749 
-0.066960 23.405128 10.452433 
13.855205 14.726312 11.654287 
-9.087930 22.506224 15.423765 
25.688326 -4.393503 0.565129 
18.063368 15.410393 9.133425 
17.483526 22.492460 5.696026 
25.502262 8.617638 15.569652 
-5.715588 30.059515 6.326888 
13.089467 12.852081 -1.283734 
14.080174 25.832834 7.844968 
21.482300 1.714356 -3.295545 
-20.025154 -12.993530 5.517249 
-24.718302 -15.491704 11.118342 
-16.131739 12.136748 1.145244 
-28.433146 -12.099244 6.192436 
-1.661287 27.515057 5.664637 
11.372031 15.164924 -3.520557 
-26.106781 -5.505817 9.548778 
22.158047 -8.454678 9.953507 
22.865692 -5.758543 2.965486 
-17.997663 -4.383970 3.686106 
-16.867432 -3.581601 11.232224 
21.033951 4.922081 1.035887 
-21.047171 12.306734 -1.174573 
10.277010 27.068678 6.983706 
-23.483900 -0.558491 13.390366 
0.203494 26.357908 13.594760 
-17.237446 -6.580965 -3.028451 
-18.209143 18.099234 -8.398152 
26.529263 2.179198 0.220059 
27.730839 -15.773628 4.560157 
-19.721140 18.127356 12.315312 
9.428123 22.943502 11.133478 
7.030271 21.661360 12.701844 
21.076202 0.336016 5.252731 
21.074989 -11.024080 8.579333 
-19.650826 -13.175128 1.414293 
16.831215 22.957535 6.965487 
30.797653 -8.684884 7.166403 
16.553442 5.730671 -0.345160 
-25.367569 8.097751 7.732795 
23.127872 -4.799905 14.090388 
13.797831 12.248442 -0.477842 
-8.676435 24.544117 -0.964161 
4.231623 26.527582 -6.971476 
-16.784077 -0.216911 -3.137990 
24.272118 -10.898031 5.334944 
-3.858833 19.507931 -6.726660 
10.190255 15.640596 -5.344597 
15.532717 22.615992 11.708211 
-28.731340 -13.230742 11.147081 
-22.902201 -4.952728 12.668260 
15.619677 19.404306 -1.933498 
-23.236603 -2.492728 -2.337938 
26.465567 -7.305409 7.309906 
24.297712 10.550506 16.826099 
-12.237559 19.808651 8.330412 
13.954908 22.319344 17.594326 
-11.658833 26.284904 9.385496 
0.189170 27.804745 7.253461 
-25.101551 -6.433784 6.171270 
20.238672 0.798877 7.008222 
-2.527465 26.223448 -1.968792 
-22.588999 -9.001928 5.055684 
17.600262 15.983365 9.531285 
23.313801 2.411063 10.415203 
-1.176079 23.929430 15.891265 
26.577909 -11.536856 7.314651 
1.548274 23.912647 12.503641 
28.362375 -1.877006 7.235693 
-28.329559 -8.615425 -0.082000 
-28.885406 -14.532809 14.706413 
-6.879859 26.029026 10.519472 
-17.090982 -5.490116 -3.220035 
-8.572382 26.985451 -4.785052 
-15.460330 3.617396 0.944978 
20.115475 3.471700 -1.452267 
-26.184679 -2.215326 12.958199 
-25.987385 -4.884304 2.783947 
6.768543 28.655313 11.846001 
11.123281 18.083324 -1.125119 
-20.893337 -15.776921 8.890974 
-18.209051 4.560483 -1.588019 
28.416798 -0.214194 8.445088 
1.300662 22.776524 10.858083 
26.412701 6.391109 15.694613 
-19.819637 5.076152 4.526392 
22.018288 2.645570 5.225351 
19.133034 18.586916 -1.721449 
-22.224602 -15.449260 8.946137 
30.346796 -10.637810 -3.929928 
-18.234283 -7.365495 15.282949 
-15.450956 2.320311 -2.580582 
24.465017 -3.306175 -1.890736 
-18.088200 1.658525 7.839637 
25.753948 -9.354308 1.643044 
-25.098486 6.645154 6.629713 
20.419250 -9.842243 10.578225 
-25.127716 -0.752987 3.724769 
23.893497 -14.844525 5.258692 
-26.213533 -10.206801 13.760360 
13.618871 20.989542 -2.779099 
17.974258 16.068531 7.211170 
6.249577 19.105173 -3.904382 
-4.591758 26.911558 2.900386 
22.289186 -15.882566 9.805022 
8.190839 25.381264 2.772052 
-5.289714 27.059658 8.330437 
-27.861202 -7.032847 1.320588 
30.299330 -15.862409 11.409937 
1.671085 26.001293 13.577151 
6.386318 18.868023 13.554682 
30.220512 -13.980317 13.533048 
-21.197716 16.077227 15.122406 
-14.568042 22.245346 -1.909263 
7.412676 28.959513 6.398567 
19.933941 -2.357442 -3.009631 
13.345989 22.629095 3.669356 
11.713391 15.591954 -2.418470 
12.392363 24.988096 -4.384965 
25.865189 -8.090291 13.211259 
13.586652 23.041557 4.430113 
-25.763538 -6.979328 -1.287732 
26.911770 2.955723 10.746393 
13.513585 24.454582 -4.138044 
5.639629 28.898327 4.389309 
-15.314394 11.863729 3.241300 
22.857433 9.539743 -7.631061 
25.797461 -12.464086 13.914167 
26.447569 -9.420495 -1.139882 
-22.066490 10.454778 9.156517 
-17.981958 -7.428396 12.191116 
16.670143 23.046453 9.508298 
10.351357 14.520069 17.018166 
-15.648641 16.094540 8.803647 
16.165535 4.664932 -1.232128 
-8.901532 24.051689 8.499961 
1.391439 19.818579 -7.003253 
16.642298 22.359531 5.115702 
-24.619724 -11.703712 13.592565 
23.671410 -17.228336 1.772437 
-18.282507 -10.805407 2.005174 
20.064554 16.247871 -6.391991 
18.507921 -4.319078 7.777579 
-19.666632 -9.308437 7.984096 
26.241182 -12.493811 2.501911 
-26.362518 -9.455808 13.701466 
18.254246 -3.900006 12.546504 
-24.018456 2.650935 11.593073 
-18.085209 -11.068145 -2.848357 
-16.906900 21.800194 -3.458349 
-18.625465 2.085263 9.627738 
11.539873 13.679962 15.878593 
-3.361946 26.607414 4.013739 
23.263462 13.912615 12.550747 
31.049097 -9.322311 7.517106 
-0.981928 26.188337 -2.756187 
26.028719 5.992233 11.948142 
2.497536 23.294453 10.353462 
8.329944 25.590101 8.911596 
-4.652674 30.125044 8.457174 
10.410056 28.051676 4.965408 
-10.084997 26.761536 -3.667010 
-19.093264 -13.451091 -0.075340 
14.970309 8.360292 14.230721 
3.759629 27.155523 -5.306349 
3.348655 24.825840 9.422447 
23.516632 3.851497 10.250943 
3.558174 19.639811 -5.663505 
-5.676254 29.440678 5.755836 
19.710272 -0.185963 11.937985 
6.088811 24.750223 1.575019 
-27.876179 -13.857017 -2.726849 
-12.599474 26.751396 3.920309 
29.910950 -7.805799 11.401814 
21.851772 4.299659 10.489305 
22.477724 1.860036 6.609123 
19.736809 -8.898788 1.357948 
16.208502 2.055586 3.059607 
-18.092739 -8.373533 12.126664 
-14.490642 18.628847 14.608130 
-29.112850 -6.498594 15.274672 
4.392478 26.748629 15.704943 
-6.303689 25.855404 13.202164 
-8.987577 24.200756 14.709304 
26.189207 2.621093 6.811404 
-15.548665 14.172105 9.511310 
-16.710060 -3.328911 -4.788435 
27.167755 0.728703 -5.533216 
23.660698 -1.400551 0.104444 
-6.474054 24.216022 9.144260 
-28.671926 -8.179208 -5.033629 
-15.314281 4.142535 -2.194080 
29.313482 -7.331182 9.232595 
-15.084095 2.701844 1.156242 
-13.299240 21.375769 -4.002676 
-9.305370 18.032513 11.519959 
-28.836830 -6.992537 6.286132 
-25.884354 4.672869 16.087557 
-7.625537 20.106691 13.290579 
4.420741 23.494852 12.529983 
-21.793802 5.085444 11.911336 
17.836100 -3.417554 5.266195 
-22.251448 14.984823 12.972568 
20.491285 -13.158495 14.272429 
-9.803501 14.656684 15.824244 
23.978418 -0.972319 -2.650068 
13.813663 10.224124 16.735735 
-14.660658 21.970734 13.960721 
-21.571842 1.866661 12.908722 
30.925079 -10.093192 7.068740 
-20.241995 -9.483062 0.898187 
-16.517332 6.985084 5.998468 
-17.045521 6.849394 11.430118 
-6.269230 28.168545 -0.584963 
-19.520700 2.805934 7.652843 
5.363660 27.279806 0.812327 
-25.734934 5.667245 13.134232 
-18.343336 18.249474 8.739631 
-24.345200 -2.889157 -1.422165 
-22.753326 0.647510 10.572255 
22.904293 -8.739452 11.654044 
-28.785406 -9.502452 0.249362 
-23.868586 -15.374638 12.029409 
-22.741404 -6.435992 8.687069 
-25.711279 0.624876 13.026492 
29.218494 -4.566795 -2.950575 
-20.865282 13.450871 -0.082885 
-24.744738 -15.291726 12.254683 
19.430782 5.018435 2.697788 
1.897104 22.596632 -2.331790 
-18.976728 19.177765 12.482932 
26.465837 -17.219513 8.067320 
-17.794477 8.504215 3.781778 
12.992001 24.172926 6.765275 
18.557579 -1.060833 6.853446 
-27.016397 1.476356 15.853628 
22.860603 -0.945377 14.317549 
18.558306 9.497484 4.566640 
-24.189928 9.229423 9.824636 
29.834450 -15.213315 6.700760 
6.682879 21.910444 -2.864425 
-7.058027 27.043255 -5.452991 
5.179580 19.202469 -5.373138 
-22.597141 13.339868 15.716486 
27.872486 -12.698189 -0.262474 
7.281538 29.035248 3.067105 
-10.870887 18.080532 12.318486 
-1.462136 21.240519 -1.477843 
9.114550 27.061422 -1.655538 
27.614487 3.265624 15.165641 
21.330013 9.549588 -0.668511 
19.937223 12.506647 10.995118 
-21.610577 6.106870 10.207637 
-13.754081 22.514818 6.875042 
28.772356 -1.779198 10.574483 
-16.392441 0.809835 -2.094572 
-14.948708 4.736392 -3.099606 
14.994062 21.666739 6.457327 
3.226477 19.422323 -7.228528 
-8.801891 28.290930 0.508581 
-29.133511 -10.167253 1.407919 
29.863888 -8.377673 1.258619 
24.259102 -15.473104 5.026904 
-7.323040 27.844957 5.743047 
-13.697032 7.938327 -6.002014 
17.274446 -1.976028 -4.521954 
26.730995 -6.273748 0.085850 
-27.581614 -7.012371 -0.305081 
0.251312 26.408653 -7.916601 
-0.170619 26.096052 0.051789 
-15.862617 -1.994024 2.735016 
21.490660 -0.344675 14.026967 
-2.845863 18.969278 14.992178 
-19.104919 -4.177076 -1.649447 
-22.407127 -8.724789 12.934784 
19.649509 -9.143758 12.612931 
23.927532 12.253505 14.967656 
-23.384079 -12.995635 2.736013 
-10.009916 14.788463 -8.044625 
18.083347 -2.194048 13.535705 
19.881775 4.003462 -0.535695 
28.794518 -14.004164 13.760829 
-14.883906 13.507430 0.894170 
-10.207124 25.735886 12.588303 
24.504704 -5.904188 5.233385 
18.790806 1.143667 -2.539359 
-13.616241 17.724880 13.980764 
19.772650 2.884710 11.813708 
-22.982454 4.972257 3.782048 
-23.474403 -5.267605 5.751237 
17.240566 19.606825 -8.848825 
-17.967794 -7.549775 2.211998 
3.483556 27.289103 14.257032 
-23.553677 -3.596005 4.548608 
-27.157640 -5.951306 10.068527 
16.169968 23.778616 -0.532622 
-15.732265 7.070597 10.176289 
21.812397 -6.514725 13.365737 
-5.338326 18.545172 -8.549091 
19.089140 -4.354053 -1.114233 
-16.661072 21.833145 -1.470386 
22.102299 8.255471 4.722592 
-15.428484 21.104462 2.022840 
-17.498020 3.952787 -1.742259 
-14.634809 5.163422 -6.806438 
-8.512244 26.523415 -6.312283 
9.339056 22.787386 8.779696 
-19.002533 -1.675055 10.700521 
-14.648847 5.561605 -3.332042 
-16.418921 -3.105689 2.723336 
-18.318642 -9.464302 14.047505 
-28.563606 -14.679388 12.771667 
-24.249706 -5.374328 1.351381 
-17.382246 -5.583595 -5.441782 
19.498577 11.376151 -1.912263 
14.028106 17.643881 10.539955 
31.229366 -10.181738 10.601853 
-14.346609 6.054909 -6.920085 
-9.612436 24.696896 16.274734 
-11.998939 24.393684 13.563274 
18.602308 17.682224 6.144413 
-19.654234 -10.568147 7.158071 
19.341286 19.740837 13.108894 
28.952036 -7.318995 9.911934 
-21.176008 -4.366836 3.953392 
15.374247 20.720673 6.602265 
11.595858 18.934364 0.892948 
-26.730640 2.180964 8.428715 
19.089054 16.822077 10.140933 
-21.787218 -9.048806 4.401797 
10.055421 15.358752 -6.697186 
26.241959 7.299799 14.822098 
15.449524 19.171085 2.480720 
-22.395273 1.874307 9.901020 
-11.105963 18.553831 -1.883334 
14.655711 24.009020 8.894736 
24.719776 -15.818190 4.520353 
27.941885 -0.041081 -2.528096 
16.885496 -2.525476 3.676406 
-6.367640 23.540514 9.964108 
0.409795 26.944799 8.037279 
24.749397 -6.644208 13.463727 
-22.819675 -16.147245 0.046514 
-17.664608 8.109288 4.858997 
17.858511 13.828251 -0.287757 
-16.723503 16.676994 7.995659 
9.433839 24.746841 16.876060 
6.369542 23.825266 -3.741776 
-19.454884 -2.549039 4.588805 
11.387223 20.940893 -4.276855 
-6.343359 18.819981 -5.189200 
-20.602520 12.281607 -1.928620 
-0.972725 27.775738 6.320135 
20.147823 3.519141 4.327172 
-23.617592 11.581009 13.181485 
23.462214 -4.762166 5.435576 
31.218340 -10.818191 8.837896 
5.306918 22.176533 -0.238737 
1.801952 23.396273 11.802219 
-20.156843 -1.992598 4.368539 
-9.351274 27.047091 4.673134 
-11.325041 16.867918 11.057073 
22.023895 1.929383 8.186665 
26.381134 -7.172925 9.841104 
19.958797 -1.505187 -3.196772 
-4.091057 27.178740 5.325268 
-9.509213 25.083582 7.161776 
20.664507 -14.459153 -2.564010 
-0.806394 27.422449 7.968931 
-11.527952 20.503922 12.212071 
17.285479 5.417039 -0.852873 
-8.295832 16.106379 15.564320 
-17.610197 6.236917 11.639562 
-19.018679 16.810066 -8.230905 
26.844997 -17.155285 8.732764 
29.998020 -8.156542 10.711651 
-9.801160 21.693699 9.054325 
-18.272171 -9.823352 0.967058 
-16.278940 17.570885 14.132801 
5.374561 28.744806 2.843869 
1.307000 19.012545 15.853698 
20.312305 -1.778880 11.293177 
1.212385 26.758980 12.264132 
-25.426825 -0.268525 -1.822630 
-27.162191 -11.183537 12.020442 
-6.462015 20.382933 11.079595 
-19.611370 -2.659492 -3.069183 
-28.115871 -15.428730 14.647817 
-16.179680 21.059765 0.697987 
-14.835276 10.764691 1.170053 
-26.461092 0.606550 -5.153610 
-21.487043 0.938859 5.525867 
-6.130736 26.873671 7.957335 
-15.552243 6.970507 0.895775 
17.450491 1.260055 14.980128 
-22.704210 6.661567 4.457692 
19.516804 13.444013 10.711074 
-15.430470 2.075860 -3.349529 
28.900661 -15.364675 6.918253 
12.410954 19.003510 9.883677 
-26.125731 -4.926254 1.189824 
-22.583536 -14.881883 1.946772 
-24.317543 -8.095754 -2.000054 
-19.982471 15.955130 -6.766680 
24.409550 9.826834 6.620677 
-21.889469 -7.957676 5.701684 
-29.598923 -9.495372 11.020419 
-12.711266 24.750790 7.118602 
21.187902 5.404774 4.268446 
-9.769116 19.361513 -0.172949 
-13.729999 9.016141 15.097471 
29.658014 -14.465331 0.888094 
-26.151283 -7.950586 -1.345277 
-18.553150 13.814101 2.586106 
-17.229103 12.702088 -0.287138 
20.828241 5.361728 -1.412985 
19.612728 -9.107081 14.393629 
-18.927382 -12.404241 10.905987 
-11.163312 20.015524 10.523650 
-21.145388 11.076856 6.605026 
28.089935 0.646580 7.659630 
7.641098 25.486099 -8.176942 
24.791023 1.693408 6.026463 
-16.868179 -1.434758 14.803389 
19.731285 -7.707628 2.739747 
-27.060774 1.601764 7.168993 
-14.544903 17.797585 11.237361 
-13.451278 19.331852 -1.488419 
-17.962538 -4.953615 6.833908 
-21.526045 -6.193589 1.368492 
27.208288 0.675832 11.222414 
-27.346237 -3.453914 11.225343 
13.785103 19.400412 2.225548 
26.798885 -12.404284 14.039805 
-3.456361 22.487259 11.518058 
-4.226259 18.294189 15.793234 
-24.550890 4.526902 0.589316 
15.376370 22.870756 12.655028 
-15.641275 -1.055094 2.093025 
-25.137802 -2.435138 1.292052 
-4.084764 29.515636 6.009595 
-12.434566 14.260235 11.123673 
2.443070 27.579439 -3.469643 
-13.304669 19.373112 8.169770 
18.298216 -4.280245 0.533744 
26.700695 6.812238 12.584654 
-19.236181 15.949869 10.555626 
23.125481 -8.458164 8.922585 
26.605539 -2.984529 2.241520 
-20.482973 9.346332 11.441462 
22.096786 1.757036 5.105521 
-28.173950 -9.841877 4.541809 
1.963633 26.522833 16.520676 
0.198350 26.444595 3.232327 
-19.849550 -13.349036 8.646235 
-28.905888 -11.615599 2.158134 
-19.118279 19.071978 -2.314742 
20.254543 3.559453 5.596485 
25.637926 -0.804563 5.851782 
21.631176 2.094612 11.154219 
22.700321 11.106070 1.834441 
10.391420 26.807617 9.097242 
22.281811 0.150273 4.577062 
23.153597 0.948613 13.354112 
-13.826651 12.286563 10.037648 
-16.826780 -4.390349 -2.715296 
-17.355703 0.806010 9.863248 
8.817581 16.542294 -6.808883 
30.046053 -9.593346 2.204119 
22.442461 -5.553612 5.322355 
18.040144 5.549079 8.169243 
23.485334 -5.665424 -1.134328 
26.412497 -12.790049 6.301666 
30.103319 -13.179586 2.945008 
16.037159 15.303144 -0.801339 
17.413658 4.534047 0.316125 
-10.434210 24.780651 15.315743 
19.683540 -11.130963 1.711215 
15.026996 8.021420 -1.152834 
-18.538969 -11.527575 2.389940 
-23.050959 -6.422421 11.598505 
16.376337 21.005623 -7.964262 
19.406122 8.826653 -3.414606 
-19.793686 2.231275 12.430053 
-21.616810 -2.407958 5.223545 
-25.054523 8.083824 13.224922 
-11.824114 19.131670 0.998562 
12.116971 24.052908 -0.353692 
-11.959029 12.705823 -3.782560 
20.004366 -12.439625 1.649549 
20.776455 7.785148 9.151672 
26.352274 -15.773712 13.149796 
21.229874 12.097939 2.656734 
-2.851635 30.256804 7.110050 
-18.912905 -2.864934 5.099663 
11.053242 21.668751 8.991149 
14.174456 23.806326 -5.580908 
28.683043 -3.021256 9.948249 
-5.149791 19.673876 -4.763270 
-23.865170 9.559968 4.486540 
28.072813 0.773224 6.761740 
19.683241 -6.770148 6.117317 
18.723852 -2.344290 12.862380 
10.941501 16.610779 12.337856 
12.377603 18.607594 0.954499 
17.247282 2.525632 4.531391 
10.745225 21.256884 -3.501864 
-9.240035 20.229342 -0.760113 
-11.786595 19.464025 13.718423 
20.124369 5.173089 2.052178 
28.590740 -3.543262 7.631435 
25.296551 -7.543926 9.612680 
27.304369 -1.127479 5.487862 
-23.834631 -6.312448 11.875944 
29.958065 -10.053720 2.868338 
-10.690786 23.846117 -0.107052 
17.040453 22.477774 11.563545 
-11.424738 22.513680 11.084694 
16.144058 12.052254 1.111510 
27.914131 -5.119107 10.725099 
-27.104218 -2.806792 6.305178 
3.572131 28.874611 11.500813 
20.332617 -8.949237 5.173244 
-15.223825 22.045965 15.903371 
-4.864858 27.753292 1.232096 
-22.164751 14.977079 12.005196 
8.390605 29.213238 9.868056 
17.727322 10.263630 -2.242807 
22.892679 1.404179 11.989622 
-19.909784 -6.739051 6.476851 
16.765486 9.043442 3.538583 
-15.098280 17.606377 7.112895 
-23.718975 10.055400 8.843577 
30.549646 -11.836155 -2.393081 
27.407469 -11.822742 7.691803 
22.948376 -9.858932 4.647323 
25.345127 -17.289045 7.389109 
28.037989 -1.434839 -5.015090 
-22.659615 -16.050547 2.483745 
13.132783 18.100574 13.507163 
23.603109 9.012198 -5.295506 
-20.337397 10.314234 9.319448 
-12.931616 23.342495 -9.093049 
-17.245157 6.575782 4.419853 
19.388893 20.373890 12.338059 
-24.208097 3.221362 3.656529 
22.279930 9.221040 8.859404 
21.406439 -9.510932 9.436461 
24.742720 -13.466724 13.553080 
21.514202 5.248861 10.535146 
-18.200006 4.500252 11.259640 
20.665007 1.862694 4.285594 
-13.444170 18.750633 14.383091 
19.211794 0.482851 -0.739172 
8.087599 27.308153 7.595189 
-13.910782 23.854969 -7.006721 
-15.223423 16.422586 -0.508692 
15.117952 5.732773 -5.900726 
30.314926 -8.059498 8.652742 
-16.004660 4.624964 11.248737 
-13.842738 19.594492 -2.111156 
21.422071 -15.185719 9.708864 
-17.782347 -8.331555 2.323473 
-22.858444 10.430559 -3.413932 
-23.585909 -2.834570 1.217707 
10.032373 15.989851 14.350418 
-16.108482 23.306992 5.427085 
23.602224 -4.129929 1.619553 
18.526402 16.221722 -1.578106 
-26.341784 -15.206131 7.801904 
-3.292607 26.674715 -2.694571 
-14.078380 20.631203 7.267910 
-12.693464 25.185102 -5.532306 
-10.688421 26.192850 3.600701 
-20.174088 0.704547 12.902600 
27.784248 -12.894309 6.615273 
-12.234024 16.702198 12.467165 
23.571634 -7.067579 5.663435 
-23.899914 -17.026743 11.752870 
-11.716777 22.003811 12.469278 
9.097809 22.987509 14.072364 
-20.368908 -5.519380 1.885933 
8.324420 26.995878 -3.288079 
-26.941853 -0.972571 12.332808 
-14.777259 20.846636 -3.259306 
21.830952 -13.543900 12.250359 
-18.962791 7.071987 4.187151 
-19.632111 10.484802 7.177256 
-27.385212 -6.191644 -0.151177 
6.838208 28.969982 4.862920 
21.763895 11.319804 -1.160389 
0.981194 28.341536 9.528464 
-20.560934 3.775412 4.965337 
13.917991 18.479965 14.047995 
31.215231 -11.816523 10.277788 
25.443544 -2.279915 5.500021 
-19.205978 6.328500 3.444643 
-25.887211 -15.421631 -2.437256 
17.104212 3.203060 1.119337 
-9.163305 21.100573 -0.839275 
-13.235230 13.761742 10.416667 
18.094719 -1.666453 14.944544 
19.195992 -5.955382 15.622933 
4.592092 26.082699 16.915386 
-20.223835 2.852188 10.279941 
-1.222401 23.287121 -2.822702 
-19.022203 -1.432326 12.714650 
-24.065243 -16.114189 1.969363 
-23.682146 5.097412 9.249376 
24.329996 7.075724 -5.934836 
3.144781 24.860420 16.212952 
27.011192 -12.552094 7.351098 
-22.293100 11.827795 1.494503 
8.789135 20.742332 13.463696 
-7.731792 21.219881 9.778609 
-22.298149 5.402540 3.966713 
-4.982365 29.757164 6.085832 
26.506464 2.841725 -4.475143 
-13.029140 22.981365 7.259223 
22.363941 2.096878 -3.125192 
5.335571 28.925415 11.385964 
18.727190 13.534588 0.366219 
24.643536 3.037210 4.777234 
-23.119959 -2.729568 5.590950 
10.439816 26.993294 7.904220 
-26.265804 -13.266079 6.590701 
-24.841637 -12.080802 6.686768 
-23.456799 -14.966113 5.855729 
30.627821 -15.701996 12.518572 
3.138344 23.126091 -0.793340 
-23.289135 7.266291 3.969602 
28.820127 -15.525466 0.286836 
8.911263 26.717302 8.727653 
-25.360638 -15.059826 7.240855 
-20.589817 3.766440 -3.555895 
-11.285254 18.380047 0.375149 
-19.526800 9.378015 10.838222 
9.115438 21.948149 14.367724 
22.754372 -12.073705 10.458583 
3.151214 24.152754 -1.207942 
18.224478 -2.777578 11.449816 
-22.335190 10.840030 -6.350357 
-26.559004 0.742531 -4.270496 
11.426994 26.296030 5.422340 
16.745144 20.936739 -0.749829 
19.157867 10.964053 0.132107 
0.426625 27.584616 -0.661854 
-18.179291 6.242367 9.997490 
-7.456869 22.752089 1.544124 
-27.631313 -15.616364 12.302510 
0.941213 27.431313 1.380016 
19.585791 -8.882935 4.680650 
-19.179710 -9.618027 11.137545 
24.951349 -11.475045 13.750350 
12.927223 13.830866 -1.057444 
-29.136776 -9.090446 -2.985955 
15.018778 22.676016 6.278121 
22.428316 9.741285 7.992661 
-11.891312 18.904066 0.244294 
10.650880 14.738971 -6.385055 
26.892534 -2.759279 0.761929 
24.479246 -7.882568 11.107109 
-28.423893 -7.038004 -5.178216 
25.531349 9.075217 12.785846 
-5.027236 29.039049 4.232820 
-12.200778 23.433203 4.390910 
7.541464 17.570637 -6.646446 
25.634655 2.468619 8.693800 
-0.058721 23.200935 14.283037 
-13.291255 21.896124 7.372240 
29.282927 -9.552984 4.301179 
-12.173591 21.951456 3.095266 
-9.739614 25.018160 0.116666 
23.741587 12.003671 11.091168 
-5.927381 24.019447 2.003314 
25.515373 -5.589437 4.871214 
-6.379378 26.271143 -1.981969 
-8.527911 19.200260 11.359015 
2.351381 28.490360 0.844885 
-16.485163 5.042209 2.588683 
-23.474468 -11.252841 4.571401 
15.074021 7.080448 -1.970075 
-26.657900 -2.939893 11.541904 
-7.885937 21.545774 -1.268412 
-18.195894 1.625051 7.062945 
12.379593 12.291917 16.873169 
-25.812803 -0.616319 2.336884 
18.190990 -1.626491 7.601787 
9.593193 20.178875 -0.536052 
26.239355 6.237740 16.532724 
20.470299 -0.089511 13.129586 
17.460508 7.399542 9.668417 
23.249067 -1.625868 14.404833 
0.418727 28.435669 3.789641 
11.104637 20.293356 9.279747 
10.529197 22.290470 9.121077 
-17.816370 -2.563260 6.189385 
28.549051 -2.367220 -2.390127 
-11.727146 26.288935 1.196576 
15.865570 22.513512 -3.635902 
-29.370134 -12.671092 9.008505 
20.408047 7.918326 10.308563 
-19.228045 14.487668 0.331906 
20.288338 -13.146936 1.298439 
-18.991022 -5.029338 1.794169 
-19.351789 12.662859 10.755855 
27.486897 -5.827490 5.690433 
-22.214102 9.662461 5.133189 
-8.852435 22.562880 -0.405101 
-8.223125 21.574163 14.763963 
25.571947 -4.352087 2.593610 
-19.614525 11.814043 10.189495 
-15.826734 9.528540 -2.002879 
2.297888 21.516190 -1.167362 
27.784220 -5.568785 8.707010 
-21.139019 -6.179952 11.126984 
-21.724016 -13.487460 2.681937 
14.547215 12.519907 11.024309 
9.618969 25.401644 -7.264019 
-6.609519 22.535818 11.626177 
17.917814 5.101048 -1.219264 
10.418189 25.267538 6.229857 
-15.983271 23.721466 9.502285 
12.785027 20.373755 12.864014 
-21.967564 9.662848 -1.069149 
-22.751392 13.431588 14.814347 
23.496126 -9.028801 -1.517199 
25.214705 -5.684332 5.757340 
15.811805 7.351152 12.682076 
23.133860 -5.759244 10.858151 
3.861661 28.851137 1.977311 
-20.166821 -5.840221 0.574852 
-23.939043 2.807508 4.649878 
-16.317013 21.876827 -6.213906 
-25.349388 1.820529 12.182371 
-27.017220 -9.425459 11.962559 
13.401779 25.221569 0.096523 
20.066029 -7.679788 10.111536 
20.754890 -5.671189 13.456364 
-27.492706 -5.800572 9.381977 
-7.680356 29.290207 5.590316 
16.635616 -0.376561 0.944618 
-6.675180 24.244389 -1.039696 
-1.565552 26.087959 9.239292 
-11.228291 20.149096 11.295186 
28.660042 0.034406 15.154167 
21.902029 9.463750 6.944315 
-11.215787 26.447348 -2.024245 
-21.814917 12.934307 -3.100967 
14.955751 21.183180 4.155069 
-0.534262 29.969885 8.464917 
1.328802 26.324331 -8.044433 
1.093273 26.023008 2.395031 
-1.554699 28.334990 0.194198 
24.908968 0.629410 6.305774 
-1.899239 25.211611 2.692891 
-6.720571 25.600332 11.848095 
5.741339 25.092522 9.395085 
-26.071882 1.632224 -5.386900 
-22.784391 -16.871174 13.129282 
14.468831 16.743092 10.717779 
23.170523 9.866709 -5.553755 
-20.529274 -2.993729 4.804598 
-16.663380 5.135046 1.764646 
19.602068 12.543497 3.131150 
-16.521770 11.709298 3.729319 
-2.532845 26.448786 9.172542 
-16.588327 -1.837168 -0.680711 
19.134956 6.533400 -0.288271 
25.512058 0.695324 10.376619 
20.192928 -11.766233 10.850009 
1.020930 28.445059 3.052951 
-20.329651 16.541941 -2.783510 
8.355943 24.177256 7.723279 
11.727547 16.982449 11.168369 
21.947266 15.597452 15.139646 
-27.304241 -12.561226 -0.287152 
-12.227671 23.969221 -4.140967 
14.724822 23.676081 -4.206112 
-23.401962 6.992762 -1.382058 
26.269550 4.371283 8.736915 
-14.238060 7.936234 14.929136 
-5.478710 26.280687 -2.029245 
15.791506 10.354570 2.980886 
1.954169 25.501118 11.246156 
26.670158 -0.940873 -1.381664 
17.724716 -3.134376 -6.007708 
21.865391 9.066472 4.927499 
1.889143 26.723930 -6.986737 
-6.363834 24.301344 -3.702837 
5.250357 25.631260 0.529596 
16.489540 0.961526 1.020349 
-27.370256 -7.127142 12.469652 
16.727932 2.327703 0.931568 
10.371099 17.792862 -1.180345 
-21.523731 -14.065555 11.867520 
-0.430469 23.451151 15.223509 
21.660612 -7.657339 1.286059 
22.489044 -0.460419 5.848285 
16.791428 6.754592 4.590522 
24.973324 -12.277222 5.203813 
-27.072870 1.384390 7.915821 
19.413227 -4.288691 6.113905 
17.310263 20.226084 17.467405 
-25.497543 -11.135637 -1.605792 
-18.018904 -10.077720 2.046646 
-11.866782 24.366352 -1.432107 
1.807822 29.096235 10.214958 
-20.145555 -13.729479 1.634030 
13.672641 9.631826 -5.904448 
3.695908 24.943882 13.502195 
22.175102 -5.895472 -0.582104 
14.645142 19.740704 14.118528 
26.739075 -5.274617 5.114889 
-9.697973 23.048510 1.672684 
14.762011 25.205820 0.130002 
-13.420229 21.123451 7.570585 
1.371362 27.693266 -1.938777 
14.154910 12.178176 11.848550 
-27.169029 -12.624763 13.420679 
27.374031 -0.156649 12.532992 
18.164919 19.893915 -4.992210 
-13.394779 17.019899 10.554710 
-6.466395 27.215698 -5.002728 
18.560072 -3.367004 -1.205726 
19.461430 -8.190989 12.751601 
31.399324 -14.429420 13.639610 
7.256485 23.974703 9.933028 
-26.249729 2.533476 10.454117 
-3.373649 27.961319 -0.268469 
24.633961 -12.072421 -1.481605 
-11.223272 25.756840 11.656662 
-7.655022 22.064573 -2.097201 
-17.863630 3.986679 8.861279 
-13.051085 23.857883 6.139571 
-16.125782 10.477888 0.303698 
1.128025 25.233601 -2.796785 
-3.236942 22.703499 -0.021177 
-17.461750 18.724619 6.229118 
26.783503 -11.523383 14.054792 
-5.561830 25.662088 14.564209 
28.766359 -6.023555 1.268986 
-13.239472 23.525211 14.965802 
-12.963449 20.459686 2.998789 
-29.575205 -10.368386 11.010045 
23.040163 9.719654 -6.546463 
19.828463 0.638375 8.926738 
11.265676 25.689085 -3.849247 
27.262892 0.506688 1.829775 
-19.831591 -3.294623 4.844674 
-10.238481 28.536222 5.464714 
-0.155086 24.722734 9.870753 
-27.181940 -2.925554 7.893472 
25.030910 -6.322257 -0.453602 
-22.268167 6.508908 12.302412 
-16.099081 -0.755320 -2.204073 
5.245389 26.743090 0.237551 
9.576350 25.104765 3.172594 
-14.770994 5.698910 -2.468932 
22.438688 -14.916037 5.335361 
-14.907471 4.267318 -6.692329 
28.283516 -4.496381 10.105941 
-25.279333 -4.175039 12.104258 
-17.955297 19.522623 6.302666 
27.805357 -0.111470 -0.267516 
-23.729454 -15.005167 3.137428 
-17.133072 8.352360 4.254217 
4.700767 27.557528 5.173811 
24.235754 -15.546516 -0.075677 
-8.536874 22.959681 0.265556 
-16.532925 19.516359 14.890337 
26.121758 -13.491477 6.317006 
-6.228798 18.458776 -6.718493 
21.493494 -0.432098 -0.657972 
-25.947638 1.447784 -6.258010 
20.242615 15.410625 -7.162652 
20.233515 0.842210 4.071270 
20.587339 0.843710 6.220701 
29.233519 -7.760479 10.964139 
18.976627 18.423248 -6.168141 
23.858507 -7.732586 12.948253 
-7.478795 20.692677 13.750240 
24.739590 -15.945947 2.130447 
21.842682 12.113849 11.152853 
20.940929 1.059812 -0.594679 
31.211700 -12.547302 10.741930 
11.856814 20.909399 1.915271 
-22.972031 -15.045515 3.137620 
20.595158 6.736800 12.624652 
15.066422 15.048602 9.558039 
-7.725295 26.572159 -6.560171 
17.565725 18.172970 14.687622 
-2.371668 24.178614 -1.099926 
9.888456 22.688379 -2.216032 
21.751398 -8.516167 8.497866 
13.556373 26.214712 7.316884 
-9.569460 15.687665 -6.418046 
24.433250 10.420154 10.894524 
-7.205880 20.220020 10.957622 
-17.998289 20.378304 -1.951443 
22.089346 -13.433314 -1.006474 
11.435778 19.168863 11.260681 
23.969202 -6.496157 13.553481 
-3.032145 26.664877 -7.107278 
-25.805212 -4.208221 10.592139 
24.225811 -9.187261 13.150387 
24.416807 0.073492 -2.600156 
19.454775 -0.411495 6.439934 
-9.396690 26.922995 10.324791 
-12.212995 18.170649 0.945279 
28.988066 -7.929267 11.848896 
29.656771 -8.362573 -5.441930 
19.189516 4.066280 4.076755 
-12.675771 16.494768 9.277806 
-11.996890 19.528404 10.273952 
23.673216 4.884750 3.722188 
2.842531 19.011381 15.146410 
7.637900 25.364470 -4.615589 
-15.112576 4.917627 -2.215073 
0.947578 27.091461 8.879366 
12.993265 16.899866 -0.183887 
1.629665 28.841043 2.672838 
23.905087 -4.959320 14.080032 
-18.042419 14.774800 0.548849 
-22.303942 -0.461245 -0.418471 
25.720720 -16.560593 12.669021 
27.331848 -5.853557 3.099198 
-7.162547 22.410532 -2.555743 
8.963369 25.167273 6.718565 
-28.709625 -10.364610 0.623843 
-20.628027 -15.251575 13.585309 
0.095899 23.624022 13.630549 
19.444416 3.244530 6.931561 
-4.603226 25.732794 17.125990 
30.204884 -12.014791 -4.989126 
25.899630 7.564942 4.540032 
15.680954 4.030425 -5.547112 
16.512901 19.562281 14.928505 
-24.846882 4.141079 1.240014 
-25.186806 -7.297632 6.698338 
-18.225275 19.572138 -5.832786 
-17.890852 -1.356114 5.100233 
22.396235 -8.540133 7.510289 
-14.039519 19.787968 -2.826495 
-25.764858 -14.193778 12.930126 
-0.098356 25.188725 1.577344 
7.575786 22.118929 -3.406806 
24.058989 1.950884 6.071498 
-20.310179 2.968376 8.238676 
-23.432348 -3.622332 10.432492 
-23.388037 4.434968 6.337541 
3.836658 24.549311 16.256489 
-14.818301 20.536127 -1.390310 
18.103050 -3.875253 10.078301 
25.130878 0.684012 -0.221995 
-5.752911 22.866926 13.830415 
7.230491 24.491762 -4.398923 
-17.850409 -10.068488 -3.802835 
-17.964397 -10.995296 -2.065758 
-21.105219 -1.303612 4.319425 
-18.457130 19.130457 11.451473 
-11.689277 26.357750 6.215541 
6.586784 24.841522 9.464448 
-17.456194 6.867731 0.320509 
-3.232524 22.370178 -1.062811 
21.368605 -0.235052 -3.297893 
23.182613 -17.708075 9.814059 
26.114628 2.921653 0.129181 
19.379185 10.240373 5.360325 
13.217599 17.256046 9.645536 
-1.648121 25.309088 -1.460935 
-20.347841 8.072749 6.243450 
14.027763 22.230270 4.273337 
-29.090233 -11.667433 -2.130671 
-16.914841 -0.794550 11.396121 
-25.649357 3.480363 -2.009679 
-17.837381 0.865872 6.312661 
11.440141 23.727762 2.757779 
18.410404 4.586911 10.915799 
-22.125839 2.735345 9.112514 
-22.309565 -6.663738 11.444300 
22.688768 -10.623880 4.540659 
27.924984 -4.867577 11.679667 
19.263569 11.360406 4.951910 
-11.668207 12.172737 16.710531 
-25.772446 -5.040653 6.293361 
21.291054 -12.815503 7.352518 
-18.875326 17.830341 -7.130455 
23.328587 -16.495235 7.161296 
-17.327303 18.484125 14.125224 
-11.045067 25.251265 12.593502 
7.268299 21.200327 10.970971 
-14.982265 15.737707 9.888453 
26.919561 -16.306223 9.525092 
22.209467 1.837885 9.608615 
-8.823807 26.829466 -2.221264 
-27.347086 -6.114995 2.587944 
16.740625 22.790751 0.039019 
-4.166543 25.987556 -0.665982 
-20.963448 10.921501 5.056199 
-13.854264 19.471115 14.705032 
16.945578 -0.824038 -3.024998 
-1.108888 27.596308 -1.204281 
16.278961 22.071598 14.932340 
18.597263 22.000008 7.941106 
-1.343616 29.762857 6.091439 
-28.116030 -14.880080 10.740087 
-24.974136 6.823154 5.729833 
-20.962702 -9.177475 5.555268 
-20.661030 7.587854 -2.004640 
-8.632156 26.738358 10.986098 
17.255104 8.065604 -0.356769 
-26.357683 -3.846950 10.099682 
5.711679 22.982117 15.367672 
-19.788939 0.011935 -3.737973 
-22.488714 9.322580 -0.630819 
-18.095932 -5.463177 7.918535 
30.716972 -10.083097 0.552812 
17.477394 11.678901 0.725665 
-6.759452 27.487780 -3.110054 
-28.263479 -8.168458 1.955370 
20.966881 -12.216357 8.159043 
12.601131 23.165981 -9.259738 
-13.568665 24.226721 8.860356 
17.798765 -3.051970 0.280697 
3.705842 21.972822 -0.371520 
5.000443 27.514952 -3.626582 
23.901039 -0.809516 14.370016 
-15.438211 4.179984 2.059377 
-12.383047 14.013077 -0.633364 
27.973711 -7.070197 9.976439 
-18.024742 9.538592 6.989752 
-18.135561 -8.434380 14.044485 
20.586197 -7.967823 6.734989 
-18.692097 -5.668638 10.543015 
-21.875944 12.571587 -1.433659 
10.944471 27.578579 5.637469 
-10.074409 26.847660 -2.153852 
-8.633019 23.349327 12.443436 
-27.096861 1.226982 6.030896 
20.793982 -14.217902 12.870267 
20.933491 -0.427804 4.982783 
22.016350 12.349633 -2.198055 
21.699898 3.029229 6.144569 
22.410309 7.415459 12.559969 
-20.416454 -9.344148 4.977105 
-25.391508 3.554033 -5.407019 
-28.501007 -6.127306 12.463560 
26.736050 5.619316 15.567377 
-7.044068 26.867971 9.141371 
-20.589485 -14.701727 -3.030444 
-1.014164 20.348074 -4.443069 
19.169630 -10.185914 0.016335 
19.437155 -9.147921 3.855096 
-22.931746 -10.479619 -2.253712 
-20.917261 2.477809 8.979011 
-10.924735 25.638153 5.175220 
-14.292356 6.174915 -5.655721 
-17.754116 18.983631 13.483222 
-22.765228 -5.580500 5.602321 
-22.507967 -16.901499 11.876945 
23.681839 9.108953 -4.358298 
9.734282 25.732580 -6.338923 
17.437361 5.648924 -2.726976 
8.532191 20.444872 12.513583 
1.345268 24.364431 0.211460 
7.289185 28.656019 1.939367 
19.519211 -9.315116 2.028203 
25.558651 -7.491506 8.555988 
-6.241142 25.992439 8.825361 
-22.738871 1.456564 -3.271394 
28.507792 -2.789007 7.198570 
-18.101048 -4.616393 2.955966 
7.008836 26.282347 -2.547464 
2.504660 30.198486 7.645676 
27.211885 -16.882492 11.626487 
-19.124695 -0.313333 12.723478 
24.648491 5.683829 5.169490 
23.224840 -15.210495 5.188188 
28.090040 -11.511171 7.245401 
8.053439 22.191002 1.288715 
-21.781725 -7.419502 0.923292 
13.607770 19.630054 9.942792 
-27.014910 -14.341920 2.785514 
14.991033 23.312258 7.894183 
-20.965740 4.866632 4.981964 
-24.206068 1.932899 -2.660991 
19.297976 -6.478513 6.863087 
-26.242994 -15.071234 11.460730 
0.751140 27.632185 11.194784 
-24.495115 -6.828550 6.526148 
21.448128 1.237561 10.893581 
-23.259253 4.815745 9.930155 
-18.371925 1.546321 5.947061 
-21.993660 5.925652 3.478805 
31.075855 -11.037870 7.926708 
-23.187286 9.452582 -3.082223 
-3.445108 23.123262 9.997235 
17.322342 22.821707 8.530845 
25.003691 1.921964 10.455783 
-2.731860 27.472862 14.060726 
29.753292 -3.705400 15.850171 
-2.499555 27.834270 6.321756 
22.943172 8.118311 2.088063 
-21.468052 -15.639698 -0.412643 
16.863802 3.430012 15.281732 
29.727486 -9.518603 13.671789 
-29.291708 -10.251457 -0.109331 
-15.650399 23.476881 -2.983083 
30.098373 -10.801784 -5.140074 
28.184402 -8.674256 -0.148156 
30.926153 -12.513800 7.587183 
-22.908525 -11.247692 -2.139861 
24.660690 8.967369 9.687414 
20.270369 6.628973 -2.876527 
-28.420700 -3.298726 15.506018 
-28.385677 -14.277271 9.299638 
23.029949 4.937665 13.150027 
17.647457 20.266335 -6.336672 
-7.620801 18.314510 12.166020 
-12.863971 22.144970 12.443464 
8.792040 26.134995 9.348475 
-26.859949 -3.736876 6.764328 
-27.452185 -6.230637 1.708100 
-22.713860 -15.384019 10.985790 
-20.220728 3.124185 6.605716 
18.656338 18.518625 5.585636 
7.253796 27.547997 7.950548 
20.800385 -7.880992 10.017362 
21.829815 -14.422734 7.753521 
24.534489 5.954705 -7.195007 
23.563616 1.245229 6.033600 
-27.938271 -9.856439 6.659780 
-14.900704 9.270891 3.622058 
6.707043 28.466738 2.436106 
26.557358 -11.592364 -1.120864 
-12.243310 18.874708 -0.507721 
6.931242 24.988600 -9.445810 
-26.962801 -0.275114 -3.052545 
-14.854581 19.755268 1.240185 
-6.898427 16.899342 15.971307 
19.907284 5.610789 3.832116 
-10.307119 24.722927 3.846674 
-18.896021 19.152714 -1.535062 
-2.816105 27.062132 8.737492 
18.871328 -5.025177 4.826938 
3.534643 28.010565 -0.741309 
-17.975767 5.615375 1.219592 
25.291601 9.447832 6.900238 
-25.342110 0.063248 3.754276 
22.864519 3.707488 5.628692 
21.274994 -13.572877 -0.777187 
-4.079336 27.247160 -5.455608 
-28.489771 -14.217028 7.871670 
25.499458 -17.099144 -2.516183 
20.867706 5.903662 -2.282756 
-22.477045 5.869093 2.765567 
15.193681 7.613942 16.559490 
24.413198 2.225056 -0.262805 
22.618612 -14.317818 12.510649 
-24.237280 6.583539 -4.251997 
16.075520 23.241680 7.097018 
28.894979 -3.493874 -3.132112 
26.637327 4.948295 9.286903 
18.805279 -4.545910 12.349796 
-16.761276 -1.953678 8.611880 
-9.399580 25.584427 -1.910277 
20.267941 3.348105 12.223845 
22.941761 -8.925378 8.006236 
-12.894265 25.684731 6.122201 
-16.857502 19.350245 12.725266 
31.300507 -12.129184 11.472096 
-6.633831 29.419117 5.458833 
-9.870429 25.820459 -0.324700 
-19.429649 18.584747 14.267261 
27.308531 -10.721901 14.029101 
-21.859871 -16.185211 7.815825 
-9.432693 16.238979 -5.166190 
17.864510 -4.238939 -4.844617 
28.068821 -14.881991 1.271630 
12.754748 17.155964 12.030325 
-26.824621 -5.630811 3.030674 
-16.867296 8.466577 6.656199 
10.503290 26.453388 5.429682 
-19.156223 -8.013077 9.726004 
-20.813742 -14.620756 -4.285954 
-8.834928 25.954847 12.418949 
-1.566084 28.773754 6.530093 
22.304367 -16.300720 2.443913 
3.807064 24.000153 1.671720 
-27.302933 -11.858086 13.562757 
-28.437195 -7.871908 0.119786 
11.189798 24.995026 4.326463 
4.582687 25.911850 2.487720 
18.979967 -4.909167 0.233386 
-20.597687 10.655979 6.277231 
-19.213005 -12.030633 4.682863 
24.468817 -5.497287 13.913982 
-25.461994 2.660318 -0.272552 
24.122364 -15.869256 1.599607 
-10.822380 21.135010 2.171835 
-21.233976 -15.149213 3.081444 
-0.492264 28.994188 10.891149 
28.145496 -15.894073 -4.488642 
17.303202 19.908306 14.989197 
-26.775661 2.215706 7.602323 
-29.018284 -6.330484 13.764257 
29.137285 -12.097254 12.006912 
20.526194 2.253558 11.558592 
-25.734013 2.610573 -5.402300 
21.699671 -6.520561 0.735613 
-0.091436 23.279787 -0.009340 
14.178734 19.855736 2.943535 
15.195168 5.632925 -7.085709 
12.464659 26.722517 7.197795 
21.916548 -3.115307 4.891911 
-19.837637 -7.073908 4.865049 
2.820994 26.406301 16.661978 
-2.964055 19.419683 -8.676037 
-15.023772 9.057778 10.779043 
15.138297 8.973102 -0.337567 
-11.377604 18.734188 -0.328335 
19.020136 7.546309 5.629952 
9.651972 25.961617 12.796803 
-7.596123 27.388981 8.839498 
-1.518328 23.435606 -0.481805 
-17.561674 20.436077 -0.722149 
19.338339 -5.998688 6.196933 
24.975082 9.126287 16.729448 
16.680346 10.747398 3.494076 
4.337425 28.663862 6.441888 
13.275564 21.947399 13.243786 
-21.819269 -11.403264 12.823869 
11.003271 20.724279 14.243742 
10.476878 26.936554 6.088796 
26.295132 -15.206260 0.173083 
-0.751467 24.182673 10.854384 
25.257776 -7.197168 12.527451 
18.544685 21.798460 6.158592 
23.915113 -5.570187 -0.502350 
20.303690 -11.902238 4.377522 
15.287863 22.190241 -7.606587 
-5.096947 19.616901 12.760110 
-21.186415 -13.632283 -1.339027 
18.133259 -5.339675 -4.608954 
-7.725106 25.795490 -8.352142 
-16.516016 21.531988 14.982195 
3.093345 23.158955 -3.390475 
25.651239 -18.429243 9.436631 
-2.370799 19.297392 14.308669 
25.068182 -16.672234 6.246156 
25.763721 -16.777916 6.542663 
-28.943445 -5.349904 14.531301 
-3.636846 28.950277 3.815596 
-24.377621 -16.009165 -1.023928 
-12.827284 26.258709 0.092391 
-26.944597 2.145992 12.065088 
21.763723 -15.469308 2.647182 
-13.404847 20.761013 3.633707 
-26.913158 -7.590653 -0.874948 
-20.867392 -4.988826 4.557860 
-17.933533 -3.312196 6.282092 
-11.299772 26.750450 3.948045 
29.357590 -13.614459 2.014723 
-19.685444 0.306733 3.604520 
21.009775 -13.761501 0.179932 
14.417953 12.521864 0.168560 
5.470516 27.880724 -0.993547 
-8.088412 23.685669 8.865771 
-15.678347 6.660062 2.461121 
11.282194 17.831564 -1.867296 
5.972322 29.933912 5.833487 
24.874134 -18.542355 12.385284 
-16.028973 1.345676 -1.125969 
-4.577675 25.660051 15.615018 
-18.490862 6.345497 -0.774987 
-1.479503 28.679928 1.808749 
25.781603 3.260137 -6.867164 
-19.108437 9.724381 6.324750 
-24.986355 -9.665040 6.977277 
-9.103017 23.613510 -2.710810 
28.549929 -0.943007 10.704287 
-0.863851 25.595482 12.964901 
2.854417 20.146837 -4.081448 
13.855949 15.076541 10.757359 
-26.982489 -13.759637 13.073959 
9.191556 16.550602 -5.638113 
-22.705004 3.559739 8.572592 
-25.506897 -15.379461 10.993434 
22.536560 -1.474343 4.771660 
-3.601774 28.655298 2.282964 
-18.372911 15.536393 -0.091706 
-23.607302 -13.151966 -1.491496 
-11.259835 21.722208 14.672850 
-24.865583 8.985234 8.877578 
-12.849548 17.403872 13.452221 
-27.574871 -5.549603 8.206580 
3.755716 25.622469 17.763165 
21.280375 1.026605 5.920003 
24.902151 -9.012902 6.283851 
25.755386 -15.899686 3.325926 
-20.029520 -6.832651 7.509189 
19.793421 -9.062679 15.406422 
21.064363 -4.561283 -2.193278 
-19.627768 -6.673645 8.297167 
7.540430 23.002230 11.397216 
9.035647 21.451458 -2.383714 
17.885742 20.018219 5.181695 
-0.687424 28.808071 2.840784 
8.572927 28.896795 5.471035 
10.549059 18.816658 11.522358 
27.544561 1.622283 8.105933 
11.537737 21.522560 14.727560 
-18.072151 20.346085 14.178268 
-22.755510 10.533234 -2.134657 
19.828045 -7.967968 1.901599 
11.464189 22.420437 2.171262 
-19.342899 6.360189 1.261179 
14.007325 10.788395 13.233523 
-16.113728 -2.038421 4.262575 
12.266967 26.698204 6.226622 
-15.194880 20.749144 2.703611 
30.172337 -16.541067 13.815441 
26.933714 5.662642 9.618690 
-3.784808 25.502653 17.706318 
13.171618 17.998966 -3.197688 
8.297026 22.101377 -0.403915 
25.267782 -9.197121 -1.413945 
17.736736 -4.231037 -3.141460 
16.162895 19.251057 6.675220 
-25.232916 -15.769376 2.590465 
30.118025 -13.169016 -4.844102 
17.648752 0.466201 16.068375 
-11.737855 16.111971 11.284689 
-15.560318 23.026463 12.589225 
14.900768 6.439079 -7.184373 
-22.830240 -14.654695 0.353512 
23.610424 7.369021 12.607247 
-22.801805 -3.853556 4.889853 
-21.960838 -1.557490 -3.073913 
-21.259348 6.227137 3.799227 
-13.232825 23.739531 14.226904 
-14.070918 21.273026 -3.773605 
-20.422043 -1.025974 -0.679198 
22.288176 0.952687 4.833374 
8.144464 16.739893 -8.422951 
-0.252619 22.452467 14.175493 
24.855186 4.094189 12.703032 
-17.285744 5.420758 2.840614 
-16.758028 22.546669 12.563145 
11.913587 25.945541 1.988133 
25.858006 -11.007802 5.820543 
-6.747388 25.056517 7.786544 
22.085556 -16.723045 10.283902 
-20.913309 -3.596854 1.024940 
28.028862 -3.002211 5.559423 
-29.385391 -10.072299 11.792017 
-21.964025 1.103578 -0.979995 
-21.598528 -7.143839 -2.027271 
-23.921213 -14.052729 -1.016641 
-24.796368 -6.092112 11.406359 
-12.742425 17.124146 8.731942 
16.798296 21.707153 -0.813703 
23.395678 -8.460938 1.242316 
20.876513 7.028350 9.673169 
-15.953403 2.355090 -0.773088 
-25.314230 7.247662 12.372341 
25.988411 2.043410 -1.838533 
-17.658689 4.224401 7.637959 
18.485720 -5.251545 12.560870 
26.418564 -15.578676 1.242606 
-25.021027 4.759770 -4.316153 
-8.678338 17.635160 -3.332241 
-19.312059 9.419441 -0.395817 
25.430534 2.795152 7.509370 
-27.057976 -11.863564 5.676719 
15.345393 19.516022 -4.027949 
-19.407398 -5.752647 3.624293 
-11.242408 22.718519 14.650433 
-13.334743 16.611298 8.645503 
-21.241863 8.281958 -1.956403 
2.757684 25.494469 12.971903 
24.992960 -10.743944 5.008142 
9.026764 28.296265 7.884927 
-27.952085 -0.978777 13.057452 
-8.107817 22.956551 -2.856704 
-21.084240 2.876034 11.212762 
15.772430 3.920609 -6.875783 
20.174543 4.493223 12.629405 
-15.105013 3.345469 1.692545 
21.125992 -10.448515 -1.276522 
-19.895260 11.975699 -2.767043 
26.176228 -14.442282 6.339720 
-6.862444 19.945202 -1.886567 
-20.222431 17.134151 15.973691 
-17.664558 4.354973 0.085567 
-12.012664 25.206732 -6.446124 
27.086044 -9.910295 13.897243 
19.254032 -6.077675 11.749020 
0.310047 19.578688 14.636022 
-5.220614 28.974365 3.065404 
-26.525080 0.875921 -1.167210 
28.043009 -18.009941 13.476471 
-3.998578 25.025833 -3.148833 
-17.880608 -4.964478 9.724315 
-6.044264 28.881054 1.470791 
-21.410883 9.670779 10.873656 
-29.124538 -13.679337 12.078057 
-11.562593 20.045984 13.212749 
24.491501 -10.153487 10.617929 
28.366720 -2.459298 12.673085 
19.317728 4.886849 1.280118 
8.731402 24.863880 2.647557 
22.616976 11.629041 -3.369805 
-19.007536 19.183229 13.883970 
27.118134 6.287656 8.935541 
26.883562 -15.132045 13.459350 
