12.028363 27.546757 15.813179 
17.113081 25.668034 -3.389406 
12.140310 27.682840 3.098147 
20.172892 5.033175 11.520195 
25.415445 16.283110 14.537096 
24.143280 1.248029 11.485749 
1.704954 29.433289 -6.455283 
-16.192989 -1.403546 3.150438 
23.879559 6.429016 1.082262 
-7.854115 30.972315 8.892877 
-21.506567 -15.150436 0.529506 
1.981783 27.615360 2.601391 
-20.696556 -17.473530 4.292400 
9.714554 30.592216 15.738661 
-8.581592 29.479208 2.884711 
-14.117501 25.400600 8.246737 
15.978631 5.155164 11.355705 
18.015047 24.736444 -1.297356 
10.977518 27.439205 1.631687 
-11.406512 16.218996 13.504046 
29.536722 -6.328722 9.977557 
26.021500 9.702828 4.765240 
7.282896 30.263889 10.719020 
6.565945 26.353863 3.088676 
-3.685264 26.256538 -2.261332 
-21.268160 1.966328 4.539231 
-26.433775 -17.182169 4.047671 
21.832701 2.912951 6.411030 
1.880290 30.092831 10.105335 
23.577467 6.361845 12.042508 
19.198404 6.111567 1.127441 
22.258841 -7.997642 2.965950 
-19.440741 10.701840 -2.478475 
-2.936019 27.017210 15.122666 
5.876125 27.588478 4.479779 
17.593048 25.240412 13.217840 
-18.569122 -7.329518 7.832119 
23.743952 14.407443 -2.460997 
-28.103073 -1.773426 2.264778 
17.347977 10.383709 0.632343 
17.568136 25.105810 6.922244 
13.051404 27.230127 5.603827 
-2.739839 24.907907 1.257979 
0.211655 30.486958 4.440780 
-19.121878 5.307916 3.622586 
26.014345 1.494933 -2.416521 
-13.378433 20.917551 13.353144 
-22.035486 0.476633 4.577655 
-28.556023 -7.132859 2.939937 
0.236440 30.252022 1.886287 
17.311819 7.079107 2.974579 
6.431832 21.115152 17.876190 
5.210759 27.719645 1.662955 
-25.329496 5.681641 8.392033 
24.586611 5.067450 4.117762 
7.782910 20.188934 -4.740036 
16.839909 27.324221 11.964225 
-33.971478 -11.337281 -3.268675 
16.990633 6.287682 1.276369 
19.306683 -4.647764 -1.081728 
21.797083 -13.318732 10.405591 
11.658456 18.246033 -1.470365 
-8.291724 25.870239 2.521625 
10.652300 18.717712 -2.650361 
-19.441956 9.353517 9.085482 
-18.416653 8.138295 4.866473 
-26.320843 1.256609 2.951683 
19.273680 -5.027193 9.551725 
-19.821255 8.375501 5.688464 
4.621075 25.520042 12.277640 
22.073997 -10.465589 0.332705 
-5.114729 26.100910 1.913528 
18.357233 24.168425 -4.135619 
-21.335978 -2.319369 3.064846 
-28.838341 -12.936703 1.238835 
-25.810934 -1.685046 6.251604 
-24.117689 -7.820465 8.049904 
10.388878 23.104340 12.923088 
19.047863 5.549709 0.427788 
-4.789306 26.992487 9.807025 
19.805212 22.878429 20.453836 
25.744183 5.351196 4.664511 
-4.796041 28.959753 20.491299 
22.703943 22.828709 9.086028 
-20.522156 8.580509 5.089628 
-9.862507 19.986746 -0.398243 
-6.329259 19.725395 -6.428217 
9.759177 25.817389 3.711655 
23.009697 9.630850 10.511753 
16.394743 27.806295 10.019079 
-3.421737 25.625484 1.634639 
16.741261 -2.051357 17.980261 
-14.632974 20.302361 8.546211 
-15.363663 2.506048 16.131405 
-17.591621 18.682896 13.767929 
-18.759222 8.188064 3.614196 
-27.690636 5.964822 14.745133 
24.653736 9.697777 -0.059640 
-20.233059 -14.244631 5.439801 
17.128155 6.328227 5.927919 
8.401844 28.972248 -5.271468 
-19.626017 23.037169 6.318189 
26.700029 -5.811045 3.052964 
-16.925415 -7.067599 9.119065 
23.233461 5.844222 1.212146 
3.239285 27.954544 15.527054 
-15.847664 25.645521 12.433131 
27.641563 -10.926393 10.539657 
28.245577 8.550480 14.553092 
20.527735 19.476969 13.091346 
15.433056 5.662401 18.695259 
-19.446564 -8.034337 5.560602 
6.136373 34.140587 6.820490 
15.451488 18.941809 10.890388 
-10.666072 28.430124 16.287903 
-17.078779 -3.949525 8.623086 
-9.859535 29.160103 5.148559 
17.944992 23.339758 1.674575 
-8.144637 25.149960 -0.504935 
-15.413237 22.500362 12.417858 
-20.330534 -15.418645 1.839855 
25.027597 -6.772087 4.763313 
13.402519 28.106091 17.616854 
-14.655600 6.186989 16.331303 
22.543030 -9.932445 5.661527 
-28.547579 0.441869 6.577923 
18.615664 -7.365999 -0.452725 
-17.074888 6.545677 -2.440116 
14.275418 27.211927 -4.378912 
-13.836841 8.855153 16.306412 
5.336104 28.090370 10.104091 
-14.438925 20.821304 0.915646 
10.400426 31.810940 10.312332 
23.314634 11.045294 5.306486 
2.418431 27.061422 10.400019 
18.578663 8.097359 -3.265867 
20.103367 5.995667 4.153768 
29.099426 6.041688 13.599468 
-19.479124 -11.950943 2.864629 
20.608770 23.980980 14.380146 
25.035162 -10.104553 -1.386439 
9.758536 35.687912 9.121791 
-13.083095 16.540552 10.644723 
-18.174334 21.096775 12.748859 
-8.293118 20.554455 12.892622 
10.072940 24.757217 1.609328 
3.465365 30.024647 16.696011 
24.252718 12.709227 -4.702613 
-24.923065 7.850895 9.196154 
24.843472 -10.429254 9.580976 
21.422081 23.103792 14.057152 
-16.188511 -2.789826 -4.100535 
26.068008 2.152217 0.237212 
7.130704 20.497377 -5.035010 
8.752088 28.142962 20.714973 
13.763453 23.057884 13.107843 
-31.096642 -6.959969 1.242450 
-18.682264 22.891665 13.610582 
-15.986378 -3.458138 -1.055997 
19.471853 9.513152 7.937583 
-14.976000 25.075647 18.583277 
-10.128780 26.589987 3.624149 
0.247044 30.348530 1.077718 
22.200193 17.433683 -2.953297 
13.313731 27.949289 0.277112 
20.930307 -7.339985 8.971678 
-1.491339 32.777161 7.161155 
17.690737 9.214103 0.248584 
8.948456 19.521458 18.045286 
-15.913952 -1.973320 17.258724 
-29.542288 -12.453578 5.715348 
-11.468118 20.480341 1.174788 
-14.348962 15.089984 1.862685 
6.426146 30.134020 -2.725386 
-11.126416 22.603310 0.262970 
-7.222720 30.638754 14.775233 
-23.370066 11.623796 9.046301 
-17.256609 13.410901 8.125588 
-20.003675 5.810164 11.987097 
16.186800 21.068199 1.751705 
8.658782 29.425428 1.657333 
22.165627 10.653000 7.900847 
-21.687279 -12.828276 11.722825 
17.793732 -2.928447 -3.960613 
17.303097 -11.201014 12.537571 
-22.827663 -5.625238 5.268623 
4.000711 26.095451 13.566454 
2.137683 27.036959 0.580942 
-23.975655 10.046408 -4.630040 
23.538292 14.410293 -4.801291 
20.946487 9.749951 4.584958 
-18.241869 4.377104 1.788873 
1.175601 31.715147 11.577652 
22.728434 1.046790 3.839910 
-22.414642 -5.182525 1.218665 
12.546521 28.555094 17.517588 
16.188606 1.675036 18.327436 
-10.633170 24.033075 1.585523 
-26.313787 -10.916389 4.091672 
-9.776378 27.841131 -4.548540 
-28.138456 0.172093 5.860581 
-24.813255 -9.389571 6.049953 
24.030499 9.455961 10.494114 
-29.889986 -13.435616 6.802280 
28.227816 -8.868912 -0.778015 
-31.535114 -1.515455 16.954140 
-29.425482 -9.053857 3.396731 
-27.959278 -13.080256 3.141331 
27.370373 9.699985 10.114234 
6.647099 32.566967 8.976137 
28.651979 0.258998 5.586715 
-11.624558 25.136021 8.827289 
-9.812211 28.278114 18.253471 
11.855969 26.258547 1.240083 
1.337335 27.861919 2.938045 
8.504304 29.759296 6.945261 
0.203635 27.051289 11.925721 
-7.438457 23.413324 -2.007950 
20.986536 25.342855 9.456614 
-21.224600 15.981602 -4.975315 
5.340201 30.575640 -0.453132 
6.914129 30.110378 -0.401013 
-16.895647 7.502882 7.666971 
29.355585 -7.580749 1.847524 
-12.620011 26.011932 20.032219 
-5.701712 22.759184 12.559793 
-22.728973 10.312916 7.191639 
-22.050800 9.749284 8.866027 
7.888537 27.690796 5.371620 
-0.572233 33.848106 11.243609 
-14.120513 14.696572 10.435286 
-27.648640 -6.360180 5.926048 
-17.379860 22.652607 -1.931631 
-6.494211 20.048483 -5.030858 
-24.080925 -5.190518 5.520854 
19.662716 21.149454 11.533204 
-9.490254 27.239311 8.509145 
-29.911194 -9.756305 1.165434 
-28.392178 -2.158544 11.016195 
17.019276 1.516410 11.328949 
-27.913706 -8.580840 0.511701 
29.728441 -3.235830 11.064681 
-5.604494 32.189350 12.344670 
-2.325797 23.007278 13.391168 
25.145956 4.943822 7.833788 
2.811891 32.488682 14.335113 
-32.285748 -13.442130 3.731284 
11.337447 27.320366 20.693333 
-9.731659 25.212151 15.089150 
17.223410 21.560211 8.067928 
-18.789885 -0.870263 3.753098 
23.916443 2.399710 4.763271 
-18.422813 -6.897936 1.058439 
22.334602 11.891051 -0.128060 
-16.892000 22.200466 -0.985610 
2.685689 21.470980 19.935835 
-22.127237 14.559808 -3.924358 
-8.973326 21.498037 -0.414413 
-26.982792 2.451858 1.123874 
-12.336237 19.392548 11.273120 
-15.775599 9.243966 4.544337 
-7.301980 27.991571 8.519622 
26.220161 7.993898 -4.050899 
-14.319862 18.177752 12.309441 
-14.866683 4.740689 -1.893641 
4.514551 30.725239 18.563906 
-23.153082 3.522274 10.741475 
-0.349104 27.796234 0.751586 
-29.267689 -12.650997 3.821581 
3.457653 23.493525 -1.662345 
-14.918034 16.038794 9.409817 
7.014028 30.138208 -1.511822 
-29.266878 1.185329 12.073422 
17.393715 5.916890 10.056294 
-33.116566 -12.333548 1.961529 
8.227313 20.384066 17.044298 
29.801716 -0.343441 -3.285716 
16.302605 25.953115 -2.554342 
-4.890635 23.962236 0.653377 
26.783905 7.917667 8.248755 
21.628178 23.834972 14.080663 
10.150067 27.543711 -0.532636 
-9.373559 25.873053 15.245766 
22.974361 6.730425 1.898858 
25.184237 -6.013310 5.093752 
17.200548 13.258785 9.097422 
-26.581469 -8.722831 7.307593 
-10.043015 21.003288 -0.717689 
-26.542326 7.979554 14.150431 
4.309974 26.385586 -0.422995 
-10.555140 22.964224 -2.639320 
28.226393 8.374552 17.524172 
-10.748957 28.834787 12.996147 
-15.241389 25.957870 9.274533 
-16.578930 20.929523 7.703142 
-19.627026 -11.197721 3.091464 
-19.519388 -8.321769 8.328239 
-1.291850 34.411957 5.627976 
19.955738 0.096289 10.191444 
11.358337 25.819815 -0.443796 
14.926855 27.028879 18.359621 
-29.751040 -2.238454 -2.108093 
19.058359 -13.864498 12.243908 
-24.943266 -18.211086 3.300906 
-30.284788 -11.519584 1.013806 
-16.648149 -11.288174 -3.209921 
-10.378699 19.373379 12.133902 
5.138083 24.449852 0.558644 
17.235266 27.140123 14.228892 
-21.115871 5.633663 -0.157298 
-7.474510 28.055950 11.018120 
-29.654718 1.010846 13.065603 
17.570259 3.731814 0.232905 
-14.391791 9.073467 11.703884 
22.581884 -4.135124 3.987737 
28.505383 2.774644 -3.599646 
-16.634537 25.581991 12.065061 
-15.849849 2.210032 10.167426 
-16.729006 0.175666 9.954205 
-21.476372 7.324841 4.736673 
10.758743 31.212656 12.529619 
18.213377 -4.886027 3.550867 
-33.835621 -14.529642 -1.320369 
-32.411991 -7.189402 -2.052553 
-16.142080 -3.327652 -0.037330 
-12.403070 28.639519 5.392247 
15.577943 4.697281 15.630169 
-25.524162 -11.247744 6.667763 
15.065740 25.029936 11.909328 
18.806734 -13.047944 -0.738236 
-10.148911 23.236849 13.779117 
-15.572476 0.127141 13.774179 
-6.784701 32.309074 5.726425 
-6.258885 29.376389 5.920694 
29.075825 -0.572146 11.925744 
24.535942 -0.487756 0.288494 
-17.953005 23.050388 14.462923 
-27.608391 2.243731 -3.678985 
20.935902 21.831398 12.383312 
24.321760 -7.410412 5.654430 
7.418526 25.733246 11.851196 
-12.324145 19.120392 1.100306 
-6.949761 20.848251 -2.773242 
-19.824263 -7.667909 4.368812 
23.053312 -8.492715 1.154742 
24.825687 -6.131599 -0.059592 
5.412457 28.845058 9.987516 
16.719860 2.615623 -3.487431 
8.327862 26.587454 -0.419557 
-4.770025 25.182753 12.728327 
17.096804 21.518095 13.645371 
22.138767 0.548307 3.805209 
-27.133541 2.478610 7.668691 
21.477694 -4.842300 8.366488 
15.812647 21.280977 -0.945433 
31.320057 -4.051319 -2.375725 
15.476092 19.443256 9.103885 
11.362556 23.500879 -1.868863 
0.905420 30.081442 12.578581 
28.394894 -4.340980 5.152526 
29.880260 3.646073 13.340940 
-19.965391 -0.254334 3.896749 
19.936495 7.357319 0.625041 
9.814579 19.010639 17.668797 
-2.713181 21.688583 -6.621008 
-20.773355 8.560094 7.916214 
-14.411510 22.283197 -1.161947 
-24.064342 5.230350 4.789289 
-2.390332 27.994572 -0.490986 
15.778921 26.063307 -3.091575 
19.473843 -7.259790 0.986606 
19.283892 -14.359532 -1.651810 
-7.704131 24.442791 13.656518 
-14.400966 26.199778 9.884229 
-21.754004 -12.170318 3.098234 
22.622948 2.233821 4.060160 
-15.826970 -0.481670 -0.095882 
-4.186965 33.118961 11.207543 
-19.311008 23.637344 5.816768 
22.890167 1.191963 11.188467 
-10.468451 21.439764 -2.204469 
-12.687329 26.688963 -3.176789 
-27.027296 3.064283 -4.755192 
-24.242407 10.868165 9.912143 
22.094374 1.062840 -3.417821 
14.585397 12.895836 15.135454 
25.752680 7.181951 -0.668459 
20.817699 4.198485 -0.910176 
-20.009716 4.614281 8.804519 
16.397936 1.124977 14.266753 
-13.169491 25.024214 -3.592661 
-29.758261 -11.419807 7.156748 
-11.043713 25.314178 12.926947 
-16.337379 18.729826 9.316771 
14.333566 12.374474 17.048300 
-20.297350 -8.625527 9.309205 
-4.744102 30.030987 -0.300918 
-30.335653 -6.552066 9.009689 
-18.843992 20.751877 13.665160 
10.012408 30.464531 10.328308 
13.490936 28.608528 16.142794 
-23.198788 -8.002372 3.176439 
28.989494 0.959961 0.735847 
18.541752 7.655265 10.872519 
-20.473757 -12.596305 0.421582 
22.642155 4.848334 11.728297 
-22.661434 -7.732290 2.604424 
-11.494055 13.926514 17.098196 
-17.670820 23.216766 17.749805 
-26.066437 -12.171679 -0.660938 
-22.489542 12.426775 -0.019713 
-8.554105 30.333330 12.885958 
-7.644695 28.355673 10.051639 
-21.504879 9.089170 10.195613 
-13.713872 26.324345 -2.824777 
22.273438 4.346358 3.875244 
31.995777 -8.640781 2.726087 
27.194630 11.480552 15.867278 
19.425816 -1.067182 5.083156 
20.303898 6.488575 1.056514 
19.333055 23.076950 5.771250 
-2.200973 34.658760 5.769029 
-21.311792 4.741356 1.192228 
19.849686 -3.181025 5.565959 
20.802937 10.827778 -3.177458 
-2.479574 26.967701 -2.872194 
18.746376 0.168707 -3.049540 
26.048767 9.210146 8.618564 
-23.515602 -1.056008 4.651265 
-17.814463 -0.365002 8.847047 
-31.593702 -4.691070 12.819654 
22.095915 -16.002089 3.257366 
-23.662172 9.754842 5.971014 
-17.159422 24.374681 16.039320 
-14.107621 9.061409 13.009449 
-1.988719 26.660807 2.601094 
-7.708448 29.558004 6.710825 
-18.224970 7.302173 -2.761053 
7.567441 29.590940 -0.052658 
-13.363625 27.109823 14.424643 
15.342490 20.753408 2.099342 
-6.458375 21.509666 -1.862075 
-19.654810 21.845558 14.619960 
-17.280746 0.508097 9.110616 
22.716028 6.528616 12.092330 
20.364721 -6.903926 8.602572 
-26.600298 -2.502717 6.226930 
-9.273641 17.830803 15.708433 
-28.540125 -12.873538 3.707189 
-14.311005 25.989239 -2.467112 
-7.317752 27.803209 -3.717591 
-16.524435 24.985744 15.553205 
10.606354 20.082003 14.336090 
30.118885 -2.487705 -0.030528 
-7.920847 22.516375 11.734239 
-0.736583 24.111250 12.539711 
19.434164 -14.096046 0.239449 
-26.215214 2.254650 2.689650 
14.164528 23.778339 3.628757 
19.730213 -5.992714 8.827059 
15.450660 10.575955 1.782394 
-9.229884 29.753639 14.339724 
-13.561771 10.456682 -0.971400 
5.901505 27.205057 -2.200986 
28.315283 1.097552 11.651565 
-14.730888 7.671256 10.852908 
27.842710 -1.699054 4.651190 
20.444529 -16.051935 -1.273592 
22.281185 24.120020 8.826478 
-18.503836 24.300133 11.598101 
-23.395018 -7.894526 10.292403 
-28.936190 -4.511184 7.761478 
6.413740 35.184525 8.863930 
8.822296 30.887651 11.289059 
12.183715 27.014675 9.226206 
-23.848202 10.076182 0.141160 
17.986073 -5.253686 -3.715757 
12.555511 26.822411 15.889168 
-20.152895 -4.505955 4.163587 
0.441494 29.041361 -1.119259 
-19.131968 3.160342 8.200122 
25.465569 -9.878852 6.239183 
-17.750261 22.241280 -3.740562 
26.439915 2.938801 5.286069 
22.577803 -9.538515 3.056400 
-13.147803 26.448809 -1.509661 
18.192776 -7.499742 -2.344122 
-19.797251 8.320411 -2.844256 
28.055128 8.609015 12.163702 
-13.473535 15.651455 10.888217 
-15.716074 6.446240 7.626959 
11.955489 16.470020 -3.231190 
-17.895750 -5.644448 2.331821 
28.529037 2.984402 -2.813831 
-15.479548 3.332177 17.780285 
25.157143 -5.400022 2.425661 
-8.114595 23.381634 10.597177 
29.304638 -9.167830 7.366488 
-28.319294 4.055221 12.846668 
-12.091234 29.788574 8.587794 
24.210806 9.462536 7.790766 
-28.330791 -1.797625 6.454410 
18.465956 21.070246 13.885479 
-22.222471 14.279201 -2.188021 
-2.061367 30.812683 1.213800 
9.378187 27.650894 -2.415314 
-31.109055 -11.393348 3.347800 
10.126206 25.164883 2.809740 
23.936750 -11.930356 5.932642 
30.265186 2.791054 13.700929 
-2.342413 31.849585 7.968731 
29.502266 0.910397 -1.641426 
-18.302635 -5.716869 3.769230 
-27.778076 -11.865112 -0.189066 
-15.565428 19.926773 0.618231 
8.670467 22.950323 11.902735 
-19.246021 -2.254285 -2.833963 
17.054216 6.299025 7.958769 
2.873210 26.878113 0.469215 
9.550738 30.421156 11.181925 
7.977012 26.180721 13.687681 
15.217824 27.088203 -2.011203 
17.987926 1.029391 3.651620 
26.615677 7.075572 -2.899940 
-5.373583 25.199286 -2.390757 
11.063970 20.655052 13.088791 
-24.385263 -5.477796 -1.960830 
18.770086 -4.635407 0.216696 
-17.651587 7.930185 4.661859 
-23.467896 3.892844 -1.272638 
29.766006 -1.943575 11.677400 
-12.694754 20.485035 9.438126 
26.396172 4.765661 7.113940 
-10.798720 26.226881 3.410831 
24.308098 10.772923 6.513726 
-18.780445 18.299301 10.751087 
-24.717607 -7.535577 11.900217 
33.161743 -10.375062 -0.350892 
28.760708 -9.554402 4.703038 
-23.916513 -2.931256 0.929140 
-23.297104 -7.266522 4.250242 
-26.556610 -9.974541 -0.352873 
-13.771213 23.042187 -3.816325 
-19.707878 4.173280 11.557421 
8.967755 23.762125 -1.432890 
-6.286782 33.693687 6.438641 
-0.095074 22.523499 -4.913147 
13.997752 26.931156 15.135213 
17.787127 -0.352238 9.511072 
24.643448 10.218268 0.951759 
-20.421421 5.793980 -1.440293 
25.377811 -12.693300 -1.049747 
-2.230610 32.933777 12.555463 
30.475044 -9.920985 6.026711 
5.022004 29.025045 0.125396 
-28.000420 -7.709789 7.195967 
-9.514083 24.972670 0.669077 
-15.331450 1.912369 13.100189 
-3.444286 29.880730 -3.810573 
25.185246 5.793233 8.041881 
22.931395 5.235787 -0.089667 
18.917265 -12.892636 0.135265 
-19.533195 21.401264 12.564321 
11.509600 28.296343 1.432420 
26.693253 -7.346972 9.959772 
28.521717 7.695018 12.948259 
-8.665026 27.096436 -7.210780 
22.177055 20.261065 7.270973 
17.846111 8.039294 6.110291 
10.333662 25.334942 0.661924 
-22.704275 6.224696 2.902687 
-20.306536 5.583652 5.397859 
-10.911798 23.110397 9.869659 
-7.874390 24.598690 1.611487 
-28.372326 -3.070210 5.846376 
7.910186 22.699867 13.043809 
-21.374475 -11.184383 -0.165814 
21.876614 -8.731403 3.237839 
28.014248 -7.246913 6.498794 
4.690456 34.086388 6.455217 
25.351383 16.153992 16.135151 
0.208993 34.388870 6.046551 
16.697029 7.425500 -0.197927 
33.674374 -12.753539 -2.870409 
6.633650 21.770552 16.172922 
-11.233964 19.444267 -0.841880 
-24.657728 -8.093787 1.339171 
7.506531 27.039572 -0.296788 
5.553889 26.373602 2.522666 
29.743763 -4.358266 9.678392 
19.445566 -2.934495 -3.148215 
-20.720558 -4.333716 3.642024 
3.609983 29.852051 19.833254 
5.573119 21.491251 17.882027 
-24.152819 3.752435 5.290884 
-19.910460 9.778912 6.620020 
29.218632 -15.338093 3.998476 
8.272568 19.417698 19.862473 
25.876554 -6.210702 2.342170 
-22.303192 -11.175220 5.556136 
-20.248976 -11.782894 6.119498 
-5.958107 23.393881 11.751546 
-22.787224 4.846635 0.649724 
2.388781 25.519247 -0.920187 
24.360109 10.658645 5.269838 
25.439056 -12.060574 5.029476 
28.220736 7.703980 10.883886 
-4.802320 24.318609 11.403048 
19.802280 8.841653 10.451254 
-20.801105 1.365535 4.214417 
16.424686 26.472090 17.891277 
-14.548405 6.320652 14.790096 
-23.831478 3.694613 4.571583 
29.019129 -14.732791 4.896758 
21.784498 4.620319 -0.862363 
31.947855 -13.615575 13.967159 
25.114326 -13.257758 3.124560 
27.041721 11.037551 10.678622 
-26.785130 -4.344804 4.479153 
18.507191 18.151247 10.044273 
23.286140 8.282681 4.374988 
-23.460119 7.533785 2.389094 
-26.866207 -7.825385 5.105063 
18.176174 -0.041114 8.786670 
25.894175 13.234692 10.262438 
14.885165 28.810774 12.230506 
19.515207 24.853527 4.646592 
-22.899826 4.010076 1.259370 
-7.579821 32.456211 6.726209 
10.098896 17.649088 -6.149601 
3.281616 28.408264 2.692366 
-14.571129 26.231739 7.920663 
11.075415 32.184151 11.907817 
-21.575596 6.405748 12.147410 
1.619282 28.198933 0.200827 
0.238024 31.894180 7.565445 
-1.101387 28.082108 3.837877 
16.674957 24.144974 5.727564 
-18.381824 2.383093 6.879151 
0.935429 29.445797 5.811180 
17.243784 24.112820 11.796409 
-7.513030 21.766487 -1.156000 
-7.058466 29.135029 -0.802221 
-13.987218 24.691313 5.577596 
14.189537 28.472021 7.205569 
-18.937462 -14.849096 3.497792 
25.384398 16.325403 13.113652 
17.855923 11.922293 1.639073 
-6.449960 30.475428 6.495009 
-9.804478 27.678326 5.278722 
-10.629886 29.888559 5.520075 
5.788488 29.439852 6.796182 
21.552069 21.466572 13.980301 
-20.387924 12.193970 -0.169712 
2.229798 28.057140 14.625116 
-18.870245 -1.675323 3.425669 
-13.633370 19.852182 13.108943 
-15.536323 26.032398 8.338881 
-3.988731 33.998409 5.199535 
-16.310553 7.076605 -1.439807 
-31.846806 -8.154623 1.317024 
-1.999465 30.104076 -1.230134 
-6.924762 20.985136 13.682046 
-15.574104 24.284502 14.445031 
-15.530342 21.666517 4.777145 
11.393468 24.819897 1.909589 
20.266808 8.392033 -3.281121 
16.855398 -2.986287 17.892611 
-22.150803 7.253429 0.684419 
8.006709 30.947073 11.023004 
-9.286874 28.273792 12.667007 
-19.392929 -2.524417 8.193604 
-28.744324 -2.451833 6.625760 
20.263491 24.454247 4.284210 
-25.592308 5.976409 -5.055666 
30.669115 1.903002 14.085069 
-18.914829 7.383376 0.754550 
-21.941296 -11.120066 2.839170 
-21.049843 -6.219975 11.375264 
5.296760 32.688217 8.031725 
-15.618208 24.484678 -4.647200 
-28.944420 -12.657400 5.275731 
-0.262852 30.134054 14.905831 
-19.526165 -4.265148 0.631995 
-25.549646 3.055588 7.419167 
17.264736 26.619904 3.791795 
-27.836237 -1.660586 3.048426 
27.518948 -5.725648 6.444788 
13.749916 20.714884 1.606113 
24.273317 -6.621222 11.663852 
-23.539042 10.894859 0.251725 
6.612318 35.217148 7.532968 
1.612141 22.873083 -4.056072 
-22.140572 -12.540366 -0.860376 
-17.418676 19.446482 14.216116 
26.252872 6.153212 9.643582 
-24.561317 6.255160 0.147895 
-6.600449 25.275558 -3.152658 
-21.501154 6.124011 4.439802 
9.316657 31.949677 14.732577 
6.924422 35.431664 8.366028 
7.492722 27.201193 4.409245 
-24.176735 -3.879072 9.054441 
17.216015 9.075270 3.744079 
11.794090 28.603107 -0.553265 
-20.695498 -6.279181 4.261363 
1.837136 30.245581 11.174557 
-18.438082 5.125685 1.738505 
-17.788702 24.473724 5.516354 
15.796304 5.783091 -3.889076 
21.233231 -12.630929 5.480299 
17.817026 -4.126735 3.526069 
20.910305 2.613305 8.161192 
21.946169 -11.501186 0.063139 
11.806052 28.118952 -4.656281 
26.846163 3.077970 10.092268 
-25.271101 6.266606 9.229208 
24.769585 5.565533 0.955999 
7.692905 29.921141 -2.022688 
5.560554 30.156244 2.030082 
24.441046 2.780628 10.948926 
20.969616 24.450165 4.604668 
9.179748 24.066700 1.044741 
20.917620 3.872325 0.887318 
-6.078937 28.355398 -1.798968 
17.659494 -3.084813 1.107395 
1.301361 27.364344 2.284117 
-12.462324 25.579906 -1.638258 
9.683390 25.440453 9.440180 
29.161324 -0.935286 -0.506538 
-16.938627 22.977640 -0.759140 
-6.319538 31.018145 14.073589 
12.162435 27.080376 -7.132256 
15.954969 24.781981 -1.218982 
22.516954 22.223129 11.571909 
-24.185076 3.218247 6.683916 
-30.605652 -10.830945 4.885494 
-1.512771 31.145779 4.457337 
7.991686 23.146976 -0.239982 
7.354567 32.950901 9.178827 
-23.489935 -2.068841 4.443545 
22.004381 17.596853 -4.968926 
-14.446691 19.578606 8.736916 
-5.952461 31.094273 15.142092 
0.234879 30.374329 6.772409 
22.625765 -6.752229 3.699873 
12.282716 24.191050 2.855544 
-20.402777 1.451938 7.186175 
24.880997 2.906020 5.004583 
-14.338957 26.443441 7.188835 
20.204861 8.098720 2.738968 
-26.626242 1.631046 2.305558 
-19.762161 -5.982382 -1.736538 
-19.400202 -7.106096 4.780265 
-10.889657 15.487511 15.912721 
-8.858762 24.416010 -2.514385 
-5.231623 30.357410 17.759104 
15.468451 20.763355 0.806928 
-15.093201 25.935514 -0.911162 
-21.895363 3.154142 5.042558 
-26.564611 -0.981106 -1.516843 
-18.884708 2.329622 -1.819791 
24.618528 17.841457 16.454302 
-32.628540 -6.782381 14.762529 
-26.591623 -12.776195 7.577299 
-12.642595 19.333969 -1.849321 
-11.634729 23.503891 9.497897 
18.501917 -12.301399 -2.973858 
-13.742972 26.612318 5.055778 
-1.330117 21.469025 18.301300 
22.626234 2.779250 7.425095 
-5.737244 28.567667 6.012073 
29.872667 -17.651403 -0.245684 
14.512743 24.198223 4.325544 
-26.718048 2.291835 1.891324 
20.679186 -11.290548 2.940773 
10.185304 19.529865 15.854288 
27.952047 -12.051959 5.812773 
-6.286019 27.341763 -3.448495 
29.657129 -8.779166 6.750733 
25.065165 -4.996258 5.175567 
1.451681 33.446728 6.910508 
-18.278028 9.429374 -2.778495 
30.668531 -6.805784 2.973845 
-15.843374 -3.960834 11.805988 
17.775038 26.869892 9.570136 
-19.145384 -0.731557 10.536668 
11.713190 29.003496 17.367271 
-28.550127 -11.967981 5.691354 
-14.508203 24.409145 -6.198349 
-20.188974 -10.577066 5.133732 
-23.970566 -7.727833 6.207717 
25.856318 -12.778238 5.217111 
2.715721 33.715256 6.431881 
-23.218840 11.364219 -5.612620 
15.745759 22.737881 -2.628497 
-27.346539 2.962338 -0.918377 
20.973715 12.748538 -1.757254 
20.493290 -7.042070 5.966717 
-14.962631 3.659038 13.878360 
31.769655 -1.885405 12.604460 
17.586130 2.904977 0.183774 
-23.697329 12.996452 11.544270 
-14.169138 23.904268 7.182857 
-21.189167 -8.431699 9.163757 
11.681378 27.226175 4.144401 
-13.865741 7.871697 -3.103260 
-26.737625 -12.629630 -0.425073 
-23.093466 7.444732 3.765241 
-14.656898 26.389101 15.225511 
-15.199146 24.380955 6.861600 
23.245668 -8.791440 9.039002 
18.859089 22.089844 12.116783 
-24.076422 -3.009687 5.754380 
-7.043962 22.630888 -1.032372 
-18.058949 -0.253026 -2.536775 
17.655821 10.413302 -2.288054 
-20.101896 -1.791451 11.230139 
-12.460480 21.856024 -3.374618 
-1.039508 24.476185 0.653973 
23.037630 -2.949515 -3.077269 
-16.878357 -3.800786 0.218437 
6.102872 28.757214 20.715088 
20.626091 24.846504 13.014824 
-15.667591 5.622714 8.525334 
27.539280 -11.637190 -0.906626 
26.121971 14.061470 12.691064 
-20.560507 -0.014494 0.613713 
20.979282 4.696531 11.573018 
-19.479952 8.213208 7.804817 
-23.846376 -3.179124 -2.547135 
25.378828 -7.484233 0.947137 
-17.360521 -6.779094 8.296740 
22.146727 7.267446 12.077822 
-25.267662 -3.901310 12.604353 
-25.264551 0.453072 12.110409 
6.696577 30.130430 4.019157 
-21.996288 -6.448274 4.142576 
29.647142 -4.936123 6.044091 
19.118137 1.639797 -2.553734 
14.880729 26.529348 -3.050542 
-25.893484 5.388638 -1.827427 
-22.953865 11.467920 -0.016094 
-14.604402 6.580365 11.196021 
-22.129440 -16.899546 4.997342 
-12.892978 29.353025 8.877348 
15.080557 18.474663 9.782969 
21.255472 5.369202 2.801754 
19.078264 2.369352 -1.699713 
15.593771 6.213644 12.907372 
4.690864 27.326033 -0.628367 
-3.870825 20.833191 17.655815 
22.616362 -10.598611 6.283563 
7.407499 33.940414 13.681825 
-31.701029 -19.885679 -2.362733 
-33.089237 -13.962339 1.466218 
23.558416 -2.333258 -3.106912 
-20.544909 -5.738766 1.077860 
14.811044 9.712176 16.833666 
8.938807 33.507168 9.523296 
20.102016 5.871252 11.667377 
18.316593 -4.688179 1.696684 
-18.470385 4.920737 4.240124 
-14.749172 9.044052 10.607393 
-28.617558 0.334473 -2.880786 
14.537257 25.162643 10.668915 
22.820183 3.307552 5.791654 
-0.667546 31.024382 5.124044 
13.019032 13.796221 -4.241761 
-15.815571 7.321219 -0.459088 
14.301441 27.949142 16.857676 
22.181309 6.413057 1.315121 
-33.684834 -12.569709 -0.320871 
-19.316486 18.566898 -6.354491 
17.658987 25.553751 1.130464 
-15.575068 22.509790 7.553624 
19.998075 -7.216002 1.548281 
-11.252310 27.020283 -5.020649 
14.021983 15.092816 -0.142391 
19.909798 5.625784 0.066196 
9.715226 26.992786 -2.280608 
-22.826429 13.149673 -3.928409 
16.466686 7.817835 9.782241 
9.518815 30.365541 16.540720 
-16.643028 -4.732105 -0.046939 
3.692624 29.888748 -5.377048 
-13.373476 27.197821 6.850901 
-16.935167 -0.365166 4.162137 
7.401393 29.962368 2.915945 
-26.593925 -5.384481 5.579525 
-21.668222 3.864503 4.875409 
25.171553 1.745117 -2.696000 
-17.942127 17.733837 9.091912 
17.328545 5.129204 9.743923 
-17.928373 -14.778620 0.118895 
16.124722 21.135656 1.011200 
31.385746 -0.073519 17.139473 
19.128338 7.951080 4.448226 
-17.715666 -15.484283 -2.773276 
-26.568243 -7.503159 3.330602 
17.592581 23.639114 5.192719 
-17.979916 3.751359 2.215561 
23.447495 12.720565 1.882615 
5.410866 28.186913 0.932253 
-18.498039 -6.663290 3.567409 
16.681160 -1.847056 16.013966 
0.620367 33.499729 11.196114 
-19.769037 -14.836414 2.997869 
-20.413460 -7.577953 3.887027 
16.979893 0.918517 1.471609 
12.408144 20.912403 0.863953 
-20.370766 14.192661 8.361717 
25.312059 -13.074315 4.151483 
13.279640 23.975723 -2.907423 
22.314169 21.449625 12.429570 
7.071366 29.923447 -3.037718 
15.043420 26.709341 12.206696 
18.537933 -5.530632 -0.143250 
23.228228 21.584122 12.492132 
-20.254850 -12.467023 16.149401 
31.429260 -12.796234 5.770820 
-5.042618 20.870214 -5.330812 
-6.813118 26.705956 -0.789801 
1.619098 29.905094 -1.413782 
16.040461 17.105093 9.991750 
27.372080 -12.300365 5.246971 
-33.411297 -16.368219 -0.996387 
1.131205 28.470053 0.772222 
1.700409 32.272095 9.982005 
15.206428 28.262817 13.666868 
-32.407257 -15.470531 1.965469 
3.779654 30.257015 -4.505862 
22.644604 7.369109 -2.198091 
-6.932611 29.313646 6.700179 
22.425694 -10.911092 3.456489 
13.576333 26.922235 -5.969074 
-18.179859 10.894702 -2.311877 
23.734118 -7.419548 4.557554 
8.164270 28.711725 -2.290497 
-8.246929 25.197784 -3.164605 
-3.002295 29.520433 -2.534348 
25.565693 -4.102757 12.280676 
-23.460945 3.240651 5.236430 
28.894716 2.044754 9.466106 
-16.693455 -3.914176 1.036005 
5.952981 31.050337 4.416385 
18.570326 4.627793 10.874622 
4.110293 24.462540 12.813710 
17.728603 25.598505 3.277188 
-22.263645 8.345845 5.659565 
0.178352 30.528923 5.723942 
-8.468424 30.719893 6.632008 
2.398257 29.429478 14.960531 
20.052422 10.541265 4.632664 
24.538267 7.305430 11.995995 
16.897488 25.329067 -2.007812 
-21.094860 -18.694855 2.924251 
-16.594805 19.077204 10.312304 
16.002762 17.959021 9.487658 
6.924758 22.685863 0.187915 
-25.330486 1.257382 5.769366 
-25.191902 -2.144652 12.570944 
23.900177 -9.121696 -0.829390 
-17.091373 23.791121 17.639187 
-28.166775 -0.322198 0.272683 
22.552637 10.820064 5.138359 
-16.420692 20.209650 8.117206 
-10.828254 26.533278 0.840925 
15.949245 28.015398 13.398326 
-15.923431 -3.642241 15.409083 
-11.302798 24.186518 -0.308114 
5.476235 28.840052 1.529631 
17.028261 1.971602 -1.687782 
26.643038 12.940575 15.845943 
8.583923 28.297359 10.356194 
5.943146 32.244610 8.764387 
-8.442223 29.814501 15.698943 
-20.448196 5.502020 -0.565922 
-23.356428 -2.543235 -2.705036 
22.045570 -18.066975 -2.355410 
28.835447 3.168498 6.586883 
-17.014046 10.913194 -0.505632 
-24.209255 12.085260 18.429863 
10.218172 28.896538 3.566455 
-1.862096 25.435432 13.234314 
19.782862 -3.185608 4.117665 
-3.492016 24.707108 11.133028 
-7.619632 27.835052 11.745644 
-11.104536 25.768816 2.549623 
-22.642906 6.322422 4.861832 
-20.697166 5.876812 1.419406 
-11.121203 28.218180 5.511807 
-5.530485 29.791224 -0.151693 
24.074305 -13.751759 1.697092 
-29.568960 -8.014864 9.105919 
-20.207874 17.760031 -1.317492 
-11.208507 22.820868 12.459725 
-29.774063 -2.368986 -4.194843 
3.130273 33.104877 6.155935 
-20.711468 -15.300382 0.613010 
12.494412 28.938307 13.574860 
-21.241285 2.396869 9.963071 
12.807254 20.576880 11.320903 
-25.073702 1.403532 0.601031 
-16.741154 19.263638 8.322526 
11.205381 28.676550 -2.747191 
-22.931435 6.931540 12.063274 
8.325163 28.825661 12.439808 
-20.663303 -5.157148 4.804349 
-0.521306 32.424725 7.669818 
27.719526 8.575916 10.359926 
-28.857460 1.367430 11.248652 
24.382772 -1.628619 4.713389 
26.280161 -12.617808 -0.908797 
15.973359 25.317316 20.603586 
-18.315268 -0.719352 0.626319 
15.959544 27.733610 15.259217 
-21.403648 10.334972 6.358160 
28.718523 -13.973973 12.662855 
17.022829 12.398726 2.288666 
-5.473826 28.217424 4.904403 
21.809361 23.234161 13.345101 
-18.270332 -9.847773 0.936383 
26.196192 -8.019439 8.288694 
-11.137313 15.850896 14.626904 
29.153328 -4.471709 5.340423 
-2.857263 29.427223 5.355519 
17.316927 26.429007 4.614705 
29.855907 -11.787142 3.011716 
-13.164102 20.767906 8.898835 
32.591351 -7.957456 -3.377984 
-20.112514 -8.695305 8.586542 
-26.951883 3.577680 -1.924713 
14.930846 9.463127 -1.171405 
23.046911 10.720424 -2.544243 
-12.082405 23.520163 12.040714 
-14.188936 21.750587 3.432262 
0.288702 25.824465 1.436885 
-19.908621 -13.251605 5.629674 
21.227228 25.159718 4.676366 
26.404585 -4.983677 2.623438 
10.792958 34.450066 10.654179 
-16.406389 -9.421990 -3.404975 
13.870078 29.574228 11.261314 
30.110743 -18.614361 -2.268180 
-1.947748 32.002605 14.509978 
4.319730 34.371536 8.610872 
-13.432671 26.927189 12.654672 
-5.499667 29.360676 -3.726316 
5.814775 30.186211 0.787312 
17.151329 26.088491 6.201331 
13.419567 18.346537 11.899344 
12.936039 19.805145 11.487550 
12.852176 19.286003 0.705230 
-14.013061 26.804407 14.884503 
6.119303 28.615063 16.750399 
-16.906496 22.973726 3.628442 
14.945889 8.216639 18.930811 
14.685210 22.495815 3.016454 
22.307592 -1.232509 0.071039 
-22.055834 10.313633 7.709290 
-18.229549 -1.466587 4.974850 
10.743178 31.971603 12.615649 
-21.314808 7.802147 -2.442071 
-25.183542 -12.022449 -0.825367 
-28.792538 -11.082412 0.195844 
4.557275 28.678738 0.641818 
17.588163 25.927422 4.082716 
16.206903 19.181137 8.854847 
-20.886488 -11.507155 7.409632 
17.139330 27.278917 13.343496 
3.787175 25.710796 -1.058022 
26.885984 10.812147 9.796480 
15.346183 27.583019 4.953137 
-23.305490 2.883267 8.527615 
24.120722 8.432542 0.008888 
-11.997178 15.575818 -0.982680 
-9.502765 24.551434 14.690466 
-19.388588 -6.332049 -0.185158 
13.090942 19.086226 11.701861 
6.894335 26.544338 11.578637 
-2.362256 29.899380 19.719452 
26.238993 -6.653389 3.037486 
-15.826849 24.951696 17.305706 
-0.866508 27.118540 1.545853 
-14.823890 19.507765 0.902624 
-17.882669 0.833119 8.440690 
-22.658575 -5.177665 12.099115 
10.065685 28.493425 7.316782 
-15.747549 -1.821217 15.308606 
-5.981948 27.981718 9.073030 
25.843822 3.454341 -2.041858 
-18.567616 -12.513062 1.777201 
24.066719 -14.353971 5.188749 
22.807865 4.659266 4.286890 
-23.983503 2.731150 8.864181 
31.150551 -4.976799 0.097686 
-13.096126 28.509682 10.976093 
19.560604 1.380504 3.834962 
29.918785 -1.575269 9.421755 
22.603455 20.951981 10.167538 
-29.085915 2.986835 14.105358 
18.467325 19.722622 8.054566 
-17.073593 24.157360 5.826592 
3.260919 29.337008 7.523723 
18.831095 -0.560552 6.311410 
-15.660938 25.713350 -0.367186 
-13.474124 9.035260 -4.102365 
-27.919888 -3.360220 0.568365 
-20.798861 10.598957 5.580706 
-0.535308 31.767204 8.190031 
-10.411519 24.452950 11.894277 
-25.382814 -8.780910 3.129006 
-8.596189 26.716997 15.139201 
15.635162 12.150086 11.953795 
2.342211 30.391304 8.018446 
10.764256 30.302731 10.393293 
13.404426 28.174156 14.670918 
-10.670148 15.135777 17.367798 
-19.924337 -15.441829 3.421223 
-25.567766 -7.629494 5.318505 
-16.426435 1.661436 2.391055 
-15.509440 25.772030 7.453050 
-12.704674 11.140942 18.595610 
25.271675 16.294329 11.862782 
-26.495445 -6.729099 3.086673 
-26.088577 -13.341324 -0.429393 
-19.814268 -7.007562 0.790835 
-18.405371 20.720499 -0.279132 
-31.034405 -0.473046 17.065886 
5.066655 28.525549 3.342970 
-23.854446 -7.735898 11.718404 
24.423626 -13.882246 -0.331962 
16.833166 -2.323802 13.050088 
12.321439 30.346188 9.378169 
20.517548 12.849811 4.509262 
26.336311 7.446944 9.815312 
-11.126798 25.519070 -0.101521 
-24.706461 -4.806291 12.492744 
-22.398849 -7.493935 11.470448 
17.394352 9.974326 8.822515 
-5.533743 29.597551 -2.690510 
19.906160 25.925613 7.197093 
-19.207991 -4.408179 -2.576159 
21.327274 5.567733 8.533403 
-29.079857 -1.217311 10.276690 
7.749381 22.151840 14.031440 
-28.402046 -12.998790 2.330997 
22.351498 -6.103483 11.280849 
-32.917088 -15.921229 0.557150 
27.445496 -8.790976 -0.926873 
21.121569 10.235864 -0.140638 
-16.404455 -6.520029 -1.803898 
-31.183275 -2.835175 13.638592 
-19.599670 -17.259798 2.990627 
-15.134453 3.672076 -2.546160 
23.953049 15.509547 8.125759 
-19.147699 -6.176005 10.444278 
-10.940244 23.508696 10.613561 
28.172529 8.592813 13.285440 
-11.139771 26.801405 20.141434 
-21.785809 14.351030 -5.920942 
-15.694116 -0.720346 13.689446 
-24.304525 -1.023554 -2.446866 
11.602571 28.095781 13.562833 
-27.611832 2.645458 9.980005 
-28.341228 -2.011077 1.502036 
22.833036 -5.562713 4.925118 
24.984694 -2.366887 0.739754 
-14.293178 24.137367 11.036265 
14.645094 20.893257 11.701190 
22.850441 -3.091872 0.444397 
-15.431655 1.687974 15.915025 
15.903739 27.496449 16.103533 
-16.151537 -5.583136 16.905155 
22.717485 5.983738 1.745657 
21.823254 -3.905844 3.955595 
-16.586609 -7.371998 10.469598 
20.741165 24.696842 15.219872 
-14.022251 20.804966 0.173236 
13.139644 14.303616 19.477741 
-15.206709 4.624426 17.911051 
32.357033 -2.432797 15.532589 
-8.765415 27.953850 13.772953 
18.466587 26.748953 10.248809 
9.784279 28.269405 -0.680484 
-2.331277 29.672356 -2.255023 
-2.741753 26.197863 -2.495184 
8.972597 29.423719 11.677892 
25.778465 4.293934 7.671244 
2.006483 22.419245 -5.399896 
-9.787193 23.892340 14.305631 
-24.148279 10.210140 -3.174817 
-25.794689 -12.618704 6.062915 
26.844477 -13.143029 -0.486782 
2.300116 32.112873 6.329007 
20.598139 8.883575 3.356351 
23.615757 4.843958 0.839214 
16.514704 3.579078 -4.648609 
-15.571062 -0.058135 15.474771 
-0.241012 33.383232 11.963943 
-3.846386 30.039673 16.640436 
10.943226 18.881763 15.731360 
0.368120 29.814470 -0.000661 
20.655949 3.540137 11.017819 
-6.488294 28.065084 14.086782 
10.853259 22.583925 -0.394811 
10.019401 30.636547 7.270412 
-24.825607 8.063605 -4.263103 
-24.409365 4.266194 9.578822 
27.276653 -15.031696 5.029794 
-3.437954 30.177914 6.809100 
0.606523 30.973303 -1.278558 
10.378170 30.680105 11.041397 
-16.036131 -1.017168 2.529134 
17.500034 -2.833154 -1.832113 
31.198683 -15.910356 1.329581 
19.003960 -7.309656 0.321142 
-16.264172 7.190909 5.375460 
-28.370731 -1.146930 1.249378 
5.979615 25.878559 13.670904 
3.439622 24.765965 12.422470 
1.989145 26.102478 11.208223 
-5.806965 25.206907 0.668571 
12.472705 27.756596 4.731771 
-3.538651 33.671650 10.014284 
-0.861282 30.415556 15.385939 
17.506546 -10.536186 11.453064 
29.546988 -1.103536 6.257378 
-26.394609 -9.248189 -0.135313 
-19.304958 23.051380 11.289727 
-22.194931 14.013798 -1.431266 
23.226107 -2.447944 8.896608 
9.864852 29.079363 -2.172957 
-23.946772 -7.814895 5.022845 
-19.859873 -13.955750 1.830314 
-19.051388 -10.785448 8.465870 
-18.334454 22.441948 17.797476 
-24.601511 0.301067 5.367118 
17.498381 23.907507 0.822401 
-10.262935 23.469889 -2.054928 
-19.341249 -6.269335 4.570010 
4.505767 31.344179 8.253171 
22.387951 22.335554 16.060999 
-18.541891 8.000553 11.252477 
31.641464 -17.507498 -2.378752 
23.005560 -9.934060 -0.691440 
26.233183 0.000121 5.919922 
-27.583838 2.590881 -2.083819 
-17.499943 -9.462849 9.639448 
-17.168407 -8.279387 -0.483160 
-17.656885 11.514252 -0.044806 
-18.691893 -6.058278 5.763610 
-19.949453 -8.774610 7.491083 
18.466473 11.942479 3.528415 
-20.778524 -8.590507 7.452395 
31.421774 -11.293350 3.043558 
-17.436409 7.675880 -2.729628 
13.711972 13.165188 19.380688 
4.814643 22.262182 16.606649 
-1.105137 25.469706 0.617341 
25.603058 -11.012907 6.324286 
17.878815 0.988430 -0.902094 
28.400909 6.872836 10.523865 
24.207779 11.599753 1.780658 
15.967375 25.726252 7.325745 
19.040747 -10.377239 0.774972 
20.864071 3.429565 5.508596 
15.118812 9.609216 -0.200550 
-24.562529 3.988436 8.779327 
-18.817509 23.763632 5.245965 
26.163485 -5.850090 12.057849 
-14.271461 25.549852 18.658058 
24.971552 4.761524 5.070292 
25.252155 4.227703 8.765758 
-19.270023 4.546238 3.360855 
21.008963 19.376690 -1.217039 
23.214766 20.823200 16.334639 
-21.349682 -15.144298 1.385499 
0.927814 23.497391 -2.366104 
-15.381025 2.545204 -3.419586 
14.660374 29.880087 7.020390 
-28.666628 -9.440136 9.412992 
-7.345135 23.197437 12.103846 
26.917265 2.652595 11.197853 
6.110002 29.542400 1.475968 
-17.009071 20.452778 11.890691 
13.776291 17.192041 12.437028 
20.685133 -1.468472 8.227182 
29.089314 5.719700 19.005680 
19.274817 23.222549 -2.804015 
-28.733410 -10.670172 7.041626 
15.133061 7.985359 -3.423322 
-14.741861 4.997040 13.658426 
-3.278623 30.171877 19.039448 
-24.279785 8.872758 -5.354935 
-7.810666 31.577934 9.520687 
-1.043400 23.824137 -0.404688 
0.814260 30.025270 -1.801443 
-24.156065 -7.733514 10.058108 
-11.003374 18.488251 11.870136 
-8.835644 27.803839 20.289589 
10.334263 21.033958 13.044495 
-24.846087 -5.051579 5.229789 
-16.195677 -4.777437 -3.891867 
-22.235508 8.445358 0.222897 
0.476117 30.690506 7.807595 
15.007675 25.655077 -1.733533 
-21.894072 12.997623 0.327026 
15.203928 15.828084 11.553724 
-11.818899 14.985027 -1.915074 
7.745335 29.478598 -4.199035 
6.537336 31.616323 9.510981 
-6.434139 28.577351 20.417831 
-28.481680 -1.567457 9.033786 
28.390846 7.711692 11.834204 
10.657319 28.381653 19.412848 
19.818157 9.859457 7.370509 
28.336483 2.792507 9.045172 
26.090641 -4.784871 9.303603 
22.504663 -9.157675 5.469225 
22.322664 22.449821 12.411714 
30.924316 1.224940 14.466318 
7.628602 31.415020 10.582419 
-22.177250 2.345333 0.798675 
-23.118662 -10.472135 5.302855 
-25.044762 10.576547 11.871495 
-21.571280 -1.188697 3.694792 
-1.119973 25.545456 -0.379171 
20.518330 -9.739990 8.912192 
0.732209 28.247862 3.170184 
3.403440 22.628126 -3.727562 
2.568164 25.516785 -0.072121 
9.001433 32.841934 10.130052 
27.087309 -9.273741 7.738476 
24.037603 -4.263478 5.468282 
17.691460 3.395941 2.558355 
-13.059057 10.095155 -5.441889 
-31.037872 -4.756586 -2.461509 
20.916157 6.399674 -1.975832 
0.252515 30.861538 18.416349 
27.824732 -6.734291 4.258080 
31.658291 -6.733655 1.080615 
-18.553713 10.132156 -2.638043 
10.167901 19.812428 -1.985229 
-21.726721 -14.957391 2.612023 
-18.301481 -6.449758 2.878439 
-25.580021 5.470884 -1.016631 
14.020807 12.836679 -1.850188 
18.780434 -9.456001 0.007675 
24.118164 19.446707 10.689346 
24.333342 10.112614 2.508784 
20.735041 -12.305708 2.966622 
-15.808770 -4.265462 14.103757 
27.928444 -18.605391 -0.264751 
-10.908841 15.084282 -4.516061 
-21.070065 -7.483940 0.833199 
20.079081 -1.972421 -0.100314 
-17.955816 -0.079434 9.583846 
3.831055 33.369141 6.354324 
-3.391236 31.251474 6.699249 
13.624972 20.661751 10.281548 
-23.750387 7.646372 4.240625 
21.047270 6.132790 -0.861248 
-13.487883 8.882711 -5.316167 
-5.795945 26.243763 10.014832 
-9.669825 25.792023 -1.504795 
2.759488 29.995192 19.713242 
18.553902 -1.113198 3.130719 
3.577335 24.356575 -0.288218 
18.701363 -0.574703 7.899074 
-14.711143 5.186342 11.571269 
2.350128 31.699896 12.444340 
25.434124 9.123529 -0.942180 
21.500656 10.418155 8.227417 
-20.471945 -7.861918 2.269200 
18.387655 10.923286 -2.865025 
-9.879131 28.587736 17.348444 
-15.010074 23.435034 -6.849749 
26.718725 5.398022 7.413366 
30.340670 2.349581 18.708477 
13.745665 12.753412 -2.927951 
-2.864093 26.728203 2.556490 
-19.241438 6.736487 8.682585 
10.436917 30.285334 13.003296 
17.082094 1.436813 -4.421582 
22.393740 -7.871364 9.828717 
-13.924178 24.878300 -6.149254 
4.855709 24.389742 12.713404 
-8.866086 27.321859 -2.839174 
-2.555761 22.821484 -1.940441 
15.077057 24.501801 8.959928 
-29.355364 -12.670431 3.083780 
3.999023 31.247837 -0.030784 
17.745081 8.013375 -3.144788 
30.732117 -5.084581 0.977077 
-24.115562 10.464618 9.252420 
-26.137684 -8.061890 6.778241 
-14.702259 5.096828 12.542452 
-27.892578 5.757665 17.737154 
-27.706776 -4.037130 0.935555 
29.016710 1.854605 -2.830416 
1.264356 33.244377 9.811829 
20.137474 -10.434551 9.269764 
-0.717141 30.469788 7.277585 
-18.607868 5.453815 -1.119436 
1.428343 31.452019 1.693242 
-9.039484 16.554825 19.199759 
-19.874180 20.855803 11.903896 
23.066647 21.898430 8.695707 
-20.410006 -5.246861 -2.497787 
-24.504578 -13.848166 5.662857 
-12.030056 20.916391 1.671584 
-11.444313 13.588134 -5.802687 
17.154720 26.161205 17.659403 
-12.131597 28.384726 12.664702 
19.682043 25.998674 9.609492 
-23.096193 -4.448652 12.288911 
-15.912922 21.932835 -1.014210 
16.804405 11.695494 3.158289 
-12.758528 22.528120 2.673972 
19.857931 2.246886 4.049825 
-5.516279 23.798559 0.097434 
-13.657966 25.577276 5.283419 
15.839020 18.834961 9.520964 
-12.012774 26.742842 19.152445 
-22.502014 2.666313 9.270426 
17.756422 13.587518 8.531548 
-12.392238 26.466583 4.364427 
-2.052160 26.219679 14.267831 
-15.716225 8.056015 -0.557302 
-17.080109 23.547441 0.740599 
22.068007 16.308315 -0.531757 
16.903978 18.287127 9.836774 
-26.543322 -13.519762 2.808050 
20.833883 -0.099756 10.720304 
27.969845 -4.307056 2.048579 
19.481472 -0.074250 -0.076684 
-10.485269 27.316887 -5.185458 
9.715609 19.133118 -3.891640 
6.371151 26.598814 0.410858 
-12.775360 16.105961 11.288755 
28.927837 -8.345343 7.325336 
-33.184628 -8.641768 -3.548796 
15.459207 6.981998 -2.482697 
21.030024 21.338213 6.077055 
-5.212153 21.502136 14.736383 
21.614449 5.255733 1.437559 
3.894597 30.820335 16.474476 
-10.306703 28.108444 7.474361 
3.868731 30.544697 -3.715614 
23.804043 8.625293 3.753916 
-17.261227 6.852418 1.002353 
-18.586203 1.087997 4.790700 
-28.883787 -4.533187 5.861363 
17.438702 -2.577187 2.933742 
20.885929 2.676278 7.083922 
-3.212552 25.840843 13.960905 
-26.565958 -6.110386 1.534791 
-0.102019 22.141718 -6.658953 
-23.632246 -4.773613 -2.336745 
33.908684 -8.379804 14.656853 
29.908903 -11.213034 7.730420 
-25.493637 -7.510785 4.232790 
18.082136 24.844687 12.659372 
-2.828285 28.960138 13.732214 
1.689463 25.935150 -1.271585 
5.532612 24.465374 -0.490143 
-18.499758 3.481501 2.692690 
-15.651498 1.741804 -2.281361 
10.114435 30.031351 6.470435 
9.260429 29.150116 15.459249 
19.594412 10.307259 -3.341237 
27.500118 2.584407 10.719049 
22.681190 13.210392 -0.450194 
17.765526 20.931778 13.658323 
7.126078 21.753975 -1.364643 
-16.461487 24.390106 17.470669 
6.114869 26.277525 11.372487 
20.147835 0.841622 3.368718 
20.543190 -7.358932 7.664729 
-13.854547 25.614828 -3.217532 
23.762737 -16.915932 2.901664 
-26.857479 -6.240975 2.438216 
-20.973875 4.396467 1.952046 
-26.149891 1.510023 5.563956 
26.836908 1.754205 8.630778 
19.203835 -5.168044 4.423316 
-24.180796 2.827700 4.772781 
11.315135 25.395517 15.198035 
21.584827 5.237459 11.810837 
26.547167 -2.599010 5.337143 
-13.435152 27.934320 11.584555 
-13.990631 21.121851 13.847685 
-15.773617 -0.203024 17.432652 
5.278247 29.345764 3.908724 
12.434755 19.896027 0.881468 
20.140305 7.619851 11.658020 
18.714382 3.587451 0.608458 
32.533081 -7.826206 -2.050303 
17.123758 -1.433195 2.643964 
-20.818878 -11.037578 6.448810 
0.448917 29.906967 6.137996 
29.796095 -11.619892 4.584968 
-1.968366 25.633707 10.417744 
-17.139936 8.410965 -2.701091 
14.587208 21.619087 9.946602 
-14.350774 7.692773 13.196908 
17.639761 25.951237 12.204712 
19.521723 9.401779 5.944896 
6.089117 20.812555 -6.496553 
21.610395 -5.328969 0.828026 
0.195296 28.970621 2.266039 
-31.128319 -4.883088 -3.935863 
17.525873 -0.731899 -4.192235 
16.190123 27.496166 2.775131 
-6.965009 28.686510 10.104467 
26.294439 -9.341427 4.007565 
-15.454800 2.402421 -4.643005 
-26.766533 -8.555671 3.330185 
24.460674 12.829789 -2.037454 
21.589767 1.389814 7.465594 
-16.022484 -1.591133 -3.295307 
21.711611 7.896688 11.965632 
13.427670 14.438020 -1.864822 
-9.797375 27.606129 -0.950689 
12.182951 27.001379 20.681435 
18.239655 22.603334 1.608817 
-16.891989 10.409729 3.848390 
-25.332050 -13.935252 1.878155 
27.066889 -6.965729 6.051888 
27.964691 3.501218 1.207509 
28.506168 -12.300802 2.238328 
20.388849 25.637636 10.013286 
-7.720342 25.557726 9.420242 
-21.545647 -3.130236 -2.885534 
-18.254696 -6.100243 1.662301 
-24.815260 -15.154753 5.473416 
0.963622 28.963882 10.476679 
-22.292923 -20.744780 -0.552086 
14.460645 14.578815 13.939077 
29.016853 -1.659855 -0.710924 
-13.902010 7.634861 -5.186672 
19.172417 2.792457 3.988161 
5.470882 24.495012 -1.395522 
-23.511986 5.914498 9.133336 
-15.606186 2.394517 17.686993 
29.976568 0.497526 7.534784 
-22.156174 4.347757 8.696118 
-0.705954 30.789820 -1.170662 
-22.006321 -5.756738 11.815663 
-13.376994 21.596611 -0.276706 
-17.223238 5.841496 -1.010529 
-13.050601 26.850439 17.142071 
-1.507843 25.998411 2.155612 
-8.124672 26.417713 3.133990 
-33.924995 -12.710452 -1.651620 
7.754030 26.712208 14.780093 
21.165937 2.451468 0.247289 
18.462593 6.897051 0.723922 
8.029862 32.695984 9.934695 
-22.281008 7.055278 4.935030 
25.608955 3.874684 4.299644 
4.503610 34.116837 9.720980 
-22.580841 -7.716547 3.494833 
-3.101026 34.073036 5.278982 
